# .PCD v0.7 - Point Cloud Data file format
VERSION 0.7
FIELDS x y z rgba
SIZE 4 4 4 4
TYPE F F F U
COUNT 1 1 1 1
WIDTH 1004
HEIGHT 1
VIEWPOINT 0 0 0 1 0 0 0
POINTS 1004
DATA ascii
-0.40345195 0.056714352 -0.11452758 4288591465
-0.40585285 0.059654023 -0.11781715 4288791403
-0.409549 0.063037477 -0.12287399 4288135026
-0.41333699 0.066505313 -0.12805647 4288654201
-0.41590059 0.069625966 -0.13156886 4290163583
-0.39743108 -0.024227494 -0.10939675 4289877845
-0.39680955 -0.022117015 -0.1085572 4290472027
-0.39553341 -0.015797447 -0.10684697 4289684327
-0.39434767 -0.013754086 -0.10523157 4288504944
-0.39317119 -0.011726271 -0.10362871 4289572760
-0.39200374 -0.0097137969 -0.1020382 4288397727
-0.39028928 -0.007767099 -0.099695444 4289037958
-0.38750148 -0.0059497068 -0.095876776 4288180330
-0.38530132 -0.0041098031 -0.092865832 4286022001
-0.38155881 -0.0024746901 -0.087733857 4288256146
-0.37996265 -0.00063550542 -0.085552961 4286743407
-0.37838414 0.0011836301 -0.083396189 4286730066
-0.37732878 0.0030510677 -0.081958666 4289811030
-0.37577903 0.0048340317 -0.079841234 4290662746
-0.37524107 0.0067460039 -0.079115078 4290860122
-0.37470502 0.0086513236 -0.07839153 4290859351
-0.37516552 0.010712556 -0.079038598 4290926680
-0.37512773 0.012696268 -0.079000354 4291847504
-0.37558979 0.014769244 -0.079649672 4292973382
-0.37706235 0.017036937 -0.08168903 4294555204
-0.37804034 0.019231699 -0.083048232 4294951744
-0.37954015 0.021545798 -0.085125312 4294950973
-0.38105667 0.023886029 -0.087225623 4294949185
-0.38206422 0.026140111 -0.088625811 4293892425
-0.38255137 0.028294381 -0.089310162 4292371539
-0.38304034 0.030457051 -0.089997075 4291777879
-0.38353115 0.03262816 -0.090686545 4291646297
-0.38402382 0.034807723 -0.091378622 4290405728
-0.38451833 0.036995836 -0.092073321 4289487972
-0.38501468 0.039192528 -0.092770621 4290405475
-0.38605249 0.041541025 -0.094213083 4289962860
-0.3876439 0.04405655 -0.096417442 4288322679
-0.39204523 0.047383055 -0.10248909 4287664246
-0.39775288 0.051150154 -0.11035898 4287663979
-0.40007475 0.054004066 -0.11356962 4288590443
-0.40243393 0.056904148 -0.11683176 4288856682
-0.40483129 0.059851509 -0.12014674 4289118574
-0.40852234 0.063244537 -0.12524271 4289379449
-0.41101953 0.066305831 -0.12869565 4289575294
-0.41355833 0.069418542 -0.13220619 4290295935
-0.39469188 -0.024265924 -0.10923799 4289745754
-0.39407808 -0.022163389 -0.10840211 4290270039
-0.39403751 -0.020041445 -0.10836132 4290079839
-0.39342615 -0.017950628 -0.10752878 4289288032
-0.39281711 -0.015867656 -0.10669945 4289485412
-0.39221048 -0.013792483 -0.10587338 4289763720
-0.39104438 -0.011768221 -0.1042712 4290036134
-0.3898873 -0.0097593032 -0.10268141 4289179034
-0.38818815 -0.0078158518 -0.10033955 4285890981
-0.38596588 -0.0059478958 -0.097271845 4284386963
-0.38377723 -0.0041078511 -0.094250455 4284773999
-0.38057479 -0.0024136298 -0.089822412 4287795582
-0.37898105 -0.00057118956 -0.087625958 4288916127
-0.3774049 0.0012511601 -0.085453808 4285942358
-0.37635109 0.0031219667 -0.084006213 4285679942
-0.37480378 0.0049079494 -0.08187376 4288564053
-0.37376904 0.0067489673 -0.080452353 4290270808
-0.37323555 0.0086544612 -0.079726472 4290992220
-0.3731977 0.010634478 -0.0796884 4292044133
-0.37365538 0.012699801 -0.080337904 4291451490
-0.37411463 0.014772966 -0.080989763 4291386712
-0.3760834 0.017134815 -0.08373674 4292248650
-0.37655139 0.019235818 -0.08440084 4294223169
-0.37855649 0.021653309 -0.087198585 4294883910
-0.38007024 0.023998694 -0.089314491 4294090313
-0.38107586 0.026257602 -0.090725228 4292503379
-0.38156196 0.028416326 -0.091414906 4291843158
-0.38204986 0.030583471 -0.092107147 4291776858
-0.38307053 0.032885186 -0.093539067 4290731875
-0.38356405 0.035073701 -0.09423925 4288970355
-0.38405943 0.037270784 -0.094942063 4288181616
-0.38455671 0.039476492 -0.095647566 4290077539
-0.38613942 0.041980095 -0.097860269 4289960809
-0.38719139 0.044362281 -0.099336132 4288454517
-0.39216888 0.047866065 -0.10626309 4287533165
-0.39673761 0.051325906 -0.11262306 4288195944
-0.39905587 0.054187115 -0.11585821 4288659560
-0.40141147 0.057094682 -0.11914548 4288790638
-0.40380532 0.060049791 -0.12248609 4288393846
-0.40749115 0.063452423 -0.12762143 4289115765
-0.40998489 0.066521995 -0.13110135 4289707383
-0.41252023 0.069643207 -0.13463941 4290361468
-0.3925418 -0.024284953 -0.10987548 4289688170
-0.39250115 -0.022163108 -0.10983478 4289678424
-0.39132699 -0.020095527 -0.10820795 4289809235
-0.39128649 -0.017981326 -0.10816739 4290596184
-0.39068273 -0.015902147 -0.10733858 4289227639
-0.39008129 -0.013830704 -0.10651297 4290295718
-0.38892558 -0.011810043 -0.10491151 4290298031
-0.38777867 -0.0098046083 -0.10332237 4287214514
-0.38609475 -0.0078644566 -0.10098142 4285639348
-0.38389254 -0.005999486 -0.097914785 4285510580
-0.38225284 -0.004105872 -0.095635325 4284320927
-0.37958682 -0.0023523106 -0.09191905 4289643951
-0.37851101 -0.000444103 -0.090428583 4291548085
-0.37693158 0.0013844427 -0.088232912 4286152063
-0.37587547 0.00326184 -0.086769782 4283582530
-0.37382472 0.0049821627 -0.083913952 4284892742
-0.3727915 0.0068264506 -0.082482606 4286403408
-0.37225875 0.0087354574 -0.081751816 4289614426
-0.37222072 0.010719257 -0.081713773 4290995046
-0.37218273 0.012703332 -0.081675723 4291718773
-0.3721447 0.014687708 -0.081637651 4292178542
-0.37409532 0.017044777 -0.084384397 4291516766
-0.37506214 0.01923993 -0.085753724 4292176464
-0.37654516 0.021554438 -0.087846041 4293100365
-0.37856132 0.02400323 -0.090685226 4292437584
-0.37956116 0.026262343 -0.092101194 4291908440
-0.38056853 0.028538752 -0.093527809 4291776857
-0.38158351 0.030832628 -0.094965175 4291058786
-0.38207412 0.033017129 -0.095668159 4289231986
-0.38256654 0.035210192 -0.096373789 4287990138
-0.38359681 0.03754779 -0.097832881 4287462262
-0.38409498 0.039762642 -0.098546654 4289946213
-0.385681 0.042277649 -0.10078464 4289959015
-0.38728535 0.044822074 -0.10304844 4288064113
-0.39229363 0.048354771 -0.11008177 4287867748
-0.39571804 0.051502358 -0.11489634 4288462182
-0.39803267 0.054370891 -0.11815628 4288791660
-0.40038463 0.057286028 -0.1214688 4289444985
-0.4033891 0.060440972 -0.12569603 4288656775
-0.40645543 0.063661173 -0.13001019 4288197243
-0.40894553 0.066739075 -0.13351727 4288853877
-0.39035913 -0.022186009 -0.11047022 4289548891
-0.38975585 -0.020095028 -0.10963538 4290464854
-0.38915491 -0.018011874 -0.10880383 4290925151
-0.38855633 -0.015936473 -0.10797547 4288639354
-0.38740638 -0.013907781 -0.1063685 4289707437
-0.38626522 -0.011894408 -0.10477386 4290230955
-0.38513288 -0.0098961415 -0.10319147 4285766814
-0.38347036 -0.0079626702 -0.10086023 4283399838
-0.3823593 -0.0059976866 -0.099307716 4285177250
-0.38072816 -0.0041038953 -0.09702047 4284851877
-0.37859485 -0.0022907692 -0.094023764 4290757546
-0.37752062 -0.0003790473 -0.092522763 4291942845
-0.37645441 0.0015187416 -0.091032915 4287013800
-0.37539607 0.0034027784 -0.089554109 4283648070
-0.37334117 0.0051285718 -0.086667404 4283320645
-0.37230587 0.0069792587 -0.085220806 4283780167
-0.37127808 0.0088167395 -0.083784781 4285548621
-0.3712399 0.010804341 -0.083746746 4287255384
-0.37120169 0.012792216 -0.083708726 4290337118
-0.37067169 0.014691409 -0.082975797 4291654507
-0.37311035 0.017142659 -0.086437553 4291983982
-0.37357265 0.019244038 -0.087106831 4291516510
-0.37504727 0.021558754 -0.089206763 4291647576
-0.37705213 0.02400776 -0.092056207 4291778135
-0.37804621 0.026267074 -0.093477398 4291776856
-0.37904775 0.028543688 -0.094909281 4291385182
-0.38058409 0.030960467 -0.097097129 4289558895
-0.38160476 0.033277091 -0.098556317 4288120952
-0.38209808 0.035479203 -0.099270202 4287727993
-0.38313037 0.03782694 -0.10074605 4287331446
-0.38362941 0.040050987 -0.10146822 4290011234
-0.38576606 0.042725205 -0.10450547 4290284131
-0.38682649 0.045133684 -0.10602149 4288721003
-0.39184627 0.048686042 -0.11313532 4288461672
-0.39527884 0.051850319 -0.11800566 4288921193
-0.3975991 0.054733369 -0.12130377 4287607917
-0.39995694 0.057663448 -0.12465528 4287076977
-0.40235329 0.060641661 -0.12806149 4286414950
-0.40604371 0.06407313 -0.13329801 4285953882
-0.40790167 0.066957027 -0.13594353 4287729511
-0.38882554 -0.024303831 -0.11194103 4289622375
-0.38822514 -0.022208858 -0.11110342 4290204243
-0.38762707 -0.020121699 -0.11026912 4290531930
-0.38703132 -0.018042309 -0.10943805 4291253085
-0.38588715 -0.016005615 -0.10782552 4289029743
-0.38475174 -0.013984302 -0.10622536 4289570200
-0.38362506 -0.011978126 -0.10463755 4289506721
-0.38304487 -0.0099409651 -0.1038283 4284575622
-0.38139734 -0.0080106938 -0.10149799 4283984221
-0.38029611 -0.006049064 -0.099946052 4283460986
-0.37920323 -0.0041019241 -0.098405853 4285047706
-0.37759891 -0.0022289976 -0.096136652 4290757289
-0.37704197 -0.00025053447 -0.095359966 4291943617
-0.37597343 0.001654038 -0.09385407 4288264628
-0.37491283 0.0035447606 -0.092359371 4284436053
-0.37285379 0.0052760541 -0.089441389 4283191120
-0.37181637 0.0071331868 -0.087979399 4283190863
-0.37078652 0.0089770155 -0.086528093 4283518540
-0.3702552 0.010889732 -0.085787445 4284370510
-0.37021685 0.012881423 -0.085749432 4285944149
-0.36968753 0.014784098 -0.085011512 4288239715
-0.37162343 0.017146606 -0.087788343 4290672492
-0.37208286 0.019248175 -0.088460192 4290992742
-0.3735491 0.021563096 -0.090567738 4291383902
-0.37554264 0.024012318 -0.093427435 4291844959
-0.37653098 0.026271835 -0.094853863 4291843932
-0.37856963 0.028784951 -0.097778283 4289950826
-0.38010895 0.031212462 -0.099990867 4288186489
-0.38113156 0.033539057 -0.1014667 4287662970
-0.38162577 0.035750266 -0.102189 4287662457
-0.38266009 0.03810823 -0.10368178 4287396981
-0.38370231 0.040484641 -0.10518599 4290207071
-0.38530114 0.043028533 -0.1074843 4290347361
-0.38636377 0.045447774 -0.10901792 4289115242
-0.3919698 0.049184456 -0.11703312 4288658796
-0.3948358 0.052201051 -0.12114011 4289313137
-0.39716175 0.055098761 -0.1244769 4287998825
-0.3989203 0.057857078 -0.12700449 4285691483
-0.40192801 0.061037704 -0.13131461 4283978828
-0.404998 0.064284489 -0.13571396 4284241224
-0.40685311 0.067175917 -0.13838015 4286345041
-0.40873158 0.070104033 -0.14107993 4288251486
-0.38785073 -0.026406778 -0.11421508 4289297770
-0.38669437 -0.024322724 -0.11257152 4289352530
-0.38609916 -0.022231592 -0.11173448 4289153106
-0.38550627 -0.020148242 -0.11090066 4288498773
-0.38436785 -0.018103514 -0.10928259 4288501851
-0.3837817 -0.016039554 -0.10845832 4287975510
-0.38265646 -0.014021801 -0.10685894 4287986287
-0.38153979 -0.01201913 -0.10527176 4289573283
-0.38043162 -0.010031434 -0.10369669 4288190879
-0.37933192 -0.0080585387 -0.10213359 4284247142
-0.3782405 -0.0061002495 -0.10058227 4282536036
-0.37767801 -0.0040999572 -0.099791482 4284386181
-0.37659892 -0.0021670004 -0.098257713 4290366387
-0.37604272 -0.00018475555 -0.097475708 4292009926
-0.3749758 0.0017233171 -0.095959179 4288596156
-0.3739168 0.0036175139 -0.094453961 4286344830
-0.37236252 0.0054246271 -0.092236206 4287988349
-0.37132296 0.0072882739 -0.090758577 4288973696
-0.37029102 0.0091384947 -0.089291841 4288118651
-0.36975858 0.011058087 -0.088543475 4285032566
-0.36922809 0.012970979 -0.08779785 4283782502
-0.36869955 0.014877154 -0.087054931 4284830297
-0.37063161 0.017244849 -0.089852005 4286404703
-0.3705928 0.019252276 -0.089813814 4288435556
-0.37205064 0.021567401 -0.091928959 4290729831
-0.37403294 0.02401687 -0.0947989 4291517556
-0.37501547 0.026276592 -0.096230589 4290667622
-0.37704256 0.0287899 -0.099165499 4288578424
-0.37910047 0.031341776 -0.10214501 4287662459
-0.38012108 0.033673495 -0.10363203 4287531387
-0.38061416 0.035889376 -0.10435993 4287661687
-0.38164645 0.038252585 -0.10586401 4287133040
-0.38323021 0.040778544 -0.10816191 4290009951
-0.38483238 0.043334249 -0.11048658 4290540125
-0.38589719 0.045764275 -0.11203799 4289440616
-0.39093998 0.049356475 -0.11931587 4288002162
-0.39321601 0.052208103 -0.12261147 4287075966
-0.39612344 0.055286251 -0.12681642 4287068260
-0.39787909 0.058051515 -0.12936346 4285159501
-0.40026802 0.061045531 -0.1328225 4283451460
-0.40207464 0.063887015 -0.13544345 4283716938
-0.40453315 0.066973813 -0.13900334 4284704080
-0.40639296 0.069894746 -0.14170146 4286281050
-0.38627294 -0.026406866 -0.11564856 4287978592
-0.38512257 -0.02432262 -0.11399955 4286863970
-0.38453031 -0.022231296 -0.11315982 4286277480
-0.38339335 -0.020174686 -0.11152998 4285953136
-0.38280785 -0.01810284 -0.11069988 4285822581
-0.38168406 -0.016073368 -0.10908889 4286015597
-0.38056889 -0.01405916 -0.10749029 4286861919
-0.37893212 -0.012101906 -0.10513481 4288119158
-0.37836394 -0.010075719 -0.10432947 4289507497
-0.37727404 -0.0081062084 -0.10276698 4288258463
-0.3767122 -0.0060984697 -0.10197069 4283919727
-0.37615255 -0.0040979944 -0.10117736 4284713611
-0.37507907 -0.0021648603 -0.099638462 4290435266
-0.37452558 -0.00018243333 -0.098853998 4291943624
-0.37346423 0.0017258453 -0.097332411 4291026117
-0.37291682 0.003690504 -0.096556589 4290960576
-0.3713651 0.0055007781 -0.094323128 4291814339
-0.36983055 0.0072912867 -0.092114367 4292668361
-0.36929691 0.0092212586 -0.09135817 4292207053
-0.36827418 0.011061473 -0.08989197 4290761926
-0.36823544 0.013060831 -0.089854024 4288979357
-0.36770764 0.014970515 -0.089106075 4285359995
-0.36963579 0.017343476 -0.091923542 4284177250
-0.36959684 0.01935479 -0.091885351 4287909468
-0.37105173 0.021674966 -0.094016083 4292376188
-0.37252292 0.024021389 -0.096170634 4291521681
-0.37401065 0.026394574 -0.098349467 4289559414
-0.37603387 0.02891371 -0.10130603 4287924603
-0.37808788 0.031471577 -0.10430764 4287662716
-0.37910646 0.033808444 -0.10580586 4287530618
-0.38013285 0.036163565 -0.10731561 4287463027
-0.38116717 0.038537126 -0.10883694 4288306530
-0.38275412 0.041074719 -0.11116115 4290532702
-0.38435966 0.04364232 -0.11351253 4290994525
-0.38542667 0.046083249 -0.11508194 4289697639
-0.38933286 0.04936327 -0.12077574 4288584807
-0.39159593 0.052215189 -0.12408313 4286084449
-0.39448687 0.055293575 -0.12830302 4284830541
-0.39623243 0.058059085 -0.13085924 4283712575
-0.3986077 0.061053395 -0.13433065 4282991165
-0.40040392 0.063895129 -0.13696104 4283057982
-0.40222248 0.06677255 -0.13962413 4283846214
-0.40406388 0.069686331 -0.14232068 4286279771
-0.38529101 -0.028518308 -0.11793456 4286218355
-0.38469484 -0.026406927 -0.11708232 4285039493
-0.38355049 -0.024322519 -0.11542781 4284190099
-0.38296115 -0.022230972 -0.11458541 4283799196
-0.38128835 -0.020201031 -0.11215717 4283801253
-0.38017026 -0.018163586 -0.11054068 4284196784
-0.3790608 -0.016141467 -0.10893663 4284721585
-0.37795979 -0.014134468 -0.10734475 4285363845
-0.37634397 -0.012184056 -0.10499918 4286469478
-0.37578273 -0.010165203 -0.10419719 4288312440
-0.37470654 -0.0082025994 -0.10264126 4289177253
-0.37415156 -0.0062020253 -0.10184825 4287666849
-0.37359866 -0.0042087222 -0.10105824 4288253596
-0.37304786 -0.0022225543 -0.10027119 4290895051
-0.37249908 -0.00024354995 -0.099487066 4290763977
-0.37195235 0.0017283398 -0.09870588 4289577659
-0.37090442 0.0036228863 -0.097190619 4287995813
-0.36986426 0.0055036196 -0.095686607 4288456098
-0.36883178 0.0073707872 -0.09419369 4288524208
-0.36829883 0.0093043521 -0.093432322 4288137176
-0.3672778 0.01114783 -0.091955937 4290108898
-0.36675066 0.013064397 -0.09120287 4292011991
-0.3667118 0.015064243 -0.091164999 4290493887
-0.36814258 0.017347427 -0.093280032 4285950585
-0.36859694 0.019457685 -0.093964837 4289486439
-0.36954999 0.021679305 -0.095380321 4292833651
-0.37151703 0.02413453 -0.098281644 4291586163
-0.37300175 0.026512995 -0.10047656 4288841338
-0.3755407 0.029157771 -0.10421642 4287662460
-0.37759867 0.031727441 -0.10725185 4287596153
-0.37861919 0.034074448 -0.10876724 4287595126
-0.37964755 0.036439862 -0.1102943 4288111975
-0.38122559 0.038965132 -0.11262707 4289810777
-0.38227403 0.041373231 -0.11418395 4291253337
-0.38388294 0.043952793 -0.11656241 4291320414
-0.3855108 0.046563182 -0.11896896 4289236843
-0.38829514 0.049535979 -0.12307096 4286943596
-0.39055434 0.052395198 -0.1264035 4285161812
-0.39344046 0.05548184 -0.13065551 4283647040
-0.39518309 0.058254331 -0.13323146 4282859834
-0.39755446 0.061256599 -0.13672957 4282663738
-0.39873293 0.063903242 -0.13847889 4282794809
-0.4011634 0.066990584 -0.14206424 4283320385
-0.40300184 0.069912069 -0.14478178 4285884759
-0.38490307 -0.032765631 -0.12109121 4286485894
-0.38430521 -0.030638097 -0.12022956 4285042317
-0.38370967 -0.028518567 -0.11937129 4283929491
-0.38366824 -0.026392026 -0.11933113 4283406752
-0.38307509 -0.024284313 -0.11847626 4283277480
-0.38193691 -0.022207651 -0.11681642 4283213747
-0.38080761 -0.020146763 -0.11516948 4283280826
-0.37968698 -0.018101502 -0.11353526 4283215807
-0.37804252 -0.016106201 -0.1111271 4283477688
-0.37589252 -0.014171408 -0.10797208 4283668640
-0.37429139 -0.012224294 -0.10562746 4284514700
-0.37322074 -0.010254014 -0.10406622 4285952372
-0.37266845 -0.0082497047 -0.10327063 4287916923
-0.37211823 -0.0062526474 -0.10247804 4288388242
-0.37157008 -0.0042627729 -0.10168844 4287930789
-0.37102398 -0.0022800707 -0.10090177 4290369220
-0.37098423 -0.00024124006 -0.10086327 4291091655
-0.36993784 0.001664066 -0.099337235 4289449923
-0.36939782 0.0036255505 -0.098559327 4285506474
-0.36836311 0.0055064885 -0.097050324 4284059812
-0.36782899 0.0074505741 -0.096280955 4284193965
-0.36680576 0.009307567 -0.0947887 4285314752
-0.36627749 0.011234497 -0.094027758 4287410629
-0.36575109 0.013154614 -0.093269594 4288728768
-0.36522663 0.015067985 -0.092514195 4291356895
-0.36664906 0.017351372 -0.09463679 4288127922
-0.36710054 0.019461822 -0.095324211 4290413459
-0.36804792 0.021683635 -0.096744835 4292044403
-0.37050709 0.024248116 -0.10040081 4290341997
-0.3719888 0.026631856 -0.10261193 4288317305
-0.37452284 0.029282978 -0.10637926 4287531130
-0.37710547 0.031985268 -0.11021894 4287594869
-0.3781279 0.034342531 -0.11175168 4287851114
-0.37969697 0.036855511 -0.11409304 4289483611
-0.38073936 0.039255235 -0.11565575 4291055703
-0.38233912 0.041822266 -0.11804296 4291516250
-0.38395777 0.044419941 -0.12045835 4291058012
-0.38503349 0.046888486 -0.12207088 4288708446
-0.38725308 0.049709383 -0.12537564 4285427546
-0.38893041 0.052402288 -0.12787864 4284114266
-0.39121282 0.055308267 -0.13127707 4283256133
-0.39353245 0.058261935 -0.13473085 4282794810
-0.39589015 0.061264466 -0.13824137 4282927165
-0.39767295 0.064113781 -0.14090163 4282927167
-0.40072367 0.067420967 -0.14543824 4283780424
-0.40256691 0.070357643 -0.14818858 4286082396
-0.3850722 -0.037051879 -0.12510677 4287141766
-0.38335717 -0.034900457 -0.12257382 4285305742
-0.38221112 -0.032771386 -0.12088836 4283930005
-0.38216957 -0.030645302 -0.12084831 4283471772
-0.38212803 -0.028518861 -0.12080827 4283342500
-0.38263729 -0.026377073 -0.121589 4283081390
-0.38204491 -0.02426507 -0.12072814 4283017398
-0.38145483 -0.022161027 -0.11987065 4283084218
-0.38032281 -0.020092111 -0.11820547 4282952888
-0.37919962 -0.018038912 -0.11655326 4282950063
-0.37701997 -0.016070776 -0.11332626 4282885032
-0.37435225 -0.014170348 -0.10937143 4283211939
-0.37275976 -0.012223052 -0.10701896 4283341730
-0.37169474 -0.010252591 -0.10545257 4283930780
-0.37063771 -0.0082966369 -0.10389792 4284907660
-0.37009224 -0.0063030524 -0.10310576 4286608757
-0.3695488 -0.0043166257 -0.10231651 4287269513
-0.36900738 -0.0023373445 -0.10153025 4289574062
-0.36896759 -0.00030213903 -0.10149194 4290822838
-0.36842826 0.0016665778 -0.10070863 4287081912
-0.36739513 0.003558171 -0.099188961 4283462302
-0.3668617 0.0055093514 -0.098414302 4284120188
-0.36633024 0.0074536167 -0.097642504 4283399828
-0.36580074 0.0093909688 -0.096873567 4284389532
-0.36527318 0.011321476 -0.096107438 4285573840
-0.36474758 0.013245153 -0.095344163 4289651161
-0.36422387 0.015162062 -0.094583668 4292012764
-0.36515528 0.01735531 -0.095993802 4289772742
-0.36560389 0.019465951 -0.096683808 4290612652
-0.36703888 0.021791607 -0.098845534 4291648880
-0.3689906 0.024252672 -0.10177843 4289427056
-0.37097174 0.026751166 -0.10475563 4287792761
-0.37402052 0.029529803 -0.10932618 4287595382
-0.37660819 0.032245107 -0.11320914 4287655530
-0.37816831 0.034745764 -0.11555906 4289090906
-0.37920466 0.037137177 -0.11712757 4290793302
-0.38024914 0.039547604 -0.11870837 4291581015
-0.38185215 0.042126633 -0.12112305 4291450972
-0.38291731 0.044581141 -0.12273514 4290599518
-0.38399094 0.047055412 -0.12436005 4287391064
-0.38620648 0.049883459 -0.12768975 4284175178
-0.38730618 0.052409369 -0.12935404 4283126346
-0.38957536 0.05531561 -0.13276449 4282730304
-0.39129061 0.058081884 -0.13534822 4282663736
-0.39362496 0.061076991 -0.13885675 4282795836
-0.39599788 0.064121902 -0.14242318 4283255621
-0.39965412 0.06764175 -0.14790635 4284767317
-0.40149438 0.070586219 -0.15067819 4287134823
-0.38463765 -0.039219648 -0.12828238 4286289035
-0.38236365 -0.037041184 -0.124887 4284322451
-0.38121915 -0.034899678 -0.12318926 4283734173
-0.38062942 -0.032772068 -0.12232541 4284456358
-0.38058776 -0.03064576 -0.12228546 4283605415
-0.38109392 -0.028508242 -0.1230692 4283147953
-0.38160205 -0.02636203 -0.123856 4283083705
-0.38101038 -0.024245756 -0.12298913 4282953150
-0.38096863 -0.022114009 -0.12294908 4282886071
-0.37983403 -0.020037003 -0.12126549 4282950059
-0.37870821 -0.017975869 -0.11959498 4282884005
-0.37652385 -0.016000398 -0.11633218 4283015587
-0.37385052 -0.014093218 -0.11233358 4283342237
-0.37122783 -0.012221815 -0.10841071 4284392353
-0.37016848 -0.010251173 -0.10683918 4286162584
-0.36861435 -0.0083434274 -0.10452312 4284259236
-0.36807355 -0.006353274 -0.10373133 4284387994
-0.36753479 -0.0043703127 -0.10294253 4285628552
-0.36699802 -0.0023944089 -0.10215664 4287920517
-0.36646324 -0.00042558557 -0.10137369 4289111199
-0.36593044 0.0015362262 -0.10059366 4289118386
-0.36589077 0.003560852 -0.10055562 4288256412
-0.36487076 0.0054389113 -0.099042207 4285300344
-0.36483121 0.0074566551 -0.099004306 4282933371
-0.36381885 0.0093139885 -0.097502179 4283331456
-0.36377949 0.011324868 -0.09746439 4286490046
-0.36374006 0.013336021 -0.097426616 4291160025
-0.36370063 0.015347484 -0.097388834 4292470483
-0.36414647 0.017454317 -0.098081522 4290490808
-0.36508265 0.019668771 -0.099512592 4290933132
-0.36651996 0.022004426 -0.10169829 4291320172
-0.36897841 0.024586754 -0.10542177 4289100917
-0.37097067 0.027102232 -0.10844366 4287660661
-0.37351409 0.029778549 -0.11229596 4287590762
-0.37610671 0.03250695 -0.1162227 4288895066
-0.37766987 0.035019055 -0.11859946 4290531157
-0.37870824 0.037421077 -0.12018613 4291449431
-0.37975472 0.039842263 -0.12178522 4291581786
-0.38080946 0.042282809 -0.1233969 4290728795
-0.38187248 0.044742968 -0.12502125 4288501079
-0.38350412 0.047384605 -0.12750244 4285421138
-0.38458857 0.049890317 -0.12915944 4285029973
-0.38568166 0.052416448 -0.13082969 4284107590
-0.38735941 0.055142745 -0.13338102 4282794043
-0.38905755 0.057902534 -0.13596345 4282466873
-0.39136875 0.060890242 -0.13946988 4282664767
-0.39251661 0.063525125 -0.14122359 4284045904
-0.39795762 0.067650177 -0.14944738 4285887333
-0.38419959 -0.041404791 -0.13148335 4285437327
-0.38136613 -0.03919046 -0.12720931 4283929751
-0.37913099 -0.037024822 -0.12384237 4283603616
-0.37854639 -0.034897316 -0.12297902 4286359217
-0.37850469 -0.032775261 -0.12293927 4284523450
-0.37900567 -0.030646225 -0.12372286 4283343532
-0.38005546 -0.028497618 -0.12533927 4283017143
-0.38056242 -0.026346967 -0.12613221 4282953149
-0.38052037 -0.024206959 -0.12609212 4282951865
-0.38047832 -0.022066625 -0.12605201 4283081389
-0.37988758 -0.019953785 -0.1251792 4283081386
-0.37875485 -0.017880684 -0.12348369 4283015593
-0.37655726 -0.015894286 -0.12017174 4283145891
-0.37386808 -0.013976903 -0.11611324 4283474073
-0.37071669 -0.012137502 -0.11135268 4287080084
-0.36864194 -0.010249757 -0.10822603 4286884471
-0.3670963 -0.0083418349 -0.10590225 4285769884
-0.36606216 -0.0064033419 -0.10435483 4285114277
-0.36552802 -0.0044237715 -0.10356642 4284193700
-0.36450547 -0.0025100359 -0.10203631 4285041302
-0.36397719 -0.000548121 -0.10125659 4287004025
-0.36345086 0.0014068341 -0.10047974 4288580230
-0.36341122 0.0034241441 -0.10044195 4289375144
-0.36288691 0.0053687282 -0.099668041 4289183403
-0.3623645 0.0073064398 -0.098896965 4286812047
-0.36232498 0.009317196 -0.09885928 4284247682
-0.36228547 0.011328255 -0.09882161 4288985262
-0.36224598 0.013339623 -0.098783918 4291814612
-0.36220643 0.015351263 -0.09874624 4292271308
-0.36313361 0.017553708 -0.10017722 4290876834
-0.36455727 0.019873071 -0.10236268 4291320688
-0.3659969 0.022218807 -0.1045727 4290796392
-0.36845958 0.024813145 -0.10833753 4288641139
-0.37045532 0.027340109 -0.11139321 4287656297
-0.37300345 0.030029196 -0.11528876 4288763995
-0.37506926 0.032641254 -0.11845165 4290465108
-0.37662926 0.035159267 -0.12084621 4291383638
-0.37766546 0.037566733 -0.12244484 4291188313
-0.37870976 0.039993439 -0.12405605 4290795098
-0.37976229 0.042439587 -0.12567991 4289482068
-0.38082322 0.044905443 -0.12731668 4286664269
-0.38189247 0.047391228 -0.12896644 4284371798
-0.38353398 0.0500651 -0.13148631 4284176754
-0.38405684 0.052423526 -0.13230564 4283976273
-0.38572463 0.055150058 -0.13486601 4283122491
-0.38741273 0.057910126 -0.13745755 4282729534
-0.38912141 0.060704283 -0.14008076 4283519305
-0.39144734 0.063734047 -0.14364286 4285230689
-0.38263205 -0.04356952 -0.13298671 4285044371
-0.37981394 -0.04133394 -0.12869793 4283471515
-0.37759084 -0.039151624 -0.12531945 4283079329
-0.3764714 -0.037014347 -0.12363017 4283802538
-0.37589413 -0.034894951 -0.12277067 4285508276
-0.37638798 -0.032778475 -0.123551 4283932327
-0.37742329 -0.030646725 -0.12516052 4283540142
-0.37901264 -0.028486924 -0.12761854 4283807162
-0.38006851 -0.026316524 -0.12926002 4286363583
-0.38002619 -0.024167862 -0.12921984 4284393653
-0.37998384 -0.022018906 -0.12917969 4283344049
-0.37994149 -0.019869622 -0.12913954 4283212974
-0.37880176 -0.017784379 -0.12741858 4283212204
-0.37659079 -0.015786903 -0.12405656 4283212457
-0.37335908 -0.013898258 -0.11913057 4283475102
-0.37071577 -0.012010482 -0.11510539 4285900432
-0.36711514 -0.010248347 -0.10961313 4286556549
-0.36508277 -0.0083884308 -0.10652301 4288852865
-0.36405796 -0.0064531667 -0.10497625 4286228866
-0.36304078 -0.0045320424 -0.10344101 4285508004
-0.3620311 -0.0026248109 -0.10191713 4284588707
-0.36150923 -0.00066975423 -0.10114061 4284716438
-0.3614696 0.0013437335 -0.10110297 4285954173
-0.3609497 0.0032884416 -0.10032935 4287982717
-0.36091009 0.0052988268 -0.1002918 4288912273
-0.36087048 0.0073094582 -0.10025422 4288852137
-0.36035264 0.0092405174 -0.099483609 4287533215
-0.36079124 0.011331668 -0.10017905 4289769905
-0.3607516 0.013343187 -0.10014146 4291353035
-0.36119172 0.015446374 -0.10083947 4291021244
-0.36211672 0.017653437 -0.10228095 4291132296
-0.36353722 0.019977901 -0.10448236 4291648362
-0.3654696 0.022434827 -0.10746899 4290011491
-0.36793652 0.025041247 -0.11127567 4288112998
-0.36993578 0.027579777 -0.1143656 4288567131
-0.37144503 0.030034274 -0.11670446 4290136917
-0.37349865 0.032646563 -0.11987841 4291185750
-0.37504932 0.035164796 -0.12228142 4291450202
-0.3766183 0.03771295 -0.12471267 4290728536
-0.37711722 0.039999399 -0.12550272 4289941078
-0.37871078 0.042596985 -0.12797229 4287579731
-0.37976947 0.045068584 -0.12962151 4284696659
-0.38083661 0.047560144 -0.13128385 4283912019
-0.38191223 0.050071992 -0.13295947 4283321181
-0.38299653 0.052604321 -0.13464856 4283387472
-0.38408959 0.055157404 -0.13635124 4283519044
-0.38634604 0.058104645 -0.13983966 4283650121
-0.38863951 0.06110058 -0.14338534 4284769370
-0.38218409 -0.045780938 -0.13621938 4284913558
-0.37880936 -0.043496076 -0.1310325 4283407007
-0.37605065 -0.041278522 -0.12679659 4282948771
-0.37440443 -0.039123204 -0.12427878 4284128411
-0.37330377 -0.036998272 -0.12260348 4286949263
-0.3732622 -0.034892604 -0.12256423 4287801996
-0.37427914 -0.032781653 -0.12416061 4285375888
-0.37530413 -0.030653883 -0.12576947 4284064934
-0.37687773 -0.028498175 -0.12822635 4287020732
-0.37846994 -0.026316609 -0.13071235 4289979864
-0.37897655 -0.024148144 -0.13152085 4285772225
-0.37948516 -0.021970777 -0.13233252 4283541942
-0.37944251 -0.019812768 -0.1322923 4283344561
-0.3783001 -0.017719315 -0.13055211 4283279024
-0.3760843 -0.015714321 -0.1271525 4283344814
-0.37284583 -0.013819009 -0.1221715 4283473059
-0.36968181 -0.011966949 -0.11730501 4284327064
-0.36558804 -0.01024694 -0.11100049 4287539079
-0.36356702 -0.0083868504 -0.10790006 4287802232
-0.36206099 -0.0065028388 -0.10559561 4286621838
-0.36105299 -0.0045848815 -0.10406101 4288263305
-0.36005241 -0.0026808269 -0.10253777 4285310092
-0.35905924 -0.00079046423 -0.1010257 4283541420
-0.35901961 0.0012157577 -0.10098832 4283996830
-0.35897997 0.003222317 -0.10095092 4285297797
-0.3589403 0.0052291513 -0.10091352 4286735470
-0.35842687 0.0071603619 -0.10014319 4288638585
-0.35838729 0.0091640875 -0.10010584 4288642432
-0.35929671 0.011335048 -0.10153675 4288581271
-0.35925695 0.013346777 -0.10149928 4289113001
-0.36017299 0.015541855 -0.10294064 4289236629
-0.36109582 0.017753564 -0.10439273 4290930034
-0.36251312 0.020083116 -0.10661021 4291582575
-0.36444131 0.022545647 -0.10961857 4289092444
-0.3674092 0.025271077 -0.11423641 4288238420
-0.36889806 0.027702777 -0.1165657 4289743698
-0.37040415 0.030162875 -0.11892187 4290988885
-0.37245348 0.032781456 -0.12211929 4291449177
-0.37346911 0.035170324 -0.12371688 4291319390
-0.37502867 0.037718706 -0.12615669 4290924119
-0.37606442 0.040151179 -0.12778589 4289546065
-0.37710834 0.042603202 -0.12942791 4286070599
-0.37816057 0.045074988 -0.13108301 4283646538
-0.37922117 0.047566809 -0.13275129 4283255888
-0.3808496 0.050247513 -0.13529915 4283518285
-0.38193166 0.052785847 -0.13700114 4283651150
-0.38302249 0.055345021 -0.13871691 4284308048
-0.38585454 0.058488499 -0.1431299 4285031768
-0.38815328 0.061500125 -0.14671732 4285823082
-0.38061017 -0.047954459 -0.13772884 4285241496
-0.37780073 -0.045666844 -0.1333764 4283275684
-0.3739765 -0.043387253 -0.12744153 4282883240
-0.37234548 -0.041223966 -0.12492498 4283735199
-0.37073335 -0.039085418 -0.12243761 4287801215
-0.36965513 -0.036976788 -0.12078232 4290621789
-0.37013099 -0.034888703 -0.12155002 4290753376
-0.37060869 -0.032792266 -0.12232065 4288917356
-0.37213647 -0.03067426 -0.12472891 4285178773
-0.37475091 -0.028509386 -0.12883206 4287019202
-0.37578565 -0.026347227 -0.13047209 4291230440
-0.37792248 -0.024128353 -0.1338312 4286366414
-0.37842983 -0.021946423 -0.13464917 4283607479
-0.37838697 -0.019783895 -0.13460897 4283410355
-0.37779421 -0.017653739 -0.13371086 4283279283
-0.37557355 -0.015641171 -0.13027307 4283344815
-0.37232828 -0.013739148 -0.12523633 4283408040
-0.36864358 -0.011923287 -0.1195133 4283541162
-0.36406067 -0.010245537 -0.1123881 4285440929
-0.36107749 -0.0084810834 -0.10775831 4284852121
-0.35959083 -0.0066033853 -0.10546329 4285376915
-0.35859555 -0.0046919635 -0.10393496 4286294162
-0.3576076 -0.0027943163 -0.10241788 4284260513
-0.35709652 -0.00084936724 -0.1016449 4283082672
-0.35705686 0.0011533806 -0.10160767 4283410860
-0.35701716 0.0031564017 -0.10157045 4283733921
-0.35697746 0.0051597585 -0.10153321 4284647051
-0.35693777 0.0071633607 -0.10149597 4286409847
-0.35689807 0.0091672968 -0.10145872 4287388518
-0.35780188 0.011338453 -0.10289471 4287650915
-0.35823637 0.013438019 -0.10359798 4288111723
-0.35867244 0.01554564 -0.10430381 4289419366
-0.36007079 0.017854057 -0.10651264 4291057253
-0.36148489 0.020188723 -0.10874628 4291448676
-0.36340886 0.022656886 -0.11177655 4289876312
-0.36637044 0.025388978 -0.11642803 4289350734
-0.36836892 0.027945239 -0.11957562 4290464595
-0.36987767 0.030416451 -0.12195847 4291317847
-0.37140399 0.032916833 -0.12436913 4291516766
-0.37241739 0.035311125 -0.12597875 4291449437
-0.37397367 0.037865534 -0.12843679 4291382359
-0.37500715 0.040303577 -0.13007826 4288760403
-0.37604886 0.042761266 -0.13173278 4285088579
-0.37764853 0.045396771 -0.13425946 4283647809
-0.37815717 0.047736421 -0.13508135 4283058503
-0.37978238 0.0504237 -0.13764851 4283256653
-0.38086221 0.052968092 -0.13936351 4283586388
-0.38252032 0.055715144 -0.14198275 4284702043
-0.38594231 0.059066389 -0.14735968 4285952617
-0.377336 -0.047873713 -0.13659152 4283931811
-0.37457529 -0.045600206 -0.13227612 4282818735
-0.37134165 -0.04335263 -0.12721618 4282884270
-0.36973211 -0.041197725 -0.12471079 4284652950
-0.36762872 -0.039057773 -0.12142807 4290423650
-0.36707687 -0.036966693 -0.12058631 4292194373
-0.36703551 -0.034884848 -0.12054773 4292392010
-0.3680166 -0.032797843 -0.12211809 4291146331
-0.36900523 -0.030694403 -0.12370066 4285768587
-0.37263212 -0.028520556 -0.12943566 4284985542
-0.37312207 -0.026377609 -0.1302339 4290179812
-0.37631685 -0.024128253 -0.13528995 4286435031
-0.37737006 -0.02192194 -0.13697538 4283542202
-0.37732702 -0.019754941 -0.13693522 4283345591
-0.37673497 -0.017620413 -0.13603072 4283214006
-0.37505841 -0.015567417 -0.13341856 4283280308
-0.37180644 -0.013658634 -0.12832542 4283279281
-0.36760104 -0.011879463 -0.12173032 4283148466
-0.36253303 -0.010244139 -0.11377598 4283476147
-0.36004984 -0.0084316824 -0.10989141 4283345586
-0.35808843 -0.0066016135 -0.10682819 4283738794
-0.35709861 -0.0046900148 -0.10529489 4283869356
-0.35611606 -0.0027922257 -0.1037729 4283410353
-0.35560763 -0.00084706792 -0.10299753 4283082416
-0.35556781 0.0011558606 -0.1029604 4283345581
-0.35552803 0.0031590648 -0.10292327 4283081130
-0.35548824 0.0051625725 -0.10288613 4283539107
-0.35544842 0.0071663857 -0.10284898 4284782235
-0.35540861 0.0091705052 -0.10281184 4285492353
-0.35630682 0.011341854 -0.1042529 4286662480
-0.35673842 0.013441608 -0.10495879 4287777108
-0.35764658 0.015641475 -0.10641585 4290137177
-0.35904169 0.017954921 -0.10864071 4291452519
-0.36093992 0.020396912 -0.11165889 4291583331
-0.36286691 0.022876186 -0.1147228 4290859362
-0.36583352 0.025621461 -0.11942609 4290530651
-0.36835128 0.028310001 -0.1234223 4290924634
-0.36934683 0.030672003 -0.12501897 4291385437
-0.37087587 0.033183839 -0.1274571 4291385183
-0.37242296 0.035725608 -0.12992395 4291448668
-0.37398836 0.038297851 -0.13242002 4291450203
-0.37448564 0.040604156 -0.13323194 4288108381
-0.37552926 0.043072965 -0.13490562 4284631883
-0.37713212 0.045721121 -0.13746156 4283517508
-0.37764162 0.048071001 -0.13829331 4282991680
-0.37927014 0.050771371 -0.14089032 4282861637
-0.38091847 0.053504918 -0.14351894 4283257937
-0.38258693 0.056272272 -0.14617969 4284703839
-0.38603082 0.059651401 -0.15164213 4286347378
-0.37356201 -0.047766861 -0.13461336 4285636252
-0.37085959 -0.045511965 -0.13035107 4283802545
-0.36820939 -0.043300394 -0.12617117 4283015859
-0.36561 -0.041130874 -0.12207136 4284522910
-0.36455932 -0.039030444 -0.12043034 4289899371
-0.36401635 -0.036951177 -0.11959537 4292128587
-0.36397514 -0.034881044 -0.11955708 4292259663
-0.36443537 -0.032808188 -0.12031529 4289900651
-0.36590981 -0.030714286 -0.1226845 4284852124
-0.36895221 -0.028563952 -0.12754469 4283542720
-0.36943105 -0.026437543 -0.12833314 4286499535
-0.37255701 -0.024206411 -0.13332707 4284726475
-0.37412637 -0.02199382 -0.13584858 4283214269
-0.37462497 -0.019811261 -0.13666914 4283083452
-0.37404054 -0.017684847 -0.13576891 4283083450
-0.37292129 -0.015603039 -0.13401873 4283084217
-0.36970055 -0.013697367 -0.12892865 4283017914
-0.36502898 -0.011963225 -0.12153212 4283018423
-0.36051574 -0.010287588 -0.11438631 4283084217
-0.35805589 -0.0084779225 -0.11050341 4283083962
-0.3565858 -0.0065998761 -0.10819332 4283083705
-0.35513195 -0.0047423136 -0.10590877 4283018425
-0.35415834 -0.0028476065 -0.10438744 4283149749
-0.3536543 -0.00090576743 -0.10361245 4283148725
-0.35407856 0.0011583073 -0.10431336 4283082931
-0.35403866 0.003161724 -0.10427632 4282818731
-0.35399872 0.0051654121 -0.10423928 4283080875
-0.35395879 0.0071694078 -0.10420224 4285769393
-0.35391888 0.0091737071 -0.10416517 4285173406
-0.35481146 0.011345251 -0.10561135 4286073947
-0.35571072 0.013533185 -0.10706826 4288302167
-0.35661662 0.015737668 -0.10853598 4290466656
-0.35848945 0.018153777 -0.11154218 4291517798
-0.36039057 0.020606669 -0.11459376 4291517031
-0.36281803 0.02320607 -0.11848318 4291188587
-0.36529216 0.025855754 -0.12244742 4291253358
-0.36729759 0.028435837 -0.12566632 4291712095
-0.36881155 0.030929569 -0.12810358 4291452255
-0.37034336 0.033452965 -0.1305695 4291450207
-0.37189323 0.036006551 -0.13306458 4291449696
-0.37292236 0.038446952 -0.13473116 4291256673
-0.37395966 0.040907085 -0.13641089 4288242786
-0.37500528 0.043387193 -0.13810408 4284962386
-0.37661123 0.046048079 -0.14068967 4283583816
-0.37767804 0.048574552 -0.14241718 4282991936
-0.37931657 0.051294625 -0.1450552 4282729537
-0.3809751 0.054048304 -0.14772548 4283519563
-0.3826541 0.056836255 -0.15042871 4285295710
-0.36720121 -0.045425095 -0.12845615 4286160537
-0.36460641 -0.043231118 -0.12432663 4284587946
-0.36305666 -0.041105315 -0.12187146 4284196782
-0.3620196 -0.039012812 -0.12023751 4287212693
-0.36099038 -0.036935814 -0.11861595 4289114740
-0.36144224 -0.034878787 -0.1193682 4288985212
-0.36189577 -0.032813653 -0.12012322 4286231452
-0.36235103 -0.030740336 -0.12088114 4283542201
-0.36532876 -0.028606651 -0.12568316 4282951611
-0.36528692 -0.026511179 -0.12564452 4283543231
-0.36937949 -0.024264231 -0.13223505 4283214525
-0.36986279 -0.022111902 -0.133039 4282886073
-0.37140986 -0.019895123 -0.13554895 4282820795
-0.37083516 -0.017780939 -0.13465637 4282886585
-0.36973494 -0.015710775 -0.13292098 4283083450
-0.36656982 -0.013814739 -0.1278733 4283018173
-0.36247623 -0.012046387 -0.12133564 4282953148
-0.35802293 -0.010375416 -0.1142201 4283018939
-0.35559529 -0.0085714785 -0.11035328 4282953149
-0.35461265 -0.0066489871 -0.10880428 4282953148
-0.35363722 -0.0047403788 -0.1072667 4282887868
-0.35266903 -0.0028454957 -0.10574044 4282953145
-0.35216761 -0.00090347964 -0.10496307 4283149242
-0.35258898 0.0011607811 -0.10566659 4282754740
-0.35254896 0.0031643766 -0.10562965 4282884011
-0.35250893 0.005168248 -0.10559269 4283145900
-0.35246891 0.0071724243 -0.10555575 4286887869
-0.35242885 0.0091769043 -0.10551879 4285374634
-0.35331586 0.011348643 -0.10697004 4285881456
-0.35420945 0.013536774 -0.10843207 4289220189
-0.35510963 0.015741482 -0.10990498 4290995560
-0.35697109 0.018157806 -0.11292152 4291450720
-0.35983676 0.02081804 -0.11755108 4291448672
-0.36226809 0.023429563 -0.12148376 4291056484
-0.36474639 0.026091823 -0.12549239 4291253098
-0.36675519 0.02868397 -0.12874757 4291843681
-0.3682718 0.031189149 -0.13121259 4291452002
-0.36927852 0.033591013 -0.13285887 4291516770
-0.37082505 0.03615066 -0.13537255 4291452259
-0.37238997 0.038741138 -0.13791624 4291192163
-0.37342921 0.041212503 -0.13961555 4288504416
-0.37447673 0.043703936 -0.14132848 4285618520
-0.37608588 0.046377666 -0.14394408 4284306767
-0.37771457 0.049084231 -0.14659153 4283780679
-0.37936318 0.051824272 -0.14927131 4283321414
-0.38103217 0.054598421 -0.1519842 4284570704
-0.36255166 -0.043215185 -0.12492622 4286815125
-0.36101654 -0.041093338 -0.12247236 4285046696
-0.35949883 -0.038995285 -0.12004641 4284656823
-0.35848293 -0.036926039 -0.11843182 4284921010
-0.35844183 -0.034875058 -0.11839411 4284791995
-0.35840073 -0.032823768 -0.11835639 4283413959
-0.35884586 -0.030765962 -0.11910533 4282623941
-0.36176047 -0.028648734 -0.12385031 4282426812
-0.36122155 -0.026583383 -0.12300741 4282558395
-0.36572403 -0.024340279 -0.13032307 4282688951
-0.36619636 -0.022204688 -0.13111712 4282623155
-0.36667052 -0.020060446 -0.13191432 4282492083
-0.36611155 -0.017970396 -0.13103925 4282622642
-0.36555475 -0.015888141 -0.13016763 4283017400
-0.36347502 -0.013930757 -0.12683041 4283083966
-0.35945162 -0.012170523 -0.12034593 4282887870
-0.3555485 -0.010462591 -0.11405534 4282887613
-0.35362017 -0.0086172409 -0.11096149 4282822335
-0.35264653 -0.0066979206 -0.10941322 4282888125
-0.35168004 -0.004792464 -0.10787635 4282887869
-0.35117942 -0.0028433893 -0.10709371 4282953660
-0.35068062 -0.00090119633 -0.10631397 4283083449
-0.35109916 0.0011632491 -0.10702007 4282885296
-0.35105902 0.0031670276 -0.1069832 4283016366
-0.35101891 0.0051711113 -0.10694635 4283344566
-0.35097873 0.0071754684 -0.10690951 4285974222
-0.35093859 0.0091801016 -0.10687263 4284917939
-0.35135835 0.01126841 -0.10758101 4285819525
-0.35224292 0.013452384 -0.10904269 4289876575
-0.35360238 0.015745264 -0.11127422 4291386978
-0.35545242 0.018161798 -0.11430112 4291317853
-0.3587887 0.020926429 -0.11973731 4291251804
-0.36121452 0.023544213 -0.12369859 4290990685
-0.36368728 0.026212918 -0.12773642 4291123041
-0.36569166 0.028811261 -0.13101561 4291581538
-0.36720487 0.031322289 -0.13349888 4291517541
-0.36873591 0.033863332 -0.1360115 4291452772
-0.37028524 0.036434952 -0.13855408 4291191908
-0.3723945 0.039183885 -0.142005 4290340195
-0.37343985 0.041672111 -0.14373106 4287585370
-0.37449363 0.044180702 -0.14547105 4285356374
-0.37611255 0.046873763 -0.1481279 4284964694
-0.37718791 0.049429774 -0.14990349 4285161813
-0.37883994 0.052183367 -0.15261479 4284965718
-0.36100137 -0.043216776 -0.12633477 4288193940
-0.35996795 -0.041108135 -0.12467777 4286812055
-0.35796592 -0.038996514 -0.12143917 4284717227
-0.35695565 -0.036927044 -0.11981943 4283149767
-0.3564328 -0.034874365 -0.11899533 4282691278
-0.35591191 -0.032829121 -0.11817432 4282494154
-0.35587087 -0.030785074 -0.11813685 4282427587
-0.35775915 -0.028700341 -0.12125034 4282230462
-0.35626826 -0.026682191 -0.11884509 4282427065
-0.35865173 -0.024543684 -0.12276797 4282426549
-0.35812169 -0.022497095 -0.12193201 4282688434
-0.35759357 -0.020457976 -0.1210992 4282754739
-0.35706753 -0.018426251 -0.12026955 4282557104
-0.35702619 -0.016368512 -0.12023181 4282690492
-0.35650218 -0.014347711 -0.11940534 4282756030
-0.35502395 -0.012415832 -0.11701942 4282755772
-0.35262394 -0.010592842 -0.11312678 4282690492
-0.35118905 -0.0087097697 -0.11081099 4282691005
-0.35022783 -0.0067969975 -0.10926907 4282757311
-0.34972978 -0.0048443619 -0.10848398 4282691263
-0.34923351 -0.0028985899 -0.10770178 4282822331
-0.34873909 -0.00095963961 -0.10692243 4282820533
-0.34960908 0.001165745 -0.10837376 4283148978
-0.34956881 0.0031697042 -0.10833701 4283279792
-0.34952858 0.0051739388 -0.10830025 4284199102
-0.34948829 0.007178477 -0.1082635 4284860887
-0.34944806 0.0091833211 -0.10822672 4284328632
-0.34986496 0.011271788 -0.10893768 4286215060
-0.35074389 0.013455957 -0.11040448 4290008676
-0.35209489 0.015749071 -0.1126437 4291252314
-0.35393351 0.018165821 -0.11568095 4291121244
-0.35724947 0.020930691 -0.12113559 4291056476
-0.36015663 0.023659298 -0.12592213 4290993247
-0.36262378 0.026334485 -0.12998949 4291126114
-0.36513925 0.029062347 -0.13413644 4291516256
-0.36717865 0.031714436 -0.13750495 4291517538
-0.36871859 0.034273133 -0.14005654 4291257443
-0.37027693 0.036862802 -0.14263862 4290667873
-0.37239873 0.039632007 -0.14614335 4288371544
-0.37345034 0.042137291 -0.14789672 4285748816
-0.37451047 0.044663236 -0.14966433 4285030993
-0.37613919 0.047375973 -0.15236315 4285688923
-0.35994655 -0.043235961 -0.12856044 4288918946
-0.35842314 -0.041109566 -0.12608132 4288452759
-0.35643271 -0.038997717 -0.12283218 4286547857
-0.35494927 -0.036922675 -0.12041809 4283931568
-0.35395586 -0.0348722 -0.11881138 4282558915
-0.35296991 -0.032836713 -0.11721665 4282361795
-0.35292897 -0.030803945 -0.11717948 4282428355
-0.35430756 -0.028740983 -0.11948238 4282230721
-0.3528471 -0.026737511 -0.1171051 4282295994
-0.35327739 -0.024686303 -0.11784486 4282294711
-0.35323632 -0.022648517 -0.11780761 4282886587
-0.35319528 -0.02061045 -0.11777034 4282756541
-0.35268322 -0.018601041 -0.11695628 4282361529
-0.35264224 -0.016566196 -0.11691907 4282494658
-0.35119915 -0.014639965 -0.11456931 4282362559
-0.35209122 -0.012535825 -0.11607096 4282492858
-0.34973153 -0.010721652 -0.11220879 4282624185
-0.34877557 -0.0088015925 -0.11066183 4282624183
-0.34782663 -0.0068953517 -0.10912619 4282624697
-0.3477864 -0.0048960452 -0.10908962 4282493626
-0.34729448 -0.0029535911 -0.10830785 4282886323
-0.34725428 -0.00095736829 -0.10827134 4283802286
-0.34766555 0.0011035472 -0.1089799 4283541939
-0.34762526 0.0031040115 -0.10894331 4283542192
-0.34803796 0.0051767621 -0.10965441 4284527552
-0.34799758 0.0071815131 -0.10961775 4284136909
-0.34795722 0.00918651 -0.10958106 4283935674
-0.34837127 0.011275195 -0.11029463 4287068059
-0.34970397 0.013547575 -0.11252505 4290270567
-0.3505871 0.015752874 -0.11401344 4291055962
-0.35241431 0.018169839 -0.11706104 4290991451
-0.3561939 0.021039518 -0.12333328 4290927453
-0.35909432 0.023774818 -0.12815449 4291060835
-0.36206248 0.026574269 -0.13308825 4291190627
-0.36458221 0.029315401 -0.13728206 4291450719
-0.36662516 0.031980198 -0.14068896 4291321184
-0.36870071 0.034687839 -0.14415023 4290798945
-0.3708097 0.037439436 -0.14766724 4289092441
-0.37240273 0.040085532 -0.15033227 4286270539
-0.37346059 0.042608168 -0.15211345 4285027659
-0.37452713 0.045151699 -0.15390915 4285557079
-0.35888731 -0.043255191 -0.13079491 4289313193
-0.35687807 -0.04111097 -0.12748511 4289507491
-0.35489923 -0.038998924 -0.12422545 4288451988
-0.35342434 -0.036923721 -0.12180359 4286089622
-0.35243654 -0.034873024 -0.12019179 4283735988
-0.35098916 -0.032839652 -0.11781506 4282821314
-0.3500196 -0.030822612 -0.11623304 4282362567
-0.35137403 -0.028771136 -0.11851782 4282296771
-0.34993795 -0.026778486 -0.11615927 4282230205
-0.34989709 -0.024755975 -0.11612238 4282689211
-0.34985626 -0.022733156 -0.11608549 4283150531
-0.3498154 -0.020710059 -0.11604859 4282426816
-0.34931329 -0.018715195 -0.11524387 4282165442
-0.34927249 -0.016695235 -0.11520703 4282297795
-0.34831461 -0.014746701 -0.11364337 4282296508
-0.34827396 -0.012733627 -0.11360665 4282296250
-0.34687078 -0.010849045 -0.11130116 4282558133
-0.34593046 -0.0089388881 -0.1097661 4282491570
-0.34544271 -0.0069929599 -0.10898463 4282491055
-0.34540248 -0.0050008129 -0.1089483 4282557358
-0.34536228 -0.0030083642 -0.10891195 4282818729
-0.34532201 -0.0010156421 -0.10887561 4285247147
-0.34572887 0.0010416041 -0.10958407 4283934124
-0.34613726 0.0031066744 -0.11029512 4283542967
-0.3465471 0.0051796134 -0.1110088 4283937986
-0.3465066 0.0071845152 -0.11097224 4283544002
-0.3469179 0.0092693903 -0.11168845 4283739578
-0.34733066 0.011362263 -0.1124073 4287593115
-0.3482016 0.013551177 -0.11388986 4290467173
-0.34954071 0.01584946 -0.11615291 4291056987
-0.35136336 0.018271873 -0.11922242 4290992733
-0.35513401 0.021148758 -0.12553962 4290994785
-0.3580277 0.023890786 -0.13039576 4291061349
-0.36149651 0.026815927 -0.13621153 4291254113
-0.36453992 0.029696252 -0.14131893 4291189345
-0.36659467 0.032380175 -0.14477848 4290863457
-0.36868238 0.035107568 -0.14829357 4289288793
-0.37080386 0.037879441 -0.15186559 4286466379
-0.37240648 0.040544629 -0.15457265 4284894537
-0.37347075 0.043084782 -0.1563822 4285358678
-0.35782382 -0.043274499 -0.13303828 4289509547
-0.35630658 -0.041139361 -0.13052413 4289838254
-0.35432443 -0.039018881 -0.12722906 4289573544
-0.3523722 -0.036930125 -0.12398374 4288320148
-0.3513864 -0.034875363 -0.12236077 4286221724
-0.34947795 -0.032840293 -0.11918806 4284194998
-0.3485139 -0.030823067 -0.11760104 4282887109
-0.34847295 -0.028800959 -0.11756426 4282624964
-0.34751615 -0.02680558 -0.1159891 4282230722
-0.34702009 -0.024807531 -0.11518759 4282822338
-0.34697935 -0.022795746 -0.115151 4283019208
-0.34693858 -0.020783685 -0.11511441 4282622657
-0.34644446 -0.018799545 -0.11431594 4282625991
-0.34640378 -0.016790586 -0.1142794 4282297541
-0.34546161 -0.014852265 -0.1127279 4282296250
-0.34542108 -0.012850109 -0.11269147 4282230455
-0.34448594 -0.010932747 -0.11115142 4282950574
-0.34400079 -0.0089832954 -0.1103675 4283475109
