# .PCD v0.7 - Point Cloud Data file format
VERSION 0.7
FIELDS x y z rgba
SIZE 4 4 4 4
TYPE F F F U
COUNT 1 1 1 1
WIDTH 1013
HEIGHT 1
VIEWPOINT 0 0 0 1 0 0 0
POINTS 1013
DATA ascii
-0.3760933 0.016715717 -0.1025821 4291788108
-0.37555301 0.018512908 -0.10310025 4292185417
-0.37405473 0.020639012 -0.10228611 4292185927
-0.3730408 0.022590524 -0.10213903 4291457353
-0.37203041 0.024535336 -0.10199253 4290793550
-0.37149367 0.026320735 -0.10250729 4290661203
-0.37095681 0.028106377 -0.10302214 4289877083
-0.37041989 0.029892294 -0.10353705 4288639597
-0.3708224 0.031390574 -0.10538594 4287860095
-0.37075469 0.033041898 -0.10657433 4287794304
-0.37116045 0.034560129 -0.10844439 4287794046
-0.37156898 0.03608964 -0.110328 4287794043
-0.37246087 0.037495259 -0.11291689 4287728249
-0.37287775 0.039049964 -0.11483419 4287726967
-0.37378484 0.04048533 -0.11747181 4288179819
-0.37470189 0.041936848 -0.12013868 4290136921
-0.37562907 0.043404788 -0.12283538 4290728792
-0.37656653 0.044889458 -0.12556228 4290209112
-0.37700933 0.046513971 -0.1275776 4289432931
-0.37796324 0.048030734 -0.13035716 4289702771
-0.37892795 0.049565006 -0.13316837 4288581218
-0.38042295 0.051000889 -0.13678305 4285432929
-0.38141459 0.05257342 -0.13966922 4283253056
-0.38188845 0.054275919 -0.14179754 4284044357
-0.38236582 0.055991877 -0.1439424 4282792497
-0.38284689 0.05772144 -0.14610402 4282135593
-0.3833316 0.059464768 -0.1482826 4282334510
-0.38382003 0.061222032 -0.15047827 4282466360
-0.38376996 0.063089505 -0.15186618 4283255618
-0.38426283 0.064872012 -0.15408914 4285162841
-0.38530797 0.066579111 -0.15717021 4285494895
-0.38636556 0.068306915 -0.1602882 4286018161
-0.38743573 0.070055775 -0.16344374 4285563520
-0.39244825 -0.010429833 -0.11259163 4286664278
-0.39135543 -0.0083364099 -0.11241771 4285285959
-0.39079466 -0.0064715659 -0.11295548 4287122260
-0.38970682 -0.0043888851 -0.11278135 4288304212
-0.38706261 -0.0016785907 -0.11049282 4288236883
-0.38344368 0.001398755 -0.10685942 4289088080
-0.3808929 0.0040182085 -0.10465571 4289612879
-0.37935942 0.0062181861 -0.10382668 4289678417
-0.37783688 0.0084025664 -0.1030037 4289677905
-0.37632528 0.010571484 -0.10218669 4289743442
-0.37530386 0.012546864 -0.10203901 4289875282
-0.37428603 0.014515453 -0.10189193 4290072146
-0.37374759 0.01630603 -0.10240829 4290204497
-0.37273422 0.018264882 -0.10226098 4290535248
-0.37125385 0.020380611 -0.10145425 4290733137
-0.37071803 0.022162415 -0.10196807 4290598994
-0.36971524 0.024101157 -0.10182258 4290727763
-0.36918026 0.025880309 -0.10233563 4290728024
-0.36911017 0.027509375 -0.10350999 4289618020
-0.36903983 0.029144507 -0.10468869 4288315510
-0.36943722 0.0306402 -0.10654187 4287794560
-0.3698374 0.032146923 -0.10840844 4287794559
-0.37024039 0.033664789 -0.11028862 4287794558
-0.37112334 0.035054509 -0.11287266 4287728507
-0.37201586 0.036459729 -0.11548507 4287793530
-0.3724325 0.038016424 -0.11741893 4287660918
-0.37334031 0.039451465 -0.1200807 4287982181
-0.37425813 0.040902719 -0.12277209 4290201426
-0.37468904 0.042499907 -0.12476202 4290923350
-0.37562287 0.043982401 -0.12750497 4290990934
-0.37606278 0.045606669 -0.1295315 4290339675
-0.37650591 0.047243461 -0.13157336 4288968803
-0.37746215 0.04877336 -0.13439164 4287861084
-0.3789458 0.050203323 -0.13801579 4284445788
-0.3799288 0.051771421 -0.14090919 4282531389
-0.38039675 0.053470928 -0.14304246 4282664001
-0.38034102 0.055293564 -0.14439438 4282399791
-0.38081312 0.057017181 -0.1465537 4282464037
-0.3812888 0.058754511 -0.14872988 4282596397
-0.38176814 0.060505711 -0.15092319 4283385658
-0.38225114 0.062270883 -0.15313376 4283848010
-0.38273785 0.064050287 -0.15536186 4284641899
-0.38322827 0.065844029 -0.1576076 4285824887
-0.38427117 0.067564145 -0.16072211 4285495671
-0.38588277 0.069219597 -0.16473986 4285499272
-0.3915351 -0.011447514 -0.11451352 4286272856
-0.38991344 -0.0091213202 -0.11362093 4285356117
-0.38882715 -0.007033858 -0.11344562 4286476145
-0.38722441 -0.0047365115 -0.11256216 4286412915
-0.38409829 -0.0018235112 -0.10958695 4286538602
-0.3810291 0.0010365819 -0.1066661 4287454295
-0.37850496 0.0036492688 -0.10447192 4287711820
-0.37698546 0.0058427779 -0.10364666 4287973966
-0.37547681 0.0080207437 -0.10282741 4288563792
-0.37397891 0.01018336 -0.10201412 4289284689
-0.37296522 0.01215248 -0.10186741 4289678673
-0.37290195 0.013763975 -0.10304688 4289744210
-0.37141839 0.015899137 -0.10223594 4289743955
-0.37041259 0.017851831 -0.10208954 4289940820
-0.3689456 0.01996162 -0.10128649 4290401111
-0.36841154 0.021737197 -0.10179861 4290598747
-0.36787742 0.02351303 -0.1023108 4290663514
-0.36734322 0.025289126 -0.10282308 4290465883
-0.3672699 0.026914334 -0.10399641 4289423982
-0.36765951 0.02839658 -0.10584055 4288187263
-0.3680518 0.029889697 -0.10769799 4287728769
-0.36891657 0.031248579 -0.11024941 4287859839
-0.36979061 0.032622524 -0.11282861 4287794302
-0.37019613 0.034153506 -0.1147387 4287662972
-0.37108508 0.03555645 -0.11736628 4287727737
-0.37198371 0.036975157 -0.12002292 4287854960
-0.37240306 0.038545612 -0.12198797 4288633181
-0.37331721 0.039994653 -0.12469514 4290594896
-0.3742415 0.041460171 -0.12743266 4291119445
-0.37467536 0.043071792 -0.12945516 4291253078
-0.37511238 0.044695828 -0.13149297 4290664024
-0.37504834 0.046456043 -0.13278979 4289290330
-0.37599611 0.047981612 -0.13561513 4287988318
-0.37695467 0.049524881 -0.13847281 4284114780
-0.37792417 0.051086154 -0.14136346 4282597192
-0.37838334 0.052779891 -0.14349446 4282667861
-0.37884602 0.054486994 -0.14564206 4282333482
-0.37931216 0.056207601 -0.14780635 4282530604
-0.37925363 0.058046874 -0.1491757 4282597431
-0.3802551 0.059690006 -0.15218592 4283387202
-0.38019782 0.061551068 -0.15357475 4284832338
-0.38067535 0.063324265 -0.15580033 4285297262
-0.38169685 0.065019056 -0.15888572 4286217586
-0.38273042 0.066734329 -0.16200802 4285629820
-0.3843295 0.068383284 -0.16603622 4285369996
-0.3900876 -0.012235608 -0.11572134 4287325284
-0.38847116 -0.009906359 -0.11482438 4288315762
-0.38738742 -0.0078173084 -0.11464695 4287143576
-0.38527408 -0.005298899 -0.11305067 4285566093
-0.38166797 -0.0021760913 -0.10938263 4286741629
-0.37814027 0.00087896036 -0.10579456 4286941812
-0.37661928 0.0030862817 -0.10496307 4285093972
-0.37462831 0.0054699029 -0.10346815 4284630599
-0.37313339 0.0076415092 -0.10265262 4285743942
-0.37212116 0.0096150246 -0.10250483 4287055176
-0.37111241 0.011581757 -0.10235762 4287645514
-0.37057567 0.013365899 -0.10287232 4287842896
-0.3695713 0.015322966 -0.10272484 4288040020
-0.36857051 0.017273324 -0.10257802 4288695637
-0.36757311 0.019217018 -0.10243176 4289548888
-0.36703894 0.020992687 -0.10294402 4290205534
-0.36604589 0.022926861 -0.10279751 4291449950
-0.36597031 0.024544835 -0.10396876 4291515491
-0.36589438 0.026168838 -0.10514425 4289689210
-0.36627895 0.027648512 -0.10699262 4288189063
-0.36713094 0.028990293 -0.1095311 4287794562
-0.3679921 0.030346867 -0.11209719 4287794303
-0.36886257 0.031718478 -0.11469128 4287662974
-0.36974251 0.033105381 -0.11731382 4287728252
-0.37063205 0.034507822 -0.11996536 4287660918
-0.37153134 0.035926037 -0.12264629 4287851624
-0.37195042 0.037498556 -0.12462852 4289678420
-0.37286529 0.03894724 -0.12736063 4290988881
-0.3732931 0.04054632 -0.12937917 4291316819
-0.37372407 0.042157643 -0.13141291 4291383638
-0.37365744 0.043909632 -0.13270719 4290662999
-0.37359047 0.045668509 -0.13400644 4290007380
-0.37452981 0.047189683 -0.13683882 4288503124
-0.37497085 0.048848838 -0.13892834 4284370257
-0.37644067 0.05028538 -0.14260152 4282336600
-0.376894 0.051976159 -0.14473741 4282141534
-0.37683132 0.053792626 -0.14609031 4282398509
-0.37728858 0.055507336 -0.14825228 4282531896
-0.37774935 0.057235666 -0.15043114 4282729280
-0.37874183 0.058874194 -0.15344888 4283455054
-0.37868142 0.060733773 -0.15484032 4285751633
-0.3791528 0.062503844 -0.15707101 4286146911
-0.3801651 0.064193889 -0.16016409 4286480500
-0.38118941 0.065904401 -0.16329415 4286480504
-0.38277593 0.067546822 -0.16733281 4285431428
-0.38916776 -0.013258868 -0.11765314 4288181104
-0.38755161 -0.010921302 -0.1167474 4289301884
-0.38594741 -0.0086009242 -0.11584851 4287266441
-0.38333067 -0.0058593559 -0.11353759 4284706684
-0.38025144 -0.0029465496 -0.1105646 4285168512
-0.37722805 -8.6432403e-05 -0.10764576 4288917148
-0.37522295 0.0023271847 -0.10612822 4286156668
-0.37371773 0.0045217006 -0.10529878 4283779402
-0.3722232 0.0067007188 -0.10447531 4283383100
-0.3712106 0.008679565 -0.10432411 4283776063
-0.37020159 0.010651596 -0.10417353 4284104515
-0.36966372 0.012439057 -0.10468929 4284433738
-0.36865908 0.014401366 -0.10453846 4285024335
-0.36719549 0.016527139 -0.10372543 4285941841
-0.36620039 0.018472264 -0.10357726 4286991702
-0.36520877 0.020410743 -0.10342968 4288762719
-0.36467531 0.022183651 -0.10394123 4291517289
-0.36459714 0.023800408 -0.10511463 4291912821
-0.36451864 0.025423191 -0.10629229 4289822596
-0.36535811 0.02674807 -0.108818 4288320906
-0.36620653 0.028087519 -0.11137103 4287794817
-0.36706409 0.029441753 -0.11395185 4287728767
-0.36793092 0.030811016 -0.11656091 4287728766
-0.3688072 0.032195594 -0.11919869 4287727995
-0.36969304 0.033595715 -0.12186561 4287789425
-0.37107536 0.034869026 -0.12528937 4288371039
-0.37149414 0.036443584 -0.12728891 4290332752
-0.37191597 0.038030151 -0.12930343 4291120210
-0.37234089 0.039628871 -0.13133316 4291449174
-0.37276888 0.041239914 -0.13337822 4291581273
-0.37270018 0.042993587 -0.1346788 4290727255
-0.37263113 0.044754159 -0.13598438 4290267476
-0.37306321 0.046397634 -0.13806276 4288892754
-0.37400472 0.047932092 -0.14093471 4284958546
-0.37495694 0.049484435 -0.14383978 4282801253
-0.37540436 0.051172238 -0.1459806 4282139465
-0.37533864 0.052987311 -0.14733604 4282202163
-0.37527257 0.054809649 -0.14869677 4282597949
-0.37624475 0.056424327 -0.15168683 4282795335
-0.37722829 0.058058199 -0.15471204 4283457117
-0.37716475 0.059916295 -0.1561061 4285951581
-0.37816125 0.061584253 -0.15918142 4286015848
-0.37916949 0.06327229 -0.16229333 4286808691
-0.38018972 0.064980827 -0.16544251 4286804847
-0.38177124 0.066619217 -0.16950664 4286740337
-0.38771701 -0.014048716 -0.11886366 4288903281
-0.3861061 -0.011708106 -0.11795354 4289371009
-0.38450718 -0.0093846638 -0.11705028 4286750869
-0.38190094 -0.0066371909 -0.11473059 4284716702
-0.37883466 -0.0037171375 -0.1117468 4284913819
-0.37631232 -0.0010554635 -0.10950394 4289574820
-0.37479213 0.0011671125 -0.10865624 4289312164
-0.37376386 0.0031770705 -0.10849581 4285229677
-0.37226096 0.0053728605 -0.10765648 4282926405
-0.37076876 0.0075531006 -0.10682328 4282665034
-0.37022793 0.0093500372 -0.10734188 4284043601
-0.3692168 0.01132832 -0.10718554 4285095513
-0.36820921 0.013299765 -0.10702983 4285423709
-0.36674184 0.015437162 -0.10620514 4284831326
-0.36482742 0.017727381 -0.10472295 4284766054
-0.36429295 0.019503271 -0.10523546 4287519341
-0.36330447 0.021440301 -0.10508516 4290340988
-0.36322373 0.02305584 -0.10626072 4290669186
-0.36359781 0.024521744 -0.10810997 4289559428
-0.36443371 0.025844276 -0.11065011 4288319879
-0.36481535 0.027333908 -0.11253195 4287794819
-0.36566523 0.02868416 -0.11511921 4287729024
-0.36652428 0.030049408 -0.11773475 4287728510
-0.36739269 0.03142992 -0.12037911 4287661177
-0.36875036 0.032680079 -0.12377305 4287916904
-0.3696422 0.034093659 -0.12648535 4289350486
-0.3700555 0.035665441 -0.12848948 4290725713
-0.37096286 0.037109483 -0.13125373 4291185746
-0.37138483 0.038707871 -0.13329472 4291383381
-0.3718099 0.040318597 -0.13535114 4291449942
-0.37173909 0.042073943 -0.13665806 4290858580
-0.37166792 0.043836195 -0.13796996 4290398292
-0.37209705 0.04547945 -0.14005998 4288955728
-0.37252933 0.047135483 -0.14216599 4284890953
-0.37347293 0.048683371 -0.14507829 4282600531
-0.37340364 0.050486512 -0.14642683 4282270273
-0.37384573 0.052181844 -0.14858198 4282136375
-0.37377661 0.054002754 -0.14994526 4282729279
-0.37422252 0.055722132 -0.15212674 4283124296
-0.37571442 0.057242066 -0.15597548 4283717462
-0.37564778 0.059098694 -0.15737213 4286081881
-0.37716544 0.060660869 -0.16130033 4285952615
-0.37816963 0.062346887 -0.16443121 4286611312
-0.37918571 0.064053401 -0.16759962 4286215780
-0.38021401 0.065780759 -0.17080632 4288775020
-0.39008206 -0.021467591 -0.12137921 4289814881
-0.38898081 -0.019329827 -0.12118717 4289614932
-0.3878836 -0.01719984 -0.12099594 4289222231
-0.38679045 -0.015077609 -0.12080547 4289357155
-0.38517988 -0.012728619 -0.1198865 4289501059
-0.38358125 -0.010396929 -0.11897445 4287474591
-0.38047093 -0.0074151689 -0.11592381 4285962651
-0.37741762 -0.0044878689 -0.11292921 4286092686
-0.37539291 -0.0020281789 -0.1113691 4288455833
-0.37387317 0.00020209452 -0.1105132 4290431408
-0.37332651 0.0020179467 -0.11103736 4287013015
-0.37181962 0.0042259768 -0.11018594 4284372572
-0.37079826 0.0062274053 -0.1100233 4284969324
-0.36978054 0.0082218805 -0.10986133 4287794053
-0.36923754 0.010025678 -0.110382 4289504143
-0.36775586 0.0121901 -0.10953934 4289374097
-0.36582226 0.014513966 -0.10802875 4287731857
-0.36436576 0.016643602 -0.10720212 4286811285
-0.36291957 0.018758358 -0.10638151 4287987342
-0.36238486 0.020534625 -0.10689422 4289428375
-0.36185005 0.02231116 -0.10740702 4290078855
-0.3622191 0.023774505 -0.10926048 4289752692
-0.36304742 0.025093108 -0.11180697 4288711040
-0.36342394 0.02658016 -0.11369307 4287991172
-0.3642661 0.027926441 -0.11628675 4287794304
-0.36511737 0.029287649 -0.11890882 4287793276
-0.36645085 0.030515127 -0.12227344 4287658099
-0.36732501 0.031908736 -0.12496252 4288371295
-0.36820877 0.033318132 -0.12768157 4290201167
-0.36861658 0.034887142 -0.12969027 4291118931
-0.36902735 0.036468122 -0.13171405 4291316820
-0.36944115 0.038061239 -0.13375306 4291317588
-0.36985794 0.039666612 -0.1358075 4291252563
-0.37027782 0.041284356 -0.13787754 4290990419
-0.36970857 0.043175351 -0.13842337 4290595668
-0.37012929 0.044813108 -0.14051126 4288954958
-0.37105364 0.046338726 -0.14339751 4284562243
-0.37198862 0.047882151 -0.14631702 4282925121
-0.37191632 0.049683876 -0.14766808 4282597437
-0.37235251 0.051376227 -0.14982817 4282201909
-0.37228036 0.053195696 -0.15119398 4282597437
-0.37323478 0.054801203 -0.15419888 4283058502
-0.37472171 0.056317024 -0.15807152 4283847244
-0.3746528 0.058175586 -0.15947519 4285818707
-0.37616548 0.059733681 -0.16342792 4285952863
-0.37716547 0.061417639 -0.16657782 4286082914
-0.37817743 0.063122123 -0.16976562 4285820262
-0.38915321 -0.022518853 -0.12334036 4289882215
-0.38805145 -0.020374924 -0.12314434 4289285974
-0.38695377 -0.018238842 -0.12294919 4289154387
-0.38533643 -0.015869251 -0.12201872 4289420895
-0.38373113 -0.013517191 -0.12109534 4289169024
-0.38213778 -0.011182413 -0.12017891 4288258711
-0.37904066 -0.0081932899 -0.11711724 4285037438
-0.37600031 -0.0052587227 -0.11411184 4284641383
-0.37446994 -0.0030045919 -0.11324129 4285827213
-0.37295061 -0.00076659478 -0.11237716 4289903270
-0.37192166 0.0012544084 -0.11220963 4289511339
-0.37137479 0.0030706318 -0.11273398 4287991179
-0.36987472 0.0052752388 -0.11187663 4288919198
-0.36932966 0.0070854211 -0.11239924 4289248690
-0.36878455 0.0088958638 -0.11292194 4289444268
-0.36729899 0.01107227 -0.11206722 4289444008
-0.36536071 0.013410607 -0.11053769 4289511088
-0.36344317 0.015724177 -0.10902463 4290167226
-0.36199754 0.017846072 -0.10819618 4289771445
-0.36146173 0.0196256 -0.10870993 4289763501
-0.36092582 0.021405391 -0.10922378 4290472322
-0.36084014 0.023027135 -0.1104112 4290339945
-0.3616609 0.024341824 -0.11296399 4289168250
-0.36203226 0.025826268 -0.11485441 4288188035
-0.36332887 0.027014872 -0.11815305 4287924861
-0.36371022 0.028525759 -0.12008309 4287791991
-0.36503321 0.029747769 -0.12345644 4287982184
-0.36589938 0.031137269 -0.12615222 4289416021
-0.3667751 0.032542475 -0.12887798 4290790991
-0.36669615 0.034253232 -0.130151 4291315794
-0.36709884 0.035829015 -0.13217288 4291317078
-0.36701989 0.037556037 -0.1334593 4291252309
-0.36742589 0.039153609 -0.1355051 4291055188
-0.36783487 0.040763471 -0.13756633 4290530899
-0.36775631 0.04251685 -0.13887526 4290398803
-0.36866188 0.044020616 -0.14173587 4289021775
-0.36908001 0.045668181 -0.14384454 4284629319
-0.37000164 0.047204927 -0.14676115 4283450430
-0.37042874 0.048881091 -0.14890954 4282925369
-0.37085903 0.050570462 -0.15107456 4282333234
-0.37129253 0.052273177 -0.15325637 4282334265
-0.3722429 0.053876538 -0.15627933 4282794817
-0.37372485 0.055388205 -0.16017601 4283649093
-0.37365368 0.057248712 -0.16158673 4284898383
-0.37516126 0.058802664 -0.16556418 4285230176
-0.37562349 0.06058697 -0.16786472 4285162333
-0.37662601 0.062286574 -0.17106043 4287329891
-0.3865892 -0.021171432 -0.12436443 4289949544
-0.38602012 -0.019281911 -0.12491006 4289746777
-0.38440311 -0.016903808 -0.12397062 4289549660
-0.38279817 -0.014543308 -0.12303826 4288570733
-0.38069403 -0.011968077 -0.12138359 4287792515
-0.37761015 -0.0089715375 -0.1183109 4285039998
-0.37458277 -0.0060297283 -0.11529467 4284047969
-0.37305743 -0.0037726557 -0.11441993 4284446056
-0.37202442 -0.0017389569 -0.11424813 4289243289
-0.37099513 0.0002876081 -0.11407703 4290366393
-0.36996952 0.0023070658 -0.11390661 4289644467
-0.36894754 0.0043194755 -0.11373689 4288002475
-0.36792919 0.0063248421 -0.11356787 4285437609
-0.3673839 0.0081353905 -0.1140907 4285105555
-0.36590326 0.010314664 -0.11323189 4285365901
-0.36397237 0.012657188 -0.11169622 4286157471
-0.3620621 0.014974883 -0.11017708 4289379774
-0.36107191 0.016930401 -0.11001747 4290826698
-0.36008525 0.018879199 -0.10985857 4290817457
-0.35954922 0.020659106 -0.11037254 4290800767
-0.35991043 0.022119384 -0.11224017 4290533478
-0.36027411 0.023590405 -0.11412124 4289427574
-0.36109602 0.024915619 -0.11670811 4288253312
-0.36192673 0.026255511 -0.11932314 4287858554
-0.36276647 0.027610311 -0.12196685 4287723376
-0.36361533 0.028980261 -0.12463967 4288501853
-0.36447352 0.030365642 -0.1273421 4290200655
-0.36486503 0.031914972 -0.12933862 4291118672
-0.36478254 0.033621527 -0.13061024 4291381587
-0.36517721 0.035192136 -0.13263021 4291317589
-0.36509466 0.036914866 -0.13391525 4291383380
-0.3659752 0.038369548 -0.13671573 4291186003
-0.36589339 0.040111706 -0.13801825 4290726995
-0.36629713 0.041728608 -0.14009303 4290333011
-0.36719424 0.043227974 -0.14296068 4288693841
-0.36760661 0.044872642 -0.14507417 4285219913
-0.36851963 0.046404935 -0.14799798 4283843646
-0.36944315 0.047955215 -0.15095557 4283123005
-0.36987031 0.049644388 -0.15313284 4282662455
-0.37030068 0.051346924 -0.15532704 4282400313
-0.37124693 0.052948121 -0.15836813 4282597695
-0.37220424 0.054568455 -0.16144508 4283386433
-0.37265033 0.05631806 -0.16370682 4284174918
-0.37362525 0.057975002 -0.1668461 4284570963
-0.37461177 0.059652083 -0.17002301 4286015582
-0.38512671 -0.021968089 -0.12558474 4290149491
-0.38455746 -0.020078458 -0.12613052 4289679971
-0.38294581 -0.017697224 -0.12518659 4289482074
-0.38134617 -0.015333635 -0.1242498 4288304215
-0.37925002 -0.012753858 -0.12258848 4287261801
-0.37617937 -0.009749948 -0.11950477 4287531910
-0.37316495 -0.0068008755 -0.11647773 4287269502
-0.37164462 -0.0045408839 -0.11559881 4284643189
-0.37061405 -0.0025056547 -0.11542497 4287270034
-0.36911118 -0.0002730678 -0.11455479 4289841339
-0.36809066 0.0017438537 -0.11438398 4288397230
-0.36707377 0.0037537238 -0.11421385 4286029978
-0.36652845 0.0055641294 -0.11473672 4283667106
-0.36598301 0.0073747807 -0.11525969 4283468691
-0.36450726 0.0095569054 -0.11439679 4283597710
-0.36304206 0.011723596 -0.11354016 4284781984
-0.36158726 0.013874996 -0.11268979 4288855736
-0.3601428 0.016011296 -0.11184556 4291286213
-0.35915583 0.017965337 -0.11168317 4290951352
-0.35861868 0.019748509 -0.11219819 4290605701
-0.35897708 0.021208249 -0.11407587 4290662501
-0.35933793 0.022678757 -0.11596704 4289686125
-0.35970134 0.024160089 -0.11787197 4288381817
-0.3605243 0.02549598 -0.12049346 4287659894
-0.36089516 0.027001584 -0.12243228 4287719013
-0.36219722 0.028212611 -0.12582311 4289088339
-0.36304742 0.029593863 -0.12853222 4290593870
-0.36343351 0.031140462 -0.13053325 4291184465
-0.36334816 0.032845672 -0.13180727 4291382356
-0.36373734 0.034413554 -0.1338318 4291317334
-0.36365199 0.036134914 -0.1351192 4291448405
-0.36452425 0.037585322 -0.13792659 4291513429
-0.36492202 0.039189506 -0.13999721 4291317333
-0.36532271 0.040806096 -0.14208354 4290727252
-0.36572632 0.042435188 -0.14418572 4289481299
-0.36662507 0.043947566 -0.14709339 4286858567
-0.3675341 0.045477629 -0.15003456 4284170046
-0.36795214 0.047150604 -0.15219991 4283450945
-0.36837339 0.048836768 -0.15438209 4283320127
-0.36879781 0.050536327 -0.15658128 4283845955
-0.37024677 0.052015949 -0.1604653 4283979084
-0.37119991 0.053634059 -0.16356081 4284372296
-0.37112328 0.055495016 -0.16498125 4284897608
-0.37261343 0.057038371 -0.16899383 4285949780
-0.38366392 -0.022764882 -0.12680528 4289884777
-0.38309452 -0.020875134 -0.12735119 4288564054
-0.38148823 -0.018490801 -0.1264028 4287120465
-0.37989393 -0.016124114 -0.12546158 4286137681
-0.37831146 -0.013774886 -0.12452751 4286533207
-0.37474832 -0.010528491 -0.12069886 4287978337
-0.37223217 -0.0077919872 -0.11837014 4287531129
-0.3702316 -0.0053092339 -0.11677787 4287337872
-0.36872727 -0.0030625386 -0.11590127 4287338126
-0.36770552 -0.0010370094 -0.11572771 4289112240
-0.36621836 0.0011825205 -0.11485984 4289840819
-0.36520654 0.0031899004 -0.11468927 4287475116
-0.36419833 0.0051902947 -0.11451941 4284117904
-0.36365473 0.0069945212 -0.1150406 4284180333
-0.36265093 0.0089849615 -0.1148706 4283327086
-0.36165068 0.010968529 -0.11470122 4283593091
-0.36020073 0.013122755 -0.1138468 4288193440
-0.35921007 0.015088791 -0.11368037 4290955965
-0.3582229 0.017048074 -0.11351456 4290889405
-0.35768464 0.018834535 -0.11403063 4290675086
-0.35804012 0.020293731 -0.11591832 4291317861
-0.35839811 0.021763695 -0.11781967 4290600290
-0.3587586 0.023244506 -0.11973486 4288574315
-0.35957783 0.024577955 -0.12237138 4287327591
-0.35994574 0.026083073 -0.12432074 4287975766
-0.36077881 0.027444847 -0.12700677 4289741900
-0.36162102 0.028821936 -0.12972255 4290790992
-0.36200166 0.030365819 -0.13172814 4291250515
-0.36191356 0.03206972 -0.13300447 4291317078
-0.36229727 0.033634797 -0.13503361 4291382871
-0.36220905 0.035354856 -0.13632338 4291447895
-0.36307305 0.036800966 -0.13913767 4291513176
-0.36346519 0.038402338 -0.14121298 4291383640
-0.36434436 0.039879959 -0.14408177 4291121751
-0.36474487 0.04150876 -0.14619571 4290728279
-0.36563954 0.043018848 -0.14912054 4288957520
-0.36654446 0.044546574 -0.15207916 4285417291
-0.36695936 0.046219304 -0.15425673 4284304712
-0.3673774 0.047905277 -0.1564512 4283714116
-0.3677986 0.049604606 -0.15866284 4284568906
-0.3822009 -0.023561837 -0.12802602 4288440164
-0.38163134 -0.021671964 -0.12857206 4286534233
-0.38003042 -0.019284515 -0.12761921 4285227105
-0.37844142 -0.016914736 -0.12667356 4284772205
-0.37686422 -0.014562435 -0.12573509 4285032558
-0.37331703 -0.011307159 -0.12189315 4285815392
-0.37129566 -0.0087868813 -0.12026976 4286274910
-0.36881831 -0.0060777273 -0.11795716 4287651427
-0.36731896 -0.0038281239 -0.1170764 4286938484
-0.36536291 -0.0013887776 -0.11550585 4287659664
-0.36435258 0.00062310614 -0.11533417 4289570454
-0.36334583 0.0026279611 -0.1151632 4288718741
-0.36234263 0.004625869 -0.11499294 4286679684
-0.36134291 0.006616856 -0.11482332 4285035131
-0.36080101 0.0084149698 -0.11534286 4283788162
-0.35935405 0.010578196 -0.1144862 4283657084
-0.35881394 0.012370387 -0.11500403 4287468689
-0.35782564 0.014337874 -0.11483564 4289903796
-0.35728633 0.016127374 -0.1153527 4290561724
-0.35719317 0.017748553 -0.11655794 4290546068
-0.35754803 0.01920918 -0.11846167 4292039528
-0.35790539 0.02068064 -0.12037922 4291449436
-0.35826525 0.022163009 -0.12231072 4288764763
-0.35862765 0.023656445 -0.12425634 4287517266
-0.35899261 0.025161041 -0.12621626 4288365386
-0.35936019 0.026676925 -0.12819062 4290003530
-0.36019439 0.028049909 -0.13091309 4290987857
-0.36010316 0.029743077 -0.13218327 4291251029
-0.36001155 0.03144278 -0.13345826 4291317591
-0.36038733 0.033002742 -0.13548543 4291383127
-0.36076584 0.034574613 -0.13752778 4291579225
-0.36162156 0.036016475 -0.14034899 4291579226
-0.3624869 0.0374749 -0.14320214 4291253337
-0.36336201 0.038950194 -0.14608778 4291187287
-0.36375937 0.040578641 -0.14821351 4291252825
-0.36514211 0.041952442 -0.1519589 4290138714
-0.36555073 0.043611836 -0.15413184 4286731865
-0.36646187 0.045155246 -0.15714264 4285487441
-0.36637729 0.046969991 -0.1585286 4283975748
-0.36730018 0.048545673 -0.16158877 4284372556
-0.38130721 -0.026248636 -0.1287009 4288970098
-0.38073757 -0.024358924 -0.12924701 4286605930
-0.38016787 -0.022468945 -0.1297932 4284775035
-0.37857231 -0.020078372 -0.12883584 4283862674
-0.37749565 -0.017949769 -0.12863153 4283603870
-0.37591895 -0.015589057 -0.1276841 4283602843
-0.37286732 -0.012547303 -0.12454198 4283531915
-0.37084085 -0.010010686 -0.12289802 4283858048
-0.36835757 -0.0072825104 -0.12055778 4284641396
-0.36591041 -0.0045938403 -0.11825173 4284837220
-0.36396185 -0.0021502366 -0.11667494 4285881963
-0.36295393 -0.00013685953 -0.11650126 4287389292
-0.36149156 0.0020679124 -0.11563565 4287331713
-0.3604933 0.0040633483 -0.11546493 4287075226
-0.35949856 0.0060518687 -0.11529494 4287867299
-0.35850734 0.0080335196 -0.11512563 4289050275
-0.35796717 0.0098255705 -0.1156435 4288714893
-0.35698029 0.011797439 -0.11547405 4287666058
-0.35644093 0.013586804 -0.11599114 4288126627
-0.35590148 0.015376437 -0.11650832 4288849576
-0.35580567 0.016996352 -0.11771578 4289689992
-0.3561554 0.018454388 -0.11962379 4290924899
-0.35650757 0.019923231 -0.12154567 4290857303
-0.35686222 0.021402977 -0.12348155 4289677393
-0.35721934 0.02289374 -0.12543157 4288956492
-0.35757902 0.024395676 -0.12739591 4289217610
-0.35794127 0.025908876 -0.12937471 4290265933
-0.35876748 0.027277723 -0.13210386 4290988113
-0.35867345 0.028969577 -0.13337637 4291185749
-0.35857907 0.030667972 -0.1346537 4291252311
-0.35894936 0.032225166 -0.13668545 4291383127
-0.35932234 0.03379425 -0.1387324 4291644763
-0.36016983 0.035231855 -0.14156051 4291645021
-0.36150467 0.036543846 -0.14519903 4291318874
-0.36237565 0.038016733 -0.1481017 4291253080
-0.36276987 0.039644856 -0.15023923 4291252569
-0.36365634 0.04115025 -0.15319882 4290270043
-0.36455294 0.042673305 -0.15619269 4286666841
-0.36545989 0.044214364 -0.15922146 4285224270
-0.36587417 0.045902606 -0.16144834 4284041539
-0.36629167 0.047604337 -0.16369276 4285028944
-0.3798438 -0.027045984 -0.12992194 4287005813
-0.37978923 -0.025416436 -0.13122456 4284777089
-0.37921831 -0.023522759 -0.13177191 4283666839
-0.37813419 -0.021375693 -0.13156094 4283144868
-0.37654608 -0.018988851 -0.13059714 4282817189
-0.37547299 -0.01686191 -0.13038972 4282684572
-0.37290871 -0.014031954 -0.12794971 4282814612
-0.37087053 -0.011472821 -0.12627771 4283338897
-0.36837313 -0.0087186489 -0.12389971 4284190862
-0.36591226 -0.0060045668 -0.12155665 4283666576
-0.36348709 -0.0033296968 -0.11924772 4283468437
-0.36201477 -0.0011015116 -0.1183675 4284187014
-0.3600975 0.0013106415 -0.11679891 4284773232
-0.35865039 0.0035027047 -0.11593547 4285554534
-0.35766059 0.005488764 -0.11576507 4286993506
-0.35712036 0.0072806585 -0.11628301 4287716707
-0.35613492 0.0092569441 -0.11611245 4287589749
-0.3551529 0.011226426 -0.11594257 4287004294
-0.35461438 0.0130127 -0.11645888 4286805120
-0.35495856 0.014450823 -0.11835551 4287065975
-0.35486075 0.016072107 -0.1195686 4288960099
-0.35520756 0.017529545 -0.12148689 4290530137
-0.35555679 0.018997811 -0.12341908 4290727257
-0.35590848 0.020476988 -0.12536541 4290595929
-0.35626265 0.021967212 -0.127326 4290662744
-0.3566193 0.023468612 -0.129301 4290859097
-0.35697854 0.024981299 -0.13129054 4290988886
-0.35734031 0.026505364 -0.13329485 4291120725
-0.35770467 0.028041024 -0.13531405 4291120983
-0.35760814 0.029740933 -0.13659742 4291186520
-0.35751113 0.031447448 -0.13788567 4291579995
-0.3578786 0.033013742 -0.13993725 4292040807
-0.35871783 0.034447048 -0.14277226 4291647849
-0.36004153 0.035753254 -0.14642008 4291383897
-0.36138529 0.037079565 -0.15012342 4291384153
-0.36226204 0.038567219 -0.15307672 4291383898
-0.36314878 0.040072292 -0.1560642 4289942104
-0.36355099 0.041731022 -0.15826172 4285680974
-0.3644537 0.043269712 -0.16130854 4283779139
-0.36486474 0.044957671 -0.1635481 4283977798
-0.3799811 -0.030272065 -0.13211296 4287666824
-0.37889364 -0.028108852 -0.13190086 4285304456
-0.37883696 -0.026478106 -0.13320981 4283864217
-0.37826478 -0.02458071 -0.13375835 4283145124
-0.37718034 -0.022427455 -0.13354337 4282817188
-0.37609988 -0.020282073 -0.13332924 4282750109
-0.37552962 -0.018391034 -0.13387595 4282880406
-0.37344968 -0.015773714 -0.13214849 4283404689
-0.37090024 -0.012951512 -0.12969555 4284978566
-0.36694601 -0.0094946586 -0.12509052 4286224510
-0.36496651 -0.0069927224 -0.12345605 4284913040
-0.36254367 -0.0043056794 -0.12112923 4284456859
-0.36107194 -0.0020697918 -0.12024068 4283404952
-0.35915616 0.00035206683 -0.11865924 4283208847
-0.35816008 0.0023544093 -0.11848307 4283600783
-0.35671967 0.0045430851 -0.11761381 4284184446
-0.35573313 0.0065276572 -0.11744059 4284899427
-0.35475004 0.0085053965 -0.1172681 4285221731
-0.35377035 0.010476339 -0.11709627 4285680227
-0.35323164 0.012262715 -0.11761272 4286205785
-0.35357073 0.013698258 -0.11951362 4286727758
-0.35347027 0.015318281 -0.12072892 4288955472
-0.35381192 0.016773123 -0.12265154 4290529368
-0.35460231 0.018068889 -0.1252995 4290858843
-0.35495099 0.019547496 -0.12725632 4290858589
-0.35530218 0.021037163 -0.12922752 4291187040
-0.35565582 0.022538014 -0.13121325 4291581025
-0.35555649 0.024211554 -0.13247724 4291646816
-0.35637072 0.025573736 -0.13522883 4291319131
-0.35673204 0.027108865 -0.13725908 4291121752
-0.35663334 0.02881032 -0.13854861 4291252057
-0.35699746 0.030366667 -0.14060271 4292173413
-0.35783166 0.031784948 -0.14344151 4293031294
-0.35867518 0.033219516 -0.14631248 4291716731
-0.36000597 0.034523923 -0.15000808 4291384153
-0.36135697 0.03584858 -0.15376025 4291384154
-0.36175001 0.037481144 -0.15593626 4291056217
-0.36214596 0.039126545 -0.1581291 4288958034
-0.36303869 0.040646929 -0.16116931 4284695361
-0.36344332 0.042321231 -0.16340397 4283385666
-0.36385107 0.044008896 -0.16565625 4284635469
-0.37851173 -0.031072859 -0.13333897 4285568145
-0.37742692 -0.028908011 -0.13312468 4284589726
-0.37736732 -0.027278656 -0.13443609 4283474086
-0.37730742 -0.02564284 -0.13575257 4283079591
-0.3767339 -0.02374143 -0.13630238 4283078048
-0.37565002 -0.021585289 -0.13608237 4283076759
-0.37507743 -0.019686956 -0.1366313 4283207572
-0.37349436 -0.017296677 -0.13564506 4284256399
-0.37192318 -0.014924185 -0.13466638 4286092668
-0.36938018 -0.012102659 -0.13219018 4286487151
-0.36735743 -0.0095487814 -0.13049182 4286748798
-0.36299384 -0.0059309881 -0.12517083 4285766519
-0.36150953 -0.0036727122 -0.12426116 4286486155
-0.35957727 -0.0012243685 -0.12264641 4284586886
-0.35721481 0.0013976786 -0.12034679 4283012763
-0.35577509 0.0035938395 -0.1194694 4283011483
-0.3547883 0.0055837869 -0.11929269 4283142039
-0.35380498 0.0075668739 -0.11911669 4283863956
-0.35282513 0.0095431292 -0.11894139 4284189324
-0.3522853 0.011332805 -0.1194589 4285163631
-0.35218263 0.012945543 -0.12067197 4286072656
-0.35207954 0.014564346 -0.12188947 4288496720
-0.35241601 0.016016562 -0.1238164 4290202714
-0.35319868 0.017308321 -0.12647083 4290991966
-0.35354212 0.018784285 -0.12843204 4291055199
-0.35433793 0.020103553 -0.13113625 4291052892
-0.3542363 0.021769399 -0.13239785 4291119449
-0.3541342 0.023441665 -0.13366415 4291186009
-0.35494038 0.02479969 -0.13642246 4291120472
-0.35529625 0.026332065 -0.13845727 4291120726
-0.35565466 0.027876118 -0.14050727 4291252315
-0.35555336 0.02958576 -0.14180785 4292702062
-0.35731393 0.030695232 -0.14620534 4293757318
-0.35863176 0.031977873 -0.14989316 4291780987
-0.35996968 0.033280399 -0.15363738 4291253082
-0.36084139 0.03475181 -0.15662248 4291253338
-0.36123377 0.036386549 -0.15881804 4290203990
-0.36162907 0.038034212 -0.16103061 4286662475
-0.36202741 0.03969492 -0.1632605 4283645500
-0.36292616 0.041230924 -0.16635479 4283714885
-0.37761438 -0.033770587 -0.13401662 4285698959
-0.37704214 -0.031873792 -0.1345652 4285371803
-0.37646979 -0.029976713 -0.13511387 4284459436
-0.3764081 -0.028346194 -0.13643171 4283342764
-0.37634608 -0.026709178 -0.13775468 4283144616
-0.37577134 -0.024804022 -0.13830566 4283209119
-0.37519646 -0.022898594 -0.13885674 4283667867
-0.37513179 -0.021247186 -0.14018708 4284652189
-0.3735393 -0.018837206 -0.13918184 4285504407
-0.37195882 -0.016445234 -0.13818431 4285896578
-0.37138692 -0.014549544 -0.13873255 4286617968
-0.36834258 -0.01148198 -0.13545194 4287470706
-0.36583549 -0.0086960234 -0.13297942 4286027388
-0.36336544 -0.0059510786 -0.13054363 4286226558
-0.36093163 -0.0032462291 -0.12814374 4283995537
-0.35853326 -0.00058059313 -0.12577894 4282750367
-0.35527286 0.0024436379 -0.12203489 4282815903
-0.35383987 0.0046364027 -0.12115165 4282749596
-0.35241708 0.0068137152 -0.12027483 4283667609
-0.35143957 0.0087914057 -0.1200976 4284323740
-0.35089958 0.010581188 -0.12061524 4284059291
-0.35079429 0.01219271 -0.12183051 4284834672
-0.35068855 0.013810253 -0.12305023 4288038997
-0.35101986 0.015259862 -0.12498147 4290267221
-0.35179475 0.016547626 -0.12764238 4290662490
-0.35213295 0.018020917 -0.12960798 4290726489
-0.35336989 0.019166399 -0.13305216 4290791255
-0.35326615 0.020833716 -0.13431972 4290857045
-0.35316193 0.02250741 -0.13559204 4290922835
-0.35350981 0.024025507 -0.13761629 4291120468
-0.3543168 0.025394773 -0.1404122 4291186518
-0.35467207 0.026938289 -0.14247343 4291252316
-0.3545686 0.028649483 -0.14378023 4292436583
-0.35726279 0.029441362 -0.14977875 4293290860
-0.35763574 0.031030377 -0.15191489 4291712353
-0.35944963 0.032175642 -0.15649377 4291187289
-0.36032152 0.033646431 -0.15950699 4290924888
-0.36071321 0.035283342 -0.1617223 4289023056
-0.36061695 0.037078712 -0.16311759 4284693056
-0.36101192 0.038739067 -0.16536003 4283187773
-0.36190629 0.040272605 -0.16847289 4284635467
-0.37671697 -0.036468405 -0.13469431 4286356365
-0.37563539 -0.034293648 -0.13447757 4284126105
-0.37557223 -0.032674864 -0.13579164 4285704875
-0.37499973 -0.030777689 -0.13634045 4283801520
-0.37544495 -0.029417956 -0.13843518 4283211437
-0.37538084 -0.027779728 -0.13976462 4283144612
-0.37531641 -0.026134962 -0.14109926 4283275167
-0.37473917 -0.024222115 -0.14165261 4284194210
-0.37467319 -0.022566782 -0.14299358 4286165165
-0.37409472 -0.020649713 -0.14354813 4286623915
-0.37351614 -0.018732356 -0.14410275 4285439127
-0.37242946 -0.016567936 -0.14386672 4285504130
-0.37084383 -0.014170259 -0.14284585 4285634684
-0.36927021 -0.011790542 -0.14183286 4284520591
-0.36575389 -0.0085155396 -0.13775283 4284127632
-0.36278999 -0.0055317869 -0.13451228 4283144094
-0.3589538 -0.002181459 -0.12986301 4282816415
-0.3547667 0.0012849591 -0.12461918 4282946972
-0.35288778 0.0036854625 -0.12301754 4282815388
-0.35146567 0.0058701918 -0.12213256 4283341473
-0.35048795 0.0078532491 -0.1219518 4283866796
-0.34951362 0.0098294588 -0.12177178 4283870138
-0.34940568 0.011439713 -0.12298927 4283923347
-0.34929729 0.013056012 -0.12421121 4287843936
-0.34962344 0.014503033 -0.12614676 4290269019
-0.35039061 0.015786782 -0.12881413 4290792794
-0.35072353 0.017257432 -0.13078411 4290791766
-0.35239807 0.018225687 -0.13497531 4290725973
-0.35274252 0.019724786 -0.13699359 4290660437
-0.35218582 0.021569578 -0.13752724 4290857813
-0.3525306 0.023087155 -0.13956253 4291055446
-0.35333344 0.024453808 -0.14237462 4291187032
-0.35368553 0.025996849 -0.14444713 4291317594
-0.35357988 0.027709557 -0.14576024 4291776862
-0.35579613 0.028648462 -0.15100271 4292039773
-0.3566356 0.030079152 -0.15394449 4291449688
-0.357963 0.031372346 -0.15773439 4291187545
-0.35882613 0.032838639 -0.16075495 4290007636
-0.35969922 0.034322247 -0.16381072 4286531653
-0.35911253 0.03626642 -0.1643731 4283710260
-0.35999224 0.037779357 -0.16746806 4283713857
-0.37581953 -0.039166328 -0.13537201 4287407504
-0.37423396 -0.036704414 -0.13439023 4284453268
-0.37366363 -0.034814861 -0.13493694 4284652451
-0.37359673 -0.033200037 -0.13624959 4284528051
-0.37352943 -0.031578798 -0.13756727 4283014315
-0.37346181 -0.029951094 -0.13889006 4282882728
-0.37390178 -0.028585194 -0.14099875 4283078816
-0.37383434 -0.026941869 -0.14233592 4283340959
-0.37427807 -0.025555965 -0.14447016 4284391846
-0.3742108 -0.023896711 -0.1458219 4286559153
-0.37414315 -0.022230769 -0.14717893 4287609265
-0.3740752 -0.020558102 -0.14854123 4286295976
-0.37246791 -0.018122124 -0.14749263 4284720545
-0.37087283 -0.015704559 -0.14645213 4283932315
-0.36928988 -0.013305211 -0.14541966 4283407521
-0.36722469 -0.010690155 -0.14361089 4283145375
-0.36469716 -0.0078778667 -0.14104928 4282817188
-0.36078593 -0.0044531645 -0.13625431 4282620580
-0.3542566 0.0001177312 -0.12722245 4282816673
-0.35237348 0.0025333285 -0.12560104 4283012766
-0.3505106 0.0049231509 -0.12399718 4283670699
-0.34909937 0.0070999125 -0.1231105 4283539118
-0.34812739 0.0090775779 -0.12292855 4284398270
-0.34758705 0.010867843 -0.12344652 4283928731
-0.34747544 0.012480336 -0.1246672 4287650410
-0.34779426 0.013922776 -0.12660101 4289877096
-0.34854999 0.015201187 -0.12926617 4290530909
-0.34887549 0.016667122 -0.13123439 4290660946
-0.35052988 0.017628292 -0.13542216 4290726482
-0.3517637 0.018779837 -0.138935 4290726483
-0.35120586 0.020628154 -0.13946976 4290858068
-0.35154745 0.02214515 -0.14151619 4290990422
-0.35234615 0.023509208 -0.14434455 4291121240
-0.35269508 0.025051709 -0.14642847 4291251548
-0.35258719 0.026765969 -0.14774786 4291580770
-0.35479623 0.027696051 -0.15302296 4291844193
-0.35516018 0.029281707 -0.15517578 4291383384
-0.35695347 0.030412594 -0.15979502 4290924630
-0.35781226 0.03187627 -0.16283348 4288563277
-0.35819471 0.033509687 -0.16506629 4284495933
-0.35809299 0.035305347 -0.16647103 4283121724
-0.35896826 0.03681571 -0.16958448 4284503628
-0.3733398 -0.039392371 -0.13506544 4285174675
-0.37226847 -0.037220359 -0.13484903 4283666838
-0.37169906 -0.035334259 -0.13539483 4285438622
-0.37162837 -0.033723351 -0.13670595 4283406249
-0.37155735 -0.032106079 -0.1380222 4282619040
-0.37148595 -0.030482357 -0.13934347 4282684319
-0.37191737 -0.029120998 -0.14145 4283012768
-0.372352 -0.027748913 -0.14357279 4283407010
-0.37278989 -0.026365984 -0.14571191 4284129447
-0.37374455 -0.025237046 -0.1486723 4286230192
-0.37367561 -0.023567153 -0.15004027 4288399291
-0.37309107 -0.021630982 -0.15060057 4287810752
-0.3725065 -0.019694541 -0.15116093 4285182903
-0.37090188 -0.017256789 -0.1501004 4283605677
-0.3698135 -0.015081907 -0.14985187 4283145897
-0.36723223 -0.012198536 -0.14720824 4283014567
-0.3646901 -0.0093586845 -0.14460489 4282883238
-0.36123148 -0.0061164321 -0.14050174 4282751910
-0.3541922 -0.0012648832 -0.13057251 4283144867
-0.35185522 0.0013727096 -0.12820351 4284258466
-0.34998828 0.003777548 -0.12657993 4283738038
-0.34814134 0.0061567412 -0.12497389 4283473841
-0.3467409 0.0083255563 -0.12408552 4284593595
-0.34577465 0.010297886 -0.12390232 4283865253
-0.34565985 0.011906572 -0.1251218 4286933636
-0.34597144 0.013344485 -0.12705387 4289679203
-0.34671578 0.014617549 -0.12971683 4290398297
-0.34703389 0.016078835 -0.13168323 4290595156
-0.34866822 0.017032979 -0.1358676 4290726484
-0.34988594 0.018178141 -0.13937739 4290792277
-0.34977463 0.019853452 -0.14066412 4290858581
-0.3501108 0.021367677 -0.14271508 4290924630
-0.35090134 0.022727525 -0.1455503 4290989655
-0.35124469 0.024267185 -0.14763886 4290989149
-0.35159054 0.025818715 -0.14974318 4291518315
-0.35379225 0.026739892 -0.15505116 4291847016
-0.35415289 0.028325012 -0.15721592 4291251798
-0.35546347 0.029607488 -0.16103849 4289482065
-0.35631344 0.031066617 -0.16408432 4285744451
-0.3566899 0.032697007 -0.16632211 4283120693
-0.35706919 0.0343404 -0.16857739 4283582528
-0.35745138 0.035996925 -0.17085041 4285686613
-0.37244564 -0.042080428 -0.1357407 4286553488
-0.37137592 -0.039903488 -0.13552305 4283928724
-0.37031013 -0.037734501 -0.1353063 4283470229
-0.36974165 -0.035851836 -0.1358512 4284061331
-0.36917308 -0.033968903 -0.1363962 4283142037
-0.36959246 -0.032631494 -0.13847557 4282748567
-0.36951733 -0.031011753 -0.13979538 4282749596
-0.36994025 -0.029654874 -0.14189973 4282881699
-0.37036631 -0.028287344 -0.1440203 4283276197
-0.37079561 -0.026909031 -0.14615723 4283801513
-0.37224728 -0.026051836 -0.14992163 4285508786
-0.37268868 -0.024648212 -0.15210654 4288401092
-0.37261716 -0.022970263 -0.15348671 4289125837
-0.37254527 -0.02128548 -0.15487237 4286628545
-0.371443 -0.01908176 -0.15461218 4284064945
-0.36983606 -0.016636537 -0.1535344 4283146413
-0.36723956 -0.013724493 -0.15084735 4282949291
-0.36517391 -0.011091507 -0.14899744 4282818218
-0.36120442 -0.0075789052 -0.14403448 4282752170
-0.35367483 -0.0024524624 -0.13322195 4283407271
-0.35089007 0.00040678104 -0.1300998 4286292645
-0.34858933 0.0030183862 -0.12774728 4284130224
-0.34674978 0.0054017748 -0.1261351 4283276975
-0.3453542 0.0075734057 -0.1252427 4283934387
-0.34439024 0.009547174 -0.12505758 4283669162
-0.34385046 0.011334723 -0.12557496 4286085266
-0.34415489 0.012768121 -0.12750533 4289155170
-0.34446138 0.014212087 -0.12944971 4290267479
-0.34519863 0.015492526 -0.13213067 4290661206
-0.34681311 0.016439712 -0.13631161 4290661462
-0.34801483 0.017578483 -0.13981836 4290661206
-0.34790012 0.019249715 -0.14110367 4290793047
-0.34867388 0.020590069 -0.14391422 4290924374
-0.34945619 0.021945657 -0.14675626 4290858838
-0.35024723 0.023316761 -0.14963031 4290793818
-0.35058984 0.024867728 -0.1517462 4291059302
-0.35278416 0.025779925 -0.15708725 4291453027
-0.35314149 0.027364554 -0.15926409 4290269008
-0.35444662 0.028642183 -0.16310988 4287186759
-0.3552922 0.03009866 -0.16617374 4283644985
-0.35566527 0.031728614 -0.16842416 4282663226
-0.3555581 0.033524521 -0.16983847 4284110152
-0.37048331 -0.042586721 -0.13619711 4284978576
-0.36941916 -0.040412832 -0.13597915 4284126093
-0.36835888 -0.038246837 -0.13576207 4285109633
-0.36779132 -0.036367595 -0.13630606 4284782211
-0.36771324 -0.03476451 -0.13761428 4283600776
-0.36714444 -0.0328812 -0.1381595 4283075477
-0.36706477 -0.031267922 -0.13947383 4282816159
-0.36698475 -0.029648269 -0.1407932 4282816421
-0.36739698 -0.0282884 -0.14289762 4282948262
-0.36781231 -0.026917867 -0.14501816 4283342250
-0.36923251 -0.026065562 -0.14875221 4284392879
-0.36965957 -0.024670009 -0.15092011 4287086267
-0.37008983 -0.023263371 -0.15310487 4288269765
-0.37001315 -0.021585576 -0.15448453 4286364607
-0.369427 -0.019644856 -0.15504634 4283999665
-0.3683348 -0.017452469 -0.15478709 4283080878
-0.36624679 -0.014777823 -0.15290023 4282949549
-0.36369243 -0.011896268 -0.15023364 4282752940
-0.35974234 -0.0083729336 -0.14525451 4282686891
-0.35225281 -0.0032245205 -0.13440855 4283276455
-0.34948084 -0.0003581538 -0.13127573 4286555557
-0.34719014 0.0022590945 -0.12891485 4284259495
-0.34493223 0.0048390781 -0.12658787 4283015087
-0.34354541 0.0070089381 -0.12569559 4283408305
-0.34258622 0.0089803124 -0.12551008 4283275947
-0.34204727 0.01076478 -0.12602668 4285172121
-0.34234458 0.01219368 -0.12795541 4288631654
-0.34264389 0.013633098 -0.12989801 4290267733
-0.34336981 0.014908212 -0.13257669 4290595924
-0.34496456 0.015848435 -0.13675421 4290530902
-0.34615031 0.016980916 -0.14025791 4290596437
-0.34647101 0.018476153 -0.14229625 4290661973
-0.34723669 0.019812293 -0.14511357 4290333779
-0.34801084 0.021163687 -0.14796244 4288563023
-0.3487936 0.022530511 -0.15084341 4286725706
-0.34913057 0.024078634 -0.152964 4286331209
-0.35130808 0.024981935 -0.1583191 4286134598
-0.3516596 0.026563633 -0.16050076 4285413695
-0.3529532 0.027835226 -0.1643562 4283971896
-0.35378993 0.029287135 -0.16742744 4282859061
-0.354157 0.030914024 -0.16968286 4283385921
-0.35404676 0.03270847 -0.17109975 4285358163
-0.37008658 -0.045567919 -0.13763818 4286554516
-0.36852816 -0.043091234 -0.13665199 4285371279
-0.36746949 -0.040920373 -0.13643369 4287535730
-0.36641473 -0.038757388 -0.13621633 4289504592
-0.36584809 -0.036881585 -0.13675946 4288651868
-0.36528134 -0.035005506 -0.13730268 4284912764
-0.3647145 -0.033129148 -0.13784598 4282616477
-0.36414757 -0.031252529 -0.13838936 4282685857
-0.36358061 -0.029375626 -0.13893282 4282685861
-0.36397675 -0.028024873 -0.14101446 4282816936
-0.36437577 -0.026663624 -0.14311193 4282948523
-0.36575878 -0.025815776 -0.14680311 4283473579
-0.36616907 -0.024429841 -0.14894706 4284851887
-0.36708114 -0.023293169 -0.15191531 4285180853
-0.36750031 -0.021883503 -0.1540999 4284262068
-0.3669163 -0.019950161 -0.15465969 4283277486
-0.36533576 -0.017515503 -0.15358824 4282883500
-0.36376727 -0.015099246 -0.15252507 4282883500
-0.36124134 -0.012226099 -0.14987165 4282686890
-0.3578082 -0.0089389002 -0.14569396 4282554789
-0.34994185 -0.00357259 -0.13411924 4283078305
-0.34720069 -0.00071334239 -0.13100056 4284979617
-0.34493446 0.0018971546 -0.12865025 4283801251
-0.34312087 0.0042782486 -0.12703927 4282949809
-0.34216067 0.0062578646 -0.12685111 4283080882
-0.34078845 0.0084153293 -0.12596126 4283079854
-0.34025031 0.010196726 -0.12647706 4284519583
-0.34054047 0.011621146 -0.12840407 4288305262
-0.34125108 0.012878403 -0.1310603 4290202711
-0.34154731 0.014325839 -0.13302135 4290530901
-0.34312239 0.015259185 -0.13719544 4290531414
-0.34429234 0.01638536 -0.14069608 4290531668
-0.34460551 0.017875796 -0.14273244 4289613136
-0.34535927 0.019206261 -0.14554708 4287447366
-0.34656519 0.020381557 -0.14916885 4285020218
-0.34689188 0.021912791 -0.15127134 4283643952
-0.34767103 0.023289382 -0.15418202 4283448116
-0.34937242 0.024350453 -0.15873964 4283449145
-0.35017747 0.025762575 -0.16173765 4283450170
-0.35099176 0.027191222 -0.16477031 4283188538
-0.35181537 0.028636714 -0.16783814 4282991930
-0.35217389 0.030258041 -0.17009093 4284240964
-0.36968833 -0.048560519 -0.13908479 4288654739
-0.36812836 -0.046068024 -0.13809131 4285504919
-0.36658004 -0.043593995 -0.13710536 4286224006
-0.36552688 -0.041426167 -0.13688679 4289699168
-0.36496016 -0.039550517 -0.13743 4291076418
-0.36439332 -0.037674613 -0.13797328 4289896016
-0.36334601 -0.035521112 -0.13775373 4285897330
-0.36230254 -0.033375397 -0.13753505 4282355107
-0.36173761 -0.031505696 -0.13807653 4282422945
-0.36069891 -0.029370962 -0.13785784 4282357415
-0.36060748 -0.027765449 -0.13915972 4282554280
-0.36099067 -0.026413342 -0.14123461 4282619817
-0.36185616 -0.025309842 -0.14410301 4282816164
-0.36224759 -0.023935024 -0.14621651 4283275686
-0.36410674 -0.023322772 -0.15073967 4283276203
-0.36451194 -0.021921221 -0.15290724 4282948523
-0.36393109 -0.01999894 -0.15346396 4282685865
-0.36237094 -0.017577954 -0.15240338 4282620071
-0.36034054 -0.01493293 -0.15055196 4282620070
-0.35785949 -0.012082668 -0.14793369 4282554018
-0.3549518 -0.0090478035 -0.14458051 4282553245
-0.34677672 -0.0034974779 -0.13237327 4283011995
-0.34450942 -0.00086237962 -0.13000892 4283998117
-0.34227449 0.0017352903 -0.12767847 4283277482
-0.34089938 0.0039123185 -0.12678403 4282818738
-0.33994645 0.0058856225 -0.12659717 4282818739
-0.33899677 0.0078521976 -0.12641101 4282949040
-0.33886993 0.0094483988 -0.12762897 4284127653
-0.33874252 0.011050534 -0.12885129 4287979383
-0.33944207 0.01230256 -0.13150536 4290006361
-0.34014907 0.013568402 -0.13418818 4290334296
-0.34171128 0.014494969 -0.13837299 4290140513
-0.34287074 0.015615656 -0.1418824 4289547864
-0.34317851 0.017103346 -0.14392325 4287184712
-0.34436154 0.018256372 -0.14751291 4284235327
-0.34556213 0.019426869 -0.15115622 4282924088
-0.34588552 0.020957531 -0.15327026 4282924341
-0.34666029 0.022331432 -0.15619785 4282925367
