# .PCD v0.7 - Point Cloud Data file format
VERSION 0.7
FIELDS x y z rgba
SIZE 4 4 4 4
TYPE F F F U
COUNT 1 1 1 1
WIDTH 1013
HEIGHT 1
VIEWPOINT 0 0 0 1 0 0 0
POINTS 1013
DATA ascii
-0.3954294 0.053100295 -0.1103747 4287729279
-0.39526102 0.055096697 -0.11096717 4287795069
-0.39565197 0.057080425 -0.11232943 4287729787
-0.39660761 0.059062812 -0.11447373 4287205232
-0.39871189 0.061049923 -0.11821167 4287405410
-0.4002687 0.063069955 -0.12120453 4288131938
-0.40243065 0.06511648 -0.12504694 4288528488
-0.40582556 0.067208961 -0.13061693 4288724845
-0.40807533 0.069330312 -0.13461201 4289376627
-0.4116078 0.07151711 -0.14041166 4290619771
-0.40640172 -0.00095852843 -0.10697 4289753452
-0.40622923 0.0010851417 -0.1075766 4290671684
-0.40665305 0.0030095289 -0.10896754 4292650818
-0.40648016 0.0050578141 -0.10957551 4294228300
-0.40452734 0.0074396334 -0.10783286 4294626140
-0.40376708 0.0095827281 -0.10765879 4293050213
-0.40184519 0.011920275 -0.10594101 4291808160
-0.39823642 0.014516917 -0.10197185 4291089834
-0.39582059 0.016876362 -0.099572405 4290690717
-0.39344129 0.019200385 -0.097209372 4289504388
-0.39218226 0.021330206 -0.096332341 4286743930
-0.3903937 0.023520039 -0.09473975 4285626220
-0.3896924 0.025542926 -0.094598256 4285560421
-0.38899368 0.027558567 -0.094457336 4285299306
-0.38882956 0.029502988 -0.095034488 4288319866
-0.38866541 0.031447675 -0.095611714 4290823571
-0.38850126 0.033392668 -0.096189015 4292655988
-0.38887021 0.03528462 -0.097489759 4294293320
-0.38924047 0.037183922 -0.098795436 4293438539
-0.39069113 0.038997315 -0.10157628 4291538782
-0.39052531 0.04096175 -0.10215936 4289510247
-0.39090145 0.042886958 -0.10348399 4288658531
-0.3907353 0.044855714 -0.10406833 4288658281
-0.39111248 0.046792496 -0.10539922 4288324215
-0.39149103 0.048736949 -0.10673524 4288058237
-0.39187106 0.050689023 -0.10807643 4287795072
-0.39391088 0.052584488 -0.1117152 4287729279
-0.39429912 0.054563235 -0.11307895 4287729789
-0.39468881 0.056549892 -0.11444801 4287664502
-0.39620718 0.058523893 -0.11739015 4287402345
-0.39774323 0.060521211 -0.12036665 4287735394
-0.39987683 0.06253963 -0.12418754 4288331109
-0.40204406 0.064590186 -0.12806876 4288595051
-0.41223451 0.066748045 -0.14321391 4288988795
-0.4152393 0.068932898 -0.14832206 4289314191
-0.41830662 0.071163625 -0.15353665 4289835403
-0.40307668 -0.0011094895 -0.10600817 4289946956
-0.40349171 0.00079916156 -0.10738797 4291992640
-0.40449929 0.0025954365 -0.10955711 4294031954
-0.40373603 0.004755978 -0.10937899 4294897530
-0.40297574 0.006908352 -0.10920162 4294960504
-0.40163538 0.0091594858 -0.10824679 4294427224
-0.40030539 0.011393446 -0.10729945 4292527217
-0.39559153 0.01418699 -0.10180986 4291743130
-0.3937563 0.016450139 -0.10016169 4291547305
-0.39139691 0.018773166 -0.097798832 4291088557
-0.39014781 0.020900726 -0.096921392 4290430372
-0.38890806 0.023012644 -0.09605062 4290029447
-0.38767755 0.025109075 -0.095186405 4287990900
-0.38698375 0.027121898 -0.095044851 4287006066
-0.38681984 0.029062839 -0.095621057 4290427264
-0.38665587 0.031004053 -0.096197344 4292853608
-0.38649189 0.032945555 -0.096773721 4294294089
-0.38632789 0.034887347 -0.09735021 4294293322
-0.3866919 0.03677896 -0.098650903 4292575310
-0.38652757 0.038724951 -0.099228598 4291258202
-0.38795739 0.040540617 -0.10200168 4289759067
-0.38725895 0.04253817 -0.10184723 4288917860
-0.38762668 0.044455912 -0.10316405 4288657005
-0.38799578 0.046381205 -0.10448587 4288191357
-0.38890442 0.048284654 -0.10656001 4287992448
-0.3903639 0.050176892 -0.10940684 4287861119
-0.3923921 0.05206855 -0.11305591 4287664511
-0.39333323 0.054027628 -0.11519906 4287598715
-0.3942816 0.056002051 -0.11735878 4287336817
-0.39580336 0.057980694 -0.12032941 4287536996
-0.39734289 0.059982754 -0.12333488 4288197986
-0.39948162 0.062005032 -0.12719424 4288462695
-0.40585029 0.064062275 -0.1370372 4287871598
-0.41124129 0.066203237 -0.14553539 4287277949
-0.41424185 0.068387151 -0.15067817 4288130179
-0.41730508 0.070616938 -0.15592845 4289116538
-0.42043284 0.072894111 -0.16128959 4290032759
-0.40170002 -0.0036720645 -0.10677066 4290078562
-0.39979008 -0.0012587643 -0.10505781 4291328578
-0.4019402 0.00026737255 -0.10875653 4293045579
-0.40235367 0.002182896 -0.11014464 4294828147
-0.40218121 0.0042234426 -0.11075053 4294966675
-0.40142384 0.0063770018 -0.11057065 4294963077
-0.4006694 0.0085224602 -0.11039154 4294886742
-0.39934045 0.010763386 -0.10943417 4293902159
-0.39575338 0.013378623 -0.10541737 4293181287
-0.39115298 0.016116075 -0.10000853 4291938188
-0.38935998 0.018347457 -0.098386295 4291545749
-0.38812074 0.020472758 -0.097508475 4291611796
-0.38636136 0.022659503 -0.095915504 4291544976
-0.38566992 0.024676731 -0.095772654 4291085450
-0.38498104 0.026686762 -0.095630392 4291606381
-0.38429466 0.028689625 -0.095488749 4293573964
-0.38465351 0.030561974 -0.096781053 4294555966
-0.38448972 0.032500003 -0.097356506 4294882621
-0.3838042 0.034492932 -0.09721192 4293037893
-0.38364065 0.03642793 -0.097786479 4291519570
-0.38347709 0.038363222 -0.098361112 4291057238
-0.38488168 0.04016687 -0.10111395 4290666330
-0.38471717 0.042113557 -0.10169197 4289629025
-0.38507864 0.044023503 -0.10300373 4288917100
-0.38544145 0.04594091 -0.10432047 4288323194
-0.38633692 0.047835696 -0.10638633 4287992191
-0.3888565 0.049664661 -0.11073746 4287861118
-0.39142427 0.051528938 -0.11517201 4287730300
-0.39236334 0.05348986 -0.11732753 4287467896
-0.39330965 0.055466186 -0.11949984 4287402600
-0.39539605 0.057433166 -0.12329177 4287932769
-0.39693916 0.059439998 -0.12632656 4288396646
-0.39908296 0.061466116 -0.1302249 4288528490
-0.40066934 0.063525446 -0.13334329 4288526453
-0.40287298 0.065613218 -0.13735251 4288131207
-0.40450451 0.067727193 -0.14055803 4288197763
-0.4067705 0.069879338 -0.14468296 4288854893
-0.41032997 0.072100639 -0.15067868 4289574512
-0.39899576 -0.003938328 -0.10658644 4290139471
-0.39710876 -0.0015326785 -0.10488147 4291198280
-0.397508 0.00035691526 -0.10624602 4292978005
-0.3984822 0.0021342863 -0.1083899 4294893184
-0.3965981 0.0045055873 -0.10667473 4294966931
-0.39642781 0.006518953 -0.10727267 4294963337
-0.39569166 0.0086394297 -0.10710219 4294954593
-0.39495829 0.010752033 -0.10693245 4294491463
-0.39090717 0.013438697 -0.10223509 4294295109
-0.38803154 0.015874999 -0.099122152 4293968201
-0.38679719 0.018009447 -0.098241642 4293836877
-0.38557205 0.020128211 -0.097367756 4293901646
-0.38435602 0.022231489 -0.096500479 4293836365
-0.383149 0.02431942 -0.095639713 4293967174
-0.38246721 0.026322804 -0.095498376 4294359871
-0.38178793 0.028319072 -0.095357656 4294818106
-0.38214067 0.030183963 -0.096645087 4294948666
-0.38197735 0.032114953 -0.097218558 4293897029
-0.3812989 0.034101341 -0.097074896 4292046414
-0.38113582 0.03602935 -0.097647488 4291057237
-0.38046011 0.038005434 -0.097503453 4291057239
-0.38029733 0.039930414 -0.098075129 4291123033
-0.38167626 0.041733176 -0.10081132 4290407261
-0.38202992 0.043631911 -0.10211425 4289371237
-0.38238493 0.045537978 -0.10342212 4288653169
-0.38378841 0.047389995 -0.1062142 4288190331
-0.38681048 0.049180206 -0.11130641 4287926653
-0.38935366 0.05103644 -0.11573806 4287730043
-0.39138946 0.052949913 -0.11946452 4287205234
-0.39233366 0.05492812 -0.12164939 4287602788
-0.39441648 0.056894884 -0.12546568 4288329314
-0.39653197 0.058892902 -0.129342 4288527975
-0.3986809 0.060922854 -0.13327986 4288462445
-0.40027106 0.062987268 -0.13642907 4288262263
-0.40248021 0.065079279 -0.14047936 4288326524
-0.40411583 0.067198709 -0.14371692 4288658548
-0.40638775 0.069355465 -0.14788452 4288854379
-0.40932569 0.071563743 -0.15303084 4289181292
-0.4116832 0.073797628 -0.15735368 4290162292
-0.39762428 -0.006491283 -0.10734606 4290078310
-0.39631227 -0.0042026592 -0.10640393 4290007634
-0.39501029 -0.0019313986 -0.10546914 4290532945
-0.39427823 0.00020025321 -0.10530226 4291322707
-0.39467028 0.0020863491 -0.10666257 4292578141
-0.39226753 0.0045537194 -0.10421359 4293577341
-0.39044747 0.0068755033 -0.10254864 4294896269
-0.3897337 0.0089631844 -0.10238988 4294958973
-0.38902268 0.011043251 -0.10223182 4294887251
-0.38670307 0.013402464 -0.099858031 4294622787
-0.38547361 0.015546029 -0.098974824 4294491456
-0.38372883 0.017760063 -0.097373784 4294491198
-0.38252181 0.019868078 -0.096508168 4294687293
-0.38183984 0.021883013 -0.096364938 4294687035
-0.38116038 0.023890778 -0.096222326 4294753083
-0.38048342 0.025891393 -0.096080318 4294884408
-0.37980887 0.027884914 -0.095938914 4294949176
-0.37964606 0.029808622 -0.096510336 4294882626
-0.37948325 0.03173263 -0.097081833 4292705866
-0.37881178 0.033712566 -0.096939117 4291385684
-0.37864918 0.035633579 -0.097509742 4291121749
-0.37798041 0.037603293 -0.097366661 4291188310
-0.37781808 0.039521325 -0.097936392 4290206302
-0.37866873 0.041356917 -0.099940613 4290403422
-0.37952569 0.04320636 -0.10195979 4289822816
-0.37987456 0.045104735 -0.10326268 4289112427
-0.38125864 0.046947524 -0.10604358 4288456056
-0.38424057 0.048726112 -0.11111481 4287993212
-0.38783404 0.050520252 -0.11707954 4287598711
-0.38985798 0.052429873 -0.12081645 4287468137
-0.39079615 0.054406218 -0.1230067 4287933027
-0.39343271 0.056354426 -0.12764831 4288396390
-0.3955445 0.058352239 -0.13154964 4288396137
-0.39710647 0.060388982 -0.13466991 4288915564
-0.39927697 0.062447555 -0.13868195 4289175149
-0.40088335 0.064538226 -0.14188927 4288326508
-0.40250915 0.066654533 -0.14513555 4287606376
-0.40476787 0.068807013 -0.14931487 4287605096
-0.40644082 0.070980534 -0.15265355 4288524136
-0.40813446 0.073181279 -0.15603359 4289179499
-0.40984908 0.075409755 -0.15945582 4289110640
-0.39494592 -0.006745941 -0.10716072 4290204503
-0.39364916 -0.0044650151 -0.10622305 4290137683
-0.39236233 -0.0022013346 -0.10529269 4290334546
-0.39163804 -7.7212178e-05 -0.10512697 4290400085
-0.3909165 0.0020390574 -0.10496192 4290664787
-0.38801879 0.0046008346 -0.10179938 4291387220
-0.38623986 0.0069005913 -0.10016395 4292245590
-0.3855406 0.00896871 -0.10001132 4292976217
-0.38590708 0.010829953 -0.10133135 4294096982
-0.38362372 0.013177648 -0.098977812 4294492234
-0.38293454 0.015219432 -0.098828793 4294426436
-0.38172811 0.017340707 -0.097956203 4294556992
-0.38053066 0.019446502 -0.097090177 4294687034
-0.37934202 0.021537025 -0.096230626 4294818105
-0.37866953 0.023538159 -0.096088924 4294883128
-0.37799951 0.025532179 -0.095947862 4294948152
-0.37783691 0.027452225 -0.096518286 4294948412
-0.37767428 0.029372562 -0.097088799 4293499207
-0.37751162 0.031293154 -0.097659409 4291716178
-0.37684485 0.0332704 -0.09751603 4291187284
-0.37668246 0.035188019 -0.098085739 4291056215
-0.37652004 0.037105933 -0.098655537 4290209892
-0.37635759 0.03902413 -0.099225424 4288967024
-0.37669802 0.040900402 -0.10051364 4289814372
-0.37703964 0.04278386 -0.10180669 4290274397
-0.37789038 0.044639021 -0.10383302 4289565282
-0.37926072 0.046475921 -0.10661207 4288850543
-0.38221428 0.048245963 -0.11168033 4288256632
-0.38631412 0.050003957 -0.11842123 4287401840
-0.38832626 0.05190976 -0.12216865 4287603302
-0.38981289 0.053864889 -0.12516777 4288198758
-0.39187977 0.055827502 -0.12901929 4288397419
-0.39397919 0.057821307 -0.13293158 4288791161
-0.39553171 0.059855036 -0.13606022 4289113991
-0.3971028 0.061913397 -0.13922638 4288189812
-0.3981016 0.063996568 -0.14156537 4286285654
-0.39970392 0.066101253 -0.14479677 4285166413
-0.40132567 0.068231806 -0.14806753 4285560913
-0.40296727 0.070388719 -0.15137836 4286811736
-0.40462899 0.072572447 -0.15472998 4287602276
-0.40631124 0.074783511 -0.15812317 4286351207
-0.39284724 -0.0071357912 -0.10774525 4287715160
-0.39156094 -0.0048576305 -0.10680734 4288824400
-0.38973439 -0.0024693119 -0.10511788 4290007123
-0.38847214 -0.00023008943 -0.1041991 4290268756
-0.38721949 0.0019923819 -0.10328738 4290268753
-0.38490897 0.0044234926 -0.10090114 4290465873
-0.38263303 0.0068184738 -0.098550744 4290662736
-0.38142547 0.0089740381 -0.097677357 4290992979
-0.38074288 0.011015624 -0.097531304 4291586639
-0.38109612 0.012860288 -0.098832153 4292120393
-0.3804141 0.014895204 -0.098684102 4293306439
-0.37973458 0.016922843 -0.0985367 4294228807
-0.37854657 0.019026419 -0.097670272 4294490428
-0.37787426 0.021035742 -0.097525716 4294621241
-0.37720436 0.023037942 -0.097381756 4294685751
-0.37653691 0.025033018 -0.097238466 4294947897
-0.3758719 0.027021062 -0.09709575 4294224451
-0.37570944 0.028938005 -0.097665362 4292439628
-0.37554696 0.030855209 -0.098235056 4291384659
-0.37538448 0.032772701 -0.098804839 4291252310
-0.37522194 0.034690458 -0.099374704 4290795871
-0.3750594 0.036608532 -0.099944659 4289297783
-0.37489682 0.038526844 -0.10051467 4288318077
-0.37573645 0.040359035 -0.10252871 4288312686
-0.37557322 0.042285018 -0.10310099 4289945438
-0.37641844 0.044138465 -0.10513227 4290147932
-0.37778041 0.045972731 -0.10791875 4289438311
-0.38071713 0.047737233 -0.11300189 4288456815
-0.38425645 0.049515028 -0.11898077 4287864421
-0.38624868 0.051413525 -0.1227254 4288065379
-0.38827184 0.053341791 -0.12652823 4288462440
-0.39032653 0.055300467 -0.13039054 4287870830
-0.39184526 0.057303187 -0.13347971 4287080062
-0.39338192 0.05932999 -0.13660556 4286813309
-0.39435795 0.061386205 -0.13891569 4285627227
-0.39476076 0.063459955 -0.14038648 4283849540
-0.39574805 0.065545566 -0.14272572 4283322176
-0.39792481 0.067663431 -0.14683552 4284241471
-0.39893684 0.069791958 -0.14922933 4285229384
-0.40116608 0.071970947 -0.15344253 4285691216
-0.40281659 0.074164875 -0.15680709 4284901974
-0.39075643 -0.0075242543 -0.10832784 4285943120
-0.38948047 -0.0052488227 -0.10738959 4285284419
-0.38712618 -0.0027353135 -0.10494464 4286140754
-0.38587853 -0.00050347793 -0.10403015 4288826454
-0.38410819 0.0018292798 -0.10237913 4290073683
-0.38131198 0.0043597245 -0.099282503 4290268756
-0.37856764 0.0068434845 -0.096243419 4290400084
-0.37789401 0.0088775465 -0.096100889 4290399574
-0.3772229 0.010904359 -0.095958963 4290400339
-0.37705958 0.012829778 -0.096531212 4290795599
-0.37639114 0.014846107 -0.096388906 4291519056
-0.37673295 0.016681496 -0.097675957 4292118090
-0.3765696 0.018607801 -0.098248452 4293107267
-0.375902 0.020614317 -0.09810324 4294095685
-0.37523687 0.02261371 -0.097958662 4294489664
-0.37457415 0.024606075 -0.097814694 4294685249
-0.37441158 0.026522858 -0.098384365 4292970566
-0.37424901 0.028439935 -0.098954134 4291648080
-0.37408641 0.030357271 -0.099523976 4291383894
-0.37392381 0.032274909 -0.10009389 4291253083
-0.37376115 0.03419283 -0.10066391 4290016365
-0.37409657 0.03605989 -0.10195491 4288580478
-0.37443322 0.037934132 -0.10325074 4287860608
-0.37477109 0.039815571 -0.10455147 4287792759
-0.37511018 0.041704297 -0.10585711 4288834149
-0.37545049 0.043600298 -0.10716767 4290208347
-0.37680945 0.045435086 -0.10997086 4289955679
-0.37974063 0.047196999 -0.11508703 4288916071
-0.38273886 0.048999537 -0.1203204 4288394341
-0.38471931 0.050894212 -0.1240755 4288330341
-0.38673049 0.0528186 -0.12788893 4288593000
-0.38877302 0.054773327 -0.13176203 4288394097
-0.39028245 0.056773096 -0.13485943 4287079042
-0.3918097 0.05879692 -0.13799366 4286088559
-0.39277938 0.060851179 -0.14030944 4285292356
-0.39375672 0.062922083 -0.14264375 4283320123
-0.39474183 0.065009907 -0.14499685 4282731068
-0.39691472 0.067127869 -0.1491334 4283321403
-0.39792451 0.069258682 -0.15154152 4283649082
-0.39954504 0.071422473 -0.15487397 4283846975
-0.40118542 0.073613212 -0.15824752 4284242762
-0.40222937 0.075806744 -0.16073306 4287331168
-0.39106259 -0.01048896 -0.11140791 4289816930
-0.38867334 -0.0079113198 -0.10890841 4285289294
-0.38740772 -0.0056386008 -0.10796992 4286867038
-0.38507357 -0.003126784 -0.1055253 4289104745
-0.38330433 -0.00077486411 -0.10386272 4289557605
-0.38103169 0.0016678933 -0.10148134 4287062112
-0.37827963 0.0041858405 -0.098410532 4288564309
-0.37658739 0.0064457259 -0.096824661 4290007894
-0.37541524 0.0085790744 -0.095967621 4290137941
-0.37475106 0.010599105 -0.095826618 4290202965
-0.37458822 0.012517597 -0.096396916 4290400596
-0.3739267 0.014527227 -0.096255541 4290596436
-0.37376416 0.016442753 -0.096824937 4290795602
-0.37360159 0.018358538 -0.097394422 4291387728
-0.37294298 0.020354636 -0.097251728 4291919435
-0.37278068 0.022267459 -0.097820327 4292908617
-0.37261832 0.0241806 -0.09838903 4293172301
-0.37245595 0.026094003 -0.098957807 4291978576
-0.37229353 0.028007697 -0.099526681 4291449686
-0.37262562 0.02985925 -0.10081311 4291449176
-0.37246287 0.031777017 -0.10138319 4290601059
-0.37279582 0.033639506 -0.10267557 4289037691
-0.37312993 0.035509124 -0.10397281 4288253569
-0.3734653 0.037385952 -0.10527495 4287794817
-0.37380189 0.039270021 -0.10658196 4287794556
-0.37464342 0.041119143 -0.10863392 4287986033
-0.3744787 0.043060008 -0.10921086 4289814370
-0.37583464 0.044895358 -0.11203092 4290407005
-0.37876016 0.046654623 -0.11718027 4289435491
-0.38122103 0.048483949 -0.12166027 4288591463
-0.38318968 0.050374798 -0.12542583 4288395879
-0.38464326 0.052317698 -0.1284385 4288722792
-0.38666543 0.054264851 -0.13230853 4288389232
-0.38871935 0.056242924 -0.13623942 4286415728
-0.39023724 0.058263727 -0.13938197 4284902751
-0.39120051 0.060316015 -0.14170343 4284437061
-0.39159676 0.062387928 -0.14318007 4283122229
-0.39315009 0.06447079 -0.1464023 4282598452
-0.3947221 0.066579096 -0.14966348 4282597938
-0.3957209 0.068703532 -0.15206906 4282794036
-0.39792368 0.070873916 -0.1563057 4283254589
-0.39894781 0.073042646 -0.15876812 4284438602
-0.39998028 0.075229473 -0.16125089 4286740062
-0.38952169 -0.011017871 -0.11276697 4289093728
-0.38769248 -0.0085755913 -0.11103025 4287986283
-0.38588431 -0.0061611612 -0.10931361 4287999900
-0.3840968 -0.0037740439 -0.10761671 4286284176
-0.38180086 -0.0012902186 -0.1051889 4285895819
-0.37850419 0.0013914731 -0.10132571 4287595909
-0.37629244 0.0037913113 -0.098990001 4286607460
-0.37461424 0.0060493429 -0.097404003 4286138700
-0.37345141 0.0081803538 -0.096546568 4287647059
-0.37279189 0.010197542 -0.096404895 4289614163
-0.37262926 0.012112646 -0.096974276 4290203480
-0.37197241 0.01411947 -0.096832238 4290268760
-0.37181005 0.016031614 -0.09740074 4290400854
-0.37115586 0.018028133 -0.097258359 4290465877
-0.37050402 0.020017674 -0.097116597 4290795605
-0.37034217 0.021923665 -0.097683281 4291388246
-0.37018028 0.023829915 -0.098250039 4291583828
-0.37001839 0.025736462 -0.098816872 4291384409
-0.37034497 0.027576946 -0.10009737 4291454567
-0.37116453 0.029361127 -0.10210249 4291254626
-0.37149498 0.031219039 -0.10339627 4289755507
-0.37182662 0.033084046 -0.10469487 4288384641
-0.37215945 0.034956254 -0.10599844 4288057218
-0.37249354 0.036835674 -0.10730687 4287860351
-0.37333012 0.038675625 -0.10936156 4287663742
-0.37366816 0.040573023 -0.11068374 4287726967
-0.37451378 0.042437818 -0.11276277 4288833638
-0.37485588 0.044353507 -0.11409892 4290141278
-0.37725651 0.04614367 -0.11850755 4290017886
-0.37917611 0.047998548 -0.1222133 4289110628
-0.38112518 0.049882215 -0.12597606 4288197993
-0.38310435 0.051795311 -0.12979707 4288716904
-0.38456577 0.053758256 -0.13285309 4288382307
-0.38659906 0.055728614 -0.13678077 4285491798
-0.38866445 0.057730455 -0.14077055 4283321670
-0.38962138 0.059780777 -0.14309767 4282926655
-0.38944516 0.061855771 -0.14371461 4282596914
-0.3909823 0.06393145 -0.1469337 4282465584
-0.39253798 0.06603241 -0.15019172 4282531120
-0.39352584 0.06815052 -0.15259472 4282925364
-0.39511272 0.070299104 -0.15592043 4283582783
-0.39612105 0.072456785 -0.1583714 4284767307
-0.39774013 0.074654482 -0.16176684 4286937696
-0.38853467 -0.011693637 -0.1149129 4288175728
-0.38616008 -0.009101429 -0.11238183 4289703058
-0.3849014 -0.0068194773 -0.11142846 4288909975
-0.38258174 -0.0042935722 -0.1089531 4284971412
-0.38082308 -0.0019302702 -0.10726818 4284055160
-0.37753108 0.00076379726 -0.10337447 4287206519
-0.37532231 0.0031729159 -0.10101929 4288323733
-0.37364626 0.0054387045 -0.099419229 4285223769
-0.37248474 0.0075760465 -0.09855289 4284564292
-0.37133175 0.0096979588 -0.097693048 4285743430
-0.37067717 0.011709085 -0.097549759 4286532691
-0.37002501 0.013713107 -0.097407088 4288303189
-0.36937517 0.015710089 -0.09726502 4289745751
-0.36872768 0.01770008 -0.097123533 4290007386
-0.36856601 0.019602437 -0.097689241 4290269530
-0.36840436 0.021505093 -0.098255023 4290597725
-0.36824265 0.023408001 -0.098820895 4290793562
-0.36856529 0.025240738 -0.10009912 4291254623
-0.36840326 0.027147708 -0.1006662 4291388268
-0.36970317 0.028862935 -0.10339212 4290472299
-0.37003082 0.030720035 -0.10468841 4288841854
-0.3708536 0.032526452 -0.10672195 4288057475
-0.37168247 0.034346566 -0.10877065 4287925890
-0.37201676 0.036231983 -0.11008924 4287794560
-0.37285453 0.038076673 -0.11216214 4287728509
-0.37319285 0.039980188 -0.11349466 4287727225
-0.37403974 0.041849896 -0.11559219 4288243561
-0.37489292 0.043733984 -0.1177056 4290008671
-0.37523821 0.045667026 -0.11906141 4290862685
-0.3776606 0.04748375 -0.12355109 4289954404
-0.37906829 0.049391393 -0.12652439 4288719737
-0.38102764 0.051297173 -0.13034245 4288522370
-0.38301745 0.053232897 -0.13422 4287332458
-0.38448679 0.055216257 -0.13732022 4285160523
-0.38653129 0.057210222 -0.14130655 4283909439
-0.38747776 0.059254594 -0.14363137 4282793271
-0.3878656 0.061320581 -0.14510927 4282465329
-0.38882294 0.063394144 -0.14746329 4282531379
-0.39036235 0.065487824 -0.15071808 4282663479
-0.39076057 0.067592137 -0.1522283 4283254331
-0.39290956 0.069740675 -0.15644081 4283978052
-0.39390677 0.071891874 -0.1588891 4284899409
-0.39550877 0.074081764 -0.16228096 4286674783
-0.39506206 -0.022503315 -0.12435278 4290343274
-0.39030001 -0.019102588 -0.11844462 4290404956
-0.38900295 -0.016742371 -0.11745055 4290670181
-0.38827184 -0.014553111 -0.1172586 4289752684
-0.38643903 -0.012076029 -0.11548581 4287456631
-0.3846274 -0.0096273366 -0.11373366 4289771682
-0.38391453 -0.0074804318 -0.11355174 4288456095
-0.38106635 -0.004813177 -0.11028976 4285110440
-0.37879309 -0.0023211665 -0.10784201 4283864483
-0.37552997 0.00037238296 -0.10394932 4288127896
-0.37434834 0.0025521277 -0.10305636 4290496690
-0.37267447 0.0048257113 -0.10144216 4286680203
-0.37151426 0.0069694016 -0.10056691 4283843652
-0.36987138 0.0091982819 -0.098981433 4283318592
-0.36921933 0.011210457 -0.09883593 4283581764
-0.36856973 0.013215534 -0.098691031 4285023301
-0.36792243 0.015213559 -0.098546773 4286072649
-0.36727747 0.01720459 -0.098403096 4286599256
-0.36663485 0.019188616 -0.09826006 4288106588
-0.36647335 0.021087941 -0.098824956 4289746269
-0.36679205 0.022912947 -0.1001009 4290466911
-0.36711195 0.024744885 -0.1013816 4291253858
-0.36743295 0.026583822 -0.10266708 4291189358
-0.36824158 0.028364655 -0.10468195 4289756024
-0.36905614 0.030158894 -0.10671175 4288384131
-0.36987668 0.031966709 -0.10875671 4287991172
-0.37070334 0.033788264 -0.11081696 4287860354
-0.37153614 0.035623685 -0.11289262 4287728768
-0.37237513 0.037473142 -0.11498396 4287727740
-0.37271371 0.039382812 -0.11632691 4287528052
-0.37305349 0.041299984 -0.11767498 4288568672
-0.37390447 0.043185685 -0.11980042 4290466137
-0.37476188 0.045085952 -0.121942 4291384412
-0.37614483 0.04696887 -0.12488916 4290732901
-0.37754366 0.0488737 -0.12787031 4288773503
-0.37949112 0.050775595 -0.13169891 4287404166
-0.3809284 0.052729111 -0.13476036 4285955171
-0.38238248 0.054705791 -0.13785784 4284567885
-0.3844063 0.056691945 -0.14184076 4284436809
-0.3853423 0.058730386 -0.14416318 4282923829
-0.38516653 0.060797483 -0.14477797 4282399792
-0.38667178 0.06285888 -0.14799094 4282531893
-0.38762614 0.064943165 -0.15036142 4282860860
-0.38801718 0.067038149 -0.15186505 4283584323
-0.39013523 0.069173701 -0.15605782 4284507219
-0.39111701 0.071314022 -0.1584948 4285229918
-0.39328623 0.07351128 -0.16279322 4286411358
-0.39117798 -0.022359455 -0.12245516 4290412656
-0.38818043 -0.019474769 -0.11901597 4290139225
-0.38689408 -0.017117525 -0.11802176 4290203478
-0.38616836 -0.014931699 -0.11782925 4289745755
-0.38489726 -0.012605242 -0.1168456 4288310137
-0.38309449 -0.010153336 -0.11508571 4290100648
-0.38184732 -0.0078670578 -0.11412226 4287869616
-0.3795507 -0.0053328769 -0.11162665 4285113774
-0.37728879 -0.0028367881 -0.10916892 4285111468
-0.37404245 -0.00013730692 -0.10526147 4286686119
-0.37286624 0.0020444798 -0.10436378 4290499771
-0.3716988 0.0042103431 -0.10347284 4289510568
-0.37053993 0.0063604191 -0.10258859 4285286998
-0.36938959 0.0084949229 -0.10171095 4282861384
-0.36824772 0.010614024 -0.10083986 4282665040
-0.36759853 0.012624027 -0.10069119 4282796379
-0.3669517 0.014626938 -0.10054313 4283255387
-0.36630726 0.016622787 -0.10039569 4283845974
-0.36566511 0.01861167 -0.10024888 4285091413
-0.36550316 0.020514583 -0.10081498 4286666073
-0.36534122 0.022417791 -0.10138114 4289549404
-0.36565834 0.024248971 -0.10266431 4291783019
-0.36597657 0.026087133 -0.10395229 4291256698
-0.36726525 0.027799968 -0.10670168 4289562502
-0.36807755 0.029595565 -0.10874287 4288188549
-0.36889592 0.031404793 -0.11079928 4287859842
-0.37021768 0.033170618 -0.11362313 4287728769
-0.37105164 0.035010729 -0.11571725 4287728254
-0.37189186 0.036864985 -0.11782721 4287726456
-0.37223065 0.038780864 -0.11918072 4288047464
-0.37308004 0.040660448 -0.12131593 4289614423
-0.37342295 0.04259498 -0.1226839 4291055446
-0.37479815 0.044463504 -0.12563534 4291515226
-0.37462878 0.046453871 -0.12622744 4291057759
-0.37601879 0.048355881 -0.12921643 4289357931
-0.3779543 0.050253946 -0.1330556 4287004523
-0.37938252 0.052204568 -0.13612512 4284705363
-0.3808274 0.054178316 -0.13923074 4283451463
-0.38228932 0.056175649 -0.14237306 4283452999
-0.38321501 0.058208156 -0.14469314 4282596146
-0.38359261 0.060264189 -0.14616765 4282334258
-0.38452896 0.062325627 -0.14851685 4282465847
-0.38547271 0.06440381 -0.15088485 4283057983
-0.38642398 0.066498905 -0.15327187 4284373585
-0.3879548 0.068620689 -0.15657535 4285232743
-0.38950419 0.070768565 -0.15991902 4286282598
-0.39166012 0.072961524 -0.16422923 4286937185
-0.38606891 -0.019845556 -0.11958533 4290279786
-0.38534328 -0.017650258 -0.11938944 4289941590
-0.38407278 -0.01530887 -0.11839788 4290860892
-0.38281217 -0.012985325 -0.11741412 4289094773
-0.38156125 -0.010679444 -0.11643804 4289835171
-0.38031989 -0.0083909919 -0.11546952 4287734694
-0.37803477 -0.0058526723 -0.11296378 4284772482
-0.37578425 -0.0033525068 -0.11049607 4284908925
-0.37306014 -0.00076814467 -0.10731833 4285043103
-0.37138391 0.0015367372 -0.10567141 4289841591
-0.37022179 0.0037046175 -0.10477579 4291023028
-0.3695617 0.0057491078 -0.10461804 4285758075
-0.36841273 0.0078899469 -0.10373144 4285227630
-0.36727223 0.010015319 -0.10285144 4287860349
-0.36662352 0.012030231 -0.10269892 4288389780
-0.3659772 0.014038043 -0.10254704 4288322450
-0.3653332 0.016038788 -0.10239583 4287726975
-0.36469153 0.018032504 -0.10224525 4285295736
-0.36452919 0.019939041 -0.10281251 4284637294
-0.36389011 0.021922525 -0.10266159 4289159013
-0.36420444 0.023752946 -0.10394729 4291521391
-0.36451989 0.025590347 -0.10523774 4291256950
-0.36580041 0.027300572 -0.10799438 4289432198
-0.36709511 0.029030068 -0.1107817 4288188805
-0.36791122 0.030840695 -0.11284966 4287859839
-0.36922979 0.032606788 -0.11569047 4287793789
-0.37006152 0.034448378 -0.11779643 4287858555
-0.37140468 0.03625213 -0.12069219 4287788143
-0.37174371 0.038174234 -0.12205637 4288960093
-0.3731066 0.040013555 -0.12499862 4290530389
-0.37345141 0.041958045 -0.12638159 4291383640
-0.37483457 0.043833796 -0.12937143 4291515483
-0.37518528 0.045801118 -0.13077357 4291056987
-0.37501445 0.047807209 -0.13137047 4290143323
-0.37694582 0.049704857 -0.13523385 4287523929
-0.37783635 0.051679924 -0.13749012 4284438093
-0.37873375 0.053670663 -0.13976409 4283450693
-0.38018036 0.055661242 -0.14290352 4282729026
-0.38109583 0.057687886 -0.14522135 4282464304
-0.38146836 0.059739005 -0.14669408 4282400054
-0.38239428 0.061794426 -0.14904088 4282729020
-0.38332751 0.063866511 -0.15140638 4283650377
-0.38426822 0.06595543 -0.15379089 4285098339
-0.38578287 0.068069816 -0.15709105 4286021492
-0.38789108 0.070222996 -0.16134353 4287200870
-0.39003372 0.072411656 -0.16566551 4288053092
-0.38324508 -0.018023092 -0.11995628 4290334300
-0.38252762 -0.015839458 -0.11976065 4291057252
-0.38127285 -0.013513715 -0.11877178 4290009445
-0.38002774 -0.011205654 -0.1177906 4288844419
-0.37879217 -0.0089150267 -0.11681702 4288913816
-0.37599784 -0.0062387683 -0.11353062 4285429619
-0.37376684 -0.0037402469 -0.11106348 4283587689
-0.37106663 -0.0011569724 -0.10788648 4284054649
-0.36990127 0.0010289199 -0.1069793 4289510568
-0.36874455 0.0031988309 -0.10607895 4291351997
-0.36808708 0.0052443687 -0.10591892 4289312685
-0.36694345 0.0073872111 -0.10502767 4289509292
-0.36580822 0.0095145646 -0.10414305 4290496686
-0.36564466 0.011434175 -0.1047143 4290366646
-0.36499879 0.013446906 -0.10455859 4290629304
-0.36435533 0.015452547 -0.10440353 4291022010
-0.36371413 0.017451096 -0.10424914 4290102715
-0.36307529 0.019442657 -0.10409541 4288191897
-0.3629128 0.021349596 -0.10466289 4290344571
-0.36322579 0.023182457 -0.10595474 4291193468
-0.3635399 0.025022317 -0.10725139 4290601332
-0.36481723 0.026732692 -0.11002438 4289104260
-0.36562175 0.028527938 -0.11208197 4288057989
-0.36692256 0.030274414 -0.11490795 4287794303
-0.36823794 0.032040752 -0.11776575 4287924347
-0.36956817 0.033827368 -0.12065595 4287724916
-0.37091348 0.035634562 -0.12357908 4288373089
-0.37125278 0.03756294 -0.1249541 4290006357
-0.37261796 0.03940589 -0.12792431 4291186005
-0.37296298 0.041356828 -0.12931831 4291514714
-0.37382796 0.043276064 -0.1315257 4291319137
-0.3746995 0.045210358 -0.13375017 4290795104
-0.37557778 0.047159933 -0.1359919 4289812314
-0.37593317 0.049153537 -0.13742083 4286993750
-0.37682134 0.051130451 -0.13969012 4284501325
-0.37718117 0.053144019 -0.14113481 4284042312
-0.37861851 0.055131644 -0.14428248 4282729027
-0.37898466 0.057169542 -0.14574766 4282399028
-0.37935221 0.059215765 -0.14721873 4282597179
-0.38026777 0.061265212 -0.14956309 4283320641
-0.3811906 0.063331224 -0.15192617 4284439892
-0.38212079 0.065414004 -0.15430817 4285560175
-0.38418254 0.067528382 -0.15850419 4286218615
-0.38627771 0.069677331 -0.16276826 4287071092
-0.38296065 -0.020913647 -0.1223265 4290279795
-0.38169676 -0.018554959 -0.1213218 4290006359
-0.38098216 -0.016370118 -0.12112368 4289155166
-0.37973323 -0.014042207 -0.12012967 4288630618
-0.37849396 -0.011731924 -0.1191434 4288306017
-0.37673798 -0.009298468 -0.11738096 4287991682
-0.37448424 -0.0067577437 -0.1148657 4287865749
-0.37175676 -0.0041266503 -0.11162897 4286545794
-0.36957827 -0.0016669256 -0.10919936 4283984761
-0.36841837 0.00052098488 -0.10828741 4289311906
-0.36726707 0.0026929209 -0.10738234 4291154881
-0.36612424 0.0048490539 -0.10648409 4289580736
-0.3654739 0.0068844133 -0.10632412 4287736240
-0.36434397 0.0090137552 -0.10543488 4288192915
-0.36370039 0.011030809 -0.10527792 4288586386
-0.36353698 0.012947286 -0.10584836 4288519574
-0.36289605 0.014953978 -0.10569107 4289044648
-0.36225742 0.016953602 -0.10553449 4289973189
-0.36162111 0.018946189 -0.10537852 4290630596
-0.36145851 0.020853277 -0.10594618 4290812571
-0.36176872 0.022685347 -0.1072405 4290868874
-0.36208004 0.024524426 -0.10853966 4290601333
-0.36334914 0.026232185 -0.11131993 4289234050
-0.36463237 0.027959242 -0.11413126 4287991940
-0.36592993 0.029705906 -0.11697412 4287662720
-0.3672421 0.031472523 -0.1198491 4287791993
-0.36856908 0.033259433 -0.12275671 4288047721
-0.36991116 0.035066973 -0.12569748 4289417559
-0.37075779 0.036946885 -0.12787411 4290923602
-0.37161091 0.038841441 -0.13006751 4291514454
-0.37195459 0.040795181 -0.13146846 4291580505
-0.37333682 0.042675328 -0.13450527 4291187294
-0.3736864 0.044652108 -0.13592575 4290663262
-0.37456232 0.04660346 -0.13818048 4289023834
-0.37544504 0.048570283 -0.14045279 4285747041
-0.37527159 0.050604604 -0.1410583 4284044124
-0.37562826 0.052617308 -0.14250579 4283779908
-0.37652031 0.054620124 -0.14480866 4282531389
-0.37688148 0.056653157 -0.14627218 4282400316
-0.37724403 0.058694489 -0.14774156 4282729283
-0.37814933 0.060737994 -0.15008348 4283848271
-0.37906185 0.062797971 -0.15244414 4285556061
-0.38108674 0.06487865 -0.15660019 4285888110
-0.38314423 0.066993155 -0.1608233 4286283382
-0.3852351 0.069142252 -0.16511503 4286547069
-0.38086256 -0.021281179 -0.12288904 4289616731
-0.38014814 -0.019086927 -0.12268756 4288236378
-0.3794364 -0.016900908 -0.12248694 4286731360
-0.37819335 -0.014570769 -0.12148783 4286340451
-0.37643227 -0.012111649 -0.1197051 4286535528
-0.37469143 -0.0096804947 -0.11794296 4286865512
-0.37245739 -0.0071415938 -0.11542837 4288184186
-0.37025708 -0.0046406877 -0.11295184 4288256663
-0.36808968 -0.0021770061 -0.11051247 4286876052
-0.36693519 1.2976774e-05 -0.10959578 4289047202
-0.36578926 0.0021869377 -0.108686 4290695357
-0.36465183 0.0043450864 -0.10778304 4290171322
-0.36352274 0.0064875833 -0.1068868 4286163116
-0.36287943 0.0085128425 -0.10672696 4284250512
-0.3627156 0.010432721 -0.10729852 4285628282
-0.36207491 0.012447569 -0.10713834 4285237902
-0.36191133 0.01436447 -0.10770902 4285569716
-0.36127323 0.016368989 -0.10754856 4288924619
-0.36063746 0.018366426 -0.10738878 4291420883
-0.36047441 0.02027715 -0.1079576 4290752950
-0.3612569 0.022034926 -0.10999249 4290671500
-0.36109322 0.023953227 -0.11056357 4290927217
-0.36235908 0.025661111 -0.11336036 4289429374
-0.36363906 0.027388334 -0.11618843 4288056450
-0.36444488 0.029199999 -0.11828473 4287661693
-0.36624223 0.03090206 -0.1219405 4287722865
-0.36756593 0.032689217 -0.12486561 4288763997
-0.36890468 0.034497112 -0.12782416 4290398803
-0.36974898 0.036378577 -0.13001324 4291382613
-0.37111312 0.038225636 -0.13303001 4291646039
-0.37145701 0.04018582 -0.13444215 4291515224
-0.37232092 0.042111933 -0.13668242 4291055447
-0.37319145 0.044053283 -0.13894013 4290530388
-0.37354264 0.0460447 -0.14037773 4288301396
-0.374423 0.048013322 -0.14266324 4284697179
-0.37424907 0.050051749 -0.14327009 4283452759
-0.37460428 0.052067474 -0.14472486 4283253312
-0.37496093 0.054091383 -0.14618541 4282465854
-0.37531888 0.056123525 -0.14765179 4282598724
-0.37567827 0.058163971 -0.14912403 4282927692
-0.37657726 0.060205527 -0.15147156 4284179295
-0.3774834 0.062263541 -0.15383787 4286083178
-0.3800483 0.064341061 -0.15890169 4286545004
-0.38210145 0.06645561 -0.16315202 4286478450
-0.38418791 0.068604901 -0.16747154 4287200374
-0.380568 -0.024190512 -0.12527555 4289362292
-0.37931076 -0.021814432 -0.12425756 4287454819
-0.3785992 -0.019618977 -0.12405361 4285757048
-0.37735689 -0.017273903 -0.12304647 4284713360
-0.37612411 -0.014946708 -0.12204722 4284715929
-0.37490088 -0.012637114 -0.1210558 4285698460
-0.37316868 -0.010202798 -0.11928605 4286015602
-0.37094611 -0.0076597794 -0.11676139 4286408295
-0.36825684 -0.0050248606 -0.11351317 4287458424
-0.36610836 -0.0025627469 -0.11107434 4287923076
-0.36496326 -0.00037527093 -0.11015742 4288318618
-0.36382669 0.0017962394 -0.10924737 4290232748
-0.36269844 0.0039519803 -0.10834416 4289646266
-0.36157852 0.0060921111 -0.10744767 4285309870
-0.36093983 0.0081145167 -0.10728723 4282934404
-0.36077619 0.010031007 -0.10785786 4284246129
-0.36061254 0.011947752 -0.10842859 4283724157
-0.36044887 0.013864796 -0.10899939 4283666349
-0.3598133 0.015870363 -0.10883672 4288924616
-0.3596499 0.017784441 -0.10940664 4291682000
-0.35948643 0.019698806 -0.10997666 4290821053
-0.3602666 0.021457823 -0.11202288 4290800769
-0.3605766 0.023305127 -0.11333834 4291056746
-0.36136508 0.025087828 -0.11540855 4289558646
-0.36264175 0.02681517 -0.11825348 4288120700
-0.36393276 0.028562253 -0.12113045 4287593844
-0.36523831 0.030329345 -0.12404004 4288175969
-0.36705855 0.032056555 -0.12777443 4289743700
-0.36839941 0.033867836 -0.13076106 4290988627
-0.3692449 0.035754245 -0.13296995 4291448919
-0.3700968 0.037655465 -0.13519587 4291514969
-0.37095538 0.03957165 -0.1374391 4291449432
-0.37182051 0.041503023 -0.13969982 4290858581
-0.37216893 0.043489322 -0.14113896 4290201938
-0.37251869 0.045483693 -0.1425838 4288103756
-0.37286979 0.047486108 -0.14403443 4284367175
-0.37322223 0.049496669 -0.14549074 4282991429
-0.3730478 0.051539529 -0.14609902 4282991423
-0.37340125 0.053562544 -0.14756241 4282531645
-0.37375605 0.0555938 -0.14903164 4282862153
-0.37464562 0.057621066 -0.15137434 4283256653
-0.37554222 0.059664648 -0.15373558 4283980895
-0.37698925 0.061720531 -0.15700302 4285297013
-0.38011557 0.063800916 -0.16302928 4286611056
-0.38218161 0.06592413 -0.16733916 4286215787
-0.37900996 -0.02472608 -0.12664956 4286873466
-0.37775868 -0.022347761 -0.12562636 4284843405
-0.37705001 -0.020151146 -0.12541987 4283865758
-0.37581357 -0.017803865 -0.12440758 4283541682
-0.37458664 -0.01547445 -0.12340324 4283608247
-0.37336922 -0.013162711 -0.12240674 4284195246
-0.37164572 -0.010725224 -0.12062936 4284386452
-0.3694346 -0.0081780646 -0.11809465 4284385675
-0.36675942 -0.0055381241 -0.11483403 4285232770
-0.36462197 -0.0030720388 -0.11238548 4286215796
-0.3629984 -0.00076216395 -0.11071718 4287130747
-0.36187103 0.0014068906 -0.10980692 4288646026
-0.36075202 0.0035602362 -0.10890342 4288523690
-0.35964119 0.0056980052 -0.10800669 4287474604
-0.35947743 0.0076143332 -0.1085774 4287074444
-0.3593137 0.0095309569 -0.10914819 4287069560
-0.3591499 0.011447873 -0.10971906 4284179572
-0.35898611 0.01336505 -0.11029001 4283333262
-0.35882229 0.015282518 -0.11086106 4288659127
-0.35865843 0.01720025 -0.11143218 4291549642
-0.35849458 0.019118277 -0.11200337 4290757565
-0.35927236 0.020878533 -0.11406098 4290800768
-0.35958099 0.022728279 -0.11538282 4291056496
-0.36036712 0.024512287 -0.11746459 4289621616
-0.36164048 0.026239807 -0.12032646 4287986289
-0.3624416 0.02805426 -0.12244644 4287653991
-0.36373863 0.029818626 -0.12536359 4288958038
-0.36554736 0.031542096 -0.12910819 4290529106
-0.36738372 0.033292219 -0.1329101 4291317333
-0.36822683 0.035180178 -0.13513163 4291449432
-0.36958978 0.037031285 -0.13819583 4291449433
-0.3694174 0.039048847 -0.13879667 4291383128
-0.37079516 0.040933855 -0.14190023 4290923348
-0.37062174 0.042963773 -0.14250474 4290070352
-0.37149048 0.044920385 -0.14479879 4287906634
-0.37131631 0.0469588 -0.14540583 4284236615
-0.3721911 0.048939303 -0.14772037 4282861385
-0.37254345 0.050961051 -0.14918987 4282860094
-0.37184131 0.053033609 -0.14893967 4282465591
-0.37272152 0.0550467 -0.15127745 4282598468
-0.37360862 0.057075933 -0.15363371 4283190858
-0.37504122 0.059112146 -0.15689418 4284177240
-0.37649089 0.06117304 -0.16019373 4285102196
-0.37962368 0.063255377 -0.16628319 4285953648
-0.38169396 0.065382943 -0.17063728 4286346861
-0.37816533 -0.027480928 -0.12823664 4286289042
-0.3774516 -0.025261749 -0.12802382 4284454294
-0.37674069 -0.023050966 -0.12781189 4283474089
-0.3760325 -0.020848541 -0.12760086 4283279283
-0.37479746 -0.018493833 -0.12657827 4283214776
-0.37409717 -0.016312469 -0.12637106 4283212976
-0.37287673 -0.013988395 -0.12535934 4283145894
-0.37063488 -0.011391907 -0.1227641 4283341984
-0.36893341 -0.008973428 -0.12099171 4283801503
-0.36625278 -0.006315846 -0.11769153 4284454550
-0.36362225 -0.0037077405 -0.11445325 4284386961
-0.36200112 -0.0013898767 -0.11277045 4284908941
-0.36039796 0.00090249674 -0.11110643 4285955461
-0.35928422 0.00305784 -0.11019829 4287004291
-0.35817865 0.0051976116 -0.10929697 4288250248
-0.35801479 0.0071140826 -0.10986782 4288714641
-0.35785091 0.0090308413 -0.11043876 4288586651
-0.35768703 0.010947868 -0.11100975 4287339160
-0.35752311 0.012865184 -0.11158086 4286417805
-0.35735917 0.014782787 -0.11215205 4288393387
-0.35719517 0.016700681 -0.11272333 4290498240
-0.35749879 0.018535508 -0.11403779 4290034101
-0.35780346 0.020377401 -0.11535718 4290408075
-0.35858145 0.022149235 -0.11743508 4290796424
-0.3593652 0.023934575 -0.11952852 4289291373
-0.36063519 0.025662187 -0.12240747 4287718239
-0.36191946 0.027409617 -0.12531897 4288172376
-0.36321831 0.029177131 -0.12826362 4289873234
-0.36653501 0.030712955 -0.13447152 4290988371
-0.36788547 0.032534231 -0.13752598 4291317847
-0.36925164 0.03437696 -0.14061603 4291318617
-0.37011328 0.03629531 -0.14289801 4291383897
-0.36993945 0.038328733 -0.14350367 4291579224
-0.37080711 0.040270586 -0.14580607 4291316566
-0.37063256 0.042312536 -0.14641428 4290595667
-0.3709811 0.044316601 -0.14787827 4288169035
-0.37080613 0.046363134 -0.14848787 4284170823
-0.37168223 0.048349224 -0.15082374 4282796108
-0.37203482 0.050377913 -0.15230532 4282860353
-0.37238875 0.052414931 -0.15379278 4282530872
-0.37221229 0.054478828 -0.15440755 4282466366
-0.37310082 0.056514014 -0.15678579 4282993221
-0.37453592 0.05855513 -0.16007821 4284242257
-0.37653616 0.060614564 -0.16432118 4285689954
-0.37968844 0.062702939 -0.17049825 4285624673
-0.3778581 -0.030432308 -0.13065849 4285832855
-0.37714213 -0.028198779 -0.13044015 4284520607
-0.3764289 -0.025973674 -0.13022269 4283605675
-0.37571844 -0.023757048 -0.13000619 4283148469
-0.37554386 -0.021716246 -0.13061419 4283149241
-0.37483647 -0.019511672 -0.13039753 4283016369
-0.37413183 -0.01731539 -0.13018179 4283211429
-0.372904 -0.014973704 -0.1291495 4283079843
-0.37064883 -0.01235443 -0.1265101 4283341981
-0.36842817 -0.009774982 -0.12391122 4285965203
-0.365742 -0.007099539 -0.12057097 4285703299
-0.36359584 -0.0046028327 -0.11806104 4285309341
-0.36196563 -0.0022668098 -0.11634866 4284391842
-0.35987547 0.00016207248 -0.11390296 4284126876
-0.35828692 0.0024420293 -0.11223599 4284844173
-0.35718286 0.004588129 -0.1113256 4286018433
-0.35655189 0.0066137067 -0.11115847 4286674041
-0.35638788 0.0085306084 -0.11172953 4287658627
-0.35622388 0.010447795 -0.11230071 4288908168
-0.35605982 0.012365247 -0.11287194 4288514440
-0.35589576 0.014282989 -0.11344329 4287729303
-0.35573167 0.016201025 -0.1140147 4288521892
-0.35603243 0.018035058 -0.11533171 4288777878
-0.3563343 0.019876162 -0.11665363 4290011001
-0.35710672 0.021646282 -0.11873647 4290729850
-0.35788485 0.023429891 -0.12083489 4289615202
-0.35866877 0.025227075 -0.12294903 4288499283
-0.35993946 0.02696888 -0.12585831 4288955983
-0.3617124 0.028664306 -0.12959269 4290331985
-0.364508 0.030257786 -0.13500395 4291251285
-0.3658441 0.032073058 -0.13805573 4291383640
-0.36822113 0.03379336 -0.14281826 4291318618
-0.36908036 0.035713319 -0.14511344 4291449434
-0.36942512 0.037699826 -0.1465719 4291579482
-0.37029406 0.039646987 -0.1488955 4291514458
-0.37011868 0.041697089 -0.14950626 4291056215
-0.37046742 0.043707952 -0.15098223 4288891730
-0.37029165 0.045762707 -0.15159439 4284892234
-0.371169 0.047754418 -0.15395185 4283189063
-0.37099245 0.049817868 -0.1545666 4283254852
-0.37187609 0.051834125 -0.15694541 4283123009
-0.37276664 0.053866755 -0.15934318 4282991682
-0.3725886 0.055947527 -0.1599631 4283320642
-0.3740263 0.057993568 -0.16328792 4284307274
-0.37603036 0.060056917 -0.16757411 4285161301
-0.37918916 0.062147144 -0.17381634 4286936421
-0.37809291 -0.033600241 -0.13393952 4285832084
-0.37629023 -0.030971648 -0.13204107 4284522402
-0.37557724 -0.028736906 -0.13182014 4284528819
-0.37540185 -0.026688518 -0.13243052 4283279543
-0.37522647 -0.02463988 -0.13304096 4283083966
-0.37505105 -0.0225909 -0.13365152 4283281593
-0.37434173 -0.020375788 -0.13342817 4283671729
-0.37363514 -0.018169064 -0.13320583 4283475371
-0.37293133 -0.01597066 -0.13298443 4283407526
-0.37118313 -0.013478415 -0.13111809 4283735194
-0.36945522 -0.011014793 -0.12927353 4287276676
-0.36723933 -0.0084402673 -0.12664871 4286686845
-0.36406308 -0.0056398758 -0.12249173 4287867268
-0.36192951 -0.0031537116 -0.11996754 4285703568
-0.35982776 -0.00070447312 -0.11748121 4285572511
-0.35775718 0.0017087082 -0.11503187 4284457636
-0.35618311 0.003976332 -0.11336194 4283929756
-0.35555273 0.0060069039 -0.1131909 4284515462
-0.35492459 0.0080303019 -0.11302057 4285557109
-0.35476044 0.0099476278 -0.11359188 4286929766
-0.35459629 0.011865212 -0.11416328 4287325806
-0.35443208 0.013783091 -0.11473475 4287063152
-0.35426787 0.015701264 -0.11530632 4287195507
-0.35502973 0.017449033 -0.11737645 4288044139
-0.35533017 0.019292576 -0.1187048 4290007392
-0.35657039 0.020984428 -0.12156323 4290858077
-0.3568759 0.022848859 -0.1229094 4290465118
-0.358134 0.024573917 -0.12581305 4290006105
-0.35844469 0.026459666 -0.12717749 4289939542
-0.36020619 0.028151354 -0.130922 4290529877
-0.36298445 0.0297391 -0.13634865 4291186518
-0.36481482 0.03148926 -0.14023618 4291449432
-0.36821783 0.033087611 -0.1467295 4291449434
-0.36856151 0.035072707 -0.14819404 4291514459
-0.36942863 0.037013233 -0.15052864 4291514204
-0.36977664 0.039018363 -0.15200952 4291318619
-0.37012598 0.041031726 -0.15349627 4291188313
-0.3699494 0.043094419 -0.15411089 4290139481
-0.36977279 0.045157429 -0.1547256 4287385941
-0.37012279 0.047187801 -0.15622097 4284829001
-0.37047413 0.049226534 -0.15772237 4283912008
-0.37082681 0.051273666 -0.1592298 4284701776
-0.37225094 0.053287193 -0.16254354 4284832852
-0.37369221 0.05532524 -0.16589735 4284569165
-0.37405628 0.057414412 -0.16744272 4284899154
-0.37552014 0.059494652 -0.17085359 4286345310
-0.3756111 -0.035811312 -0.13303572 4285701012
-0.37436295 -0.033371273 -0.13197963 4283996833
-0.3741875 -0.031323332 -0.13259 4285710258
-0.37401202 -0.029275142 -0.13320042 4284398779
-0.37383655 -0.027226603 -0.13381094 4282886844
-0.37419456 -0.025353419 -0.13525906 4283545535
-0.37455407 -0.023472549 -0.13671304 4284001977
-0.37437779 -0.021415005 -0.13732626 4287286469
-0.37366682 -0.019193059 -0.13709503 4285580998
-0.37295869 -0.016979521 -0.13686489 4284130733
-0.37119994 -0.01446658 -0.13496499 4283932830
-0.36998087 -0.012130531 -0.13391253 4285833868
-0.36774358 -0.0095273023 -0.13123161 4287539079
-0.36503798 -0.0068280268 -0.12778968 4287998326
-0.36287653 -0.0043090875 -0.12520134 4286948232
-0.36026254 -0.0017041278 -0.12187469 4287080584
-0.35722324 0.0009698504 -0.11784885 4284523426
-0.35564619 0.0032501156 -0.11615723 4283212456
-0.35454959 0.0053977645 -0.11523106 4283343524
-0.35392204 0.0074261422 -0.11505684 4283731092
-0.35329676 0.0094473632 -0.1148833 4284643972
-0.35313246 0.011365088 -0.11545483 4285429114
-0.35296816 0.013283102 -0.11602645 4286340449
-0.35326362 0.01511178 -0.11734737 4286794064
-0.35356015 0.016947467 -0.11867322 4288169811
-0.35432208 0.018706776 -0.12076378 4290335069
-0.35602975 0.020317502 -0.12441131 4291318885
-0.35586286 0.022265591 -0.1249919 4290925676
-0.35711756 0.023990741 -0.12791288 4290597741
-0.35742676 0.025879083 -0.12928396 4290728298
-0.35869974 0.02763834 -0.13225153 4290991200
-0.36245224 0.029087313 -0.13933629 4291122778
-0.3632791 0.030966651 -0.14159165 4291253338
-0.36717668 0.032496717 -0.14896144 4291514458
-0.36803827 0.034426954 -0.15129912 4291710555
-0.36838347 0.036426861 -0.15278156 4291580251
-0.36925486 0.03838471 -0.15514836 4291188058
-0.36960444 0.040404934 -0.15664743 4291057242
-0.36942703 0.042475935 -0.15726465 4290271323
-0.36924958 0.044547264 -0.15788196 4287914081
-0.36959979 0.046584636 -0.15938967 4285488472
-0.36995131 0.048630424 -0.16090345 4284436036
-0.37030426 0.050684672 -0.16242342 4285358930
-0.37173083 0.05270287 -0.1657698 4286083422
-0.37263128 0.054764122 -0.1682325 4286281311
-0.37408638 0.056828126 -0.17164823 4286545256
-0.37529176 -0.038813647 -0.13549116 4286095253
-0.37403983 -0.036352213 -0.13442121 4283930782
-0.37332958 -0.034102723 -0.13419527 4284915626
-0.37315366 -0.032050617 -0.13480696 4285709246
-0.37351102 -0.030183729 -0.13625996 4283804084
-0.37333471 -0.028126977 -0.13687304 4283082936
-0.37369308 -0.026248015 -0.13833317 4283740857
-0.37405282 -0.024361288 -0.13979919 4284526009
-0.37387574 -0.022295464 -0.14041498 4290243283
-0.37369862 -0.020229327 -0.14103086 4288472537
-0.37298605 -0.018000465 -0.14079167 4285313206
-0.37174538 -0.015622959 -0.13970381 4284064675
