# .PCD v0.7 - Point Cloud Data file format
VERSION 0.7
FIELDS x y z rgba
SIZE 4 4 4 4
TYPE F F F U
COUNT 1 1 1 1
WIDTH 995
HEIGHT 1
VIEWPOINT 0 0 0 1 0 0 0
POINTS 995
DATA ascii
-0.40519151 0.034062263 -0.080867887 4294030934
-0.40655687 0.036685638 -0.081656806 4292653384
-0.40674183 0.038693372 -0.081091098 4290555467
-0.40811843 0.041345246 -0.081883706 4288916821
-0.40890378 0.043688972 -0.081997715 4288262239
-0.40848982 0.045377657 -0.080747522 4288394088
-0.40867555 0.047394313 -0.080179334 4288590193
-0.41188827 0.051120993 -0.08303117 4289442429
-0.39722759 -0.029443406 -0.099477783 4289026646
-0.39798361 -0.027267156 -0.099627212 4289088081
-0.39932042 -0.024887659 -0.10049063 4289349714
-0.40066755 -0.022489568 -0.10136054 4288829026
-0.40026924 -0.020686584 -0.10007842 4289088083
-0.40045363 -0.018683292 -0.099514097 4288176998
-0.40005654 -0.016890442 -0.098237783 4288649350
-0.39966094 -0.015104187 -0.096966244 4289507742
-0.39869136 -0.013540369 -0.094997853 4288396449
-0.39715976 -0.012205351 -0.092351697 4287663506
-0.39508429 -0.01110283 -0.08905416 4288512623
-0.39303982 -0.010016466 -0.085805759 4286152562
-0.39102566 -0.0089459252 -0.082605436 4287010702
-0.38904119 -0.0078908382 -0.079452068 4287663232
-0.38708565 -0.0068508633 -0.076344654 4287188825
-0.38568133 -0.0056063514 -0.07391005 4289025111
-0.38481158 -0.0041538514 -0.072124079 4289877591
-0.38394815 -0.0027115501 -0.070350938 4290006355
-0.3836053 -0.0010537517 -0.069204159 4290007120
-0.38377845 0.00082726876 -0.068674274 4290536777
-0.3839516 0.0027086006 -0.068144299 4292448577
-0.38412482 0.0045901863 -0.067614235 4293438528
-0.38429803 0.0064720623 -0.067084111 4293767483
-0.38498911 0.0085975202 -0.067165129 4293965116
-0.38620451 0.010979431 -0.067860983 4293833795
-0.38742882 0.013378926 -0.068561822 4293637706
-0.38919413 0.016056167 -0.069891647 4293310032
-0.39206138 0.019298913 -0.07250271 4294425175
-0.39609349 0.023159251 -0.076460041 4294098018
-0.39795732 0.025967792 -0.077871524 4294170749
-0.40041462 0.029102344 -0.079964221 4294764694
-0.40290934 0.032284923 -0.082088716 4294952814
-0.40426326 0.034896415 -0.082880892 4293110351
-0.40562761 0.037528224 -0.083679117 4290488656
-0.4058128 0.03954006 -0.083112366 4288720983
-0.40659201 0.041875716 -0.083228625 4288197214
-0.40797335 0.044550624 -0.08403255 4288459368
-0.40815967 0.046575006 -0.083462276 4288653682
-0.40834606 0.048599668 -0.082891919 4288586868
-0.41095611 0.052004497 -0.085083969 4289376635
-0.39571872 -0.028925562 -0.10080852 4288767075
-0.39590153 -0.026938474 -0.10024885 4288890961
-0.39608434 -0.024951115 -0.099689104 4289545805
-0.39683816 -0.022765499 -0.099838816 4289809494
-0.39588091 -0.02117648 -0.097863637 4289092710
-0.39606345 -0.019191988 -0.097304709 4289238665
-0.39567837 -0.017414995 -0.096044764 4289836449
-0.39473107 -0.015854329 -0.094094843 4289248162
-0.39379087 -0.014305139 -0.092159554 4289049242
-0.39230391 -0.012980639 -0.089559138 4285503651
-0.39083362 -0.011670649 -0.086987682 4284714374
-0.38937965 -0.010374909 -0.084444724 4283858293
-0.38740712 -0.0093093989 -0.081277966 4284311651
-0.38599065 -0.0080426177 -0.078798689 4288322434
-0.3851133 -0.0065710279 -0.076982118 4286284922
-0.38424236 -0.0051098038 -0.075178631 4286796627
-0.38389638 -0.0034360345 -0.074015044 4289683548
-0.38303459 -0.0019934922 -0.072231889 4290143584
-0.38269269 -0.00033380889 -0.071079753 4289875797
-0.38286608 0.0015508262 -0.070548937 4290006864
-0.38252512 0.0032017133 -0.069401696 4290733641
-0.38269824 0.0050835069 -0.068871684 4292514369
-0.38287136 0.0069655655 -0.068341613 4293571136
-0.38304451 0.0088479277 -0.067811444 4293833788
-0.38425067 0.011226651 -0.068508446 4293964861
-0.38598895 0.013877549 -0.069830865 4294095934
-0.38774627 0.016557736 -0.071167678 4294161472
-0.39114162 0.020075595 -0.074429728 4294424391
-0.39572737 0.02423566 -0.079077199 4294557786
-0.39703119 0.026772041 -0.079844952 4294830210
-0.39948601 0.029918825 -0.08195661 4294962317
-0.40197834 0.033113968 -0.084100418 4293766500
-0.40333119 0.035733849 -0.084901907 4291591250
-0.40469444 0.038374159 -0.085709423 4289565017
-0.4048799 0.040390093 -0.085141636 4288327775
-0.4062545 0.043059185 -0.085953079 4288263273
-0.40703905 0.045415718 -0.086075455 4288522098
-0.40782669 0.047781713 -0.08619827 4288321909
-0.40801367 0.049814451 -0.08562576 4288520304
-0.41063127 0.053242303 -0.087847807 4289311087
-0.41516855 0.057814036 -0.092259802 4290098556
-0.39402696 -0.030394644 -0.102699 4288574303
-0.39364475 -0.028594475 -0.10142694 4288959316
-0.39326403 -0.026800847 -0.10015962 4289945432
-0.39288476 -0.025013747 -0.09889698 4290465880
-0.39250696 -0.023233091 -0.097639076 4290596187
-0.39213061 -0.021458859 -0.096385814 4288703088
-0.39175573 -0.01969105 -0.095137171 4289442463
-0.39138225 -0.017929574 -0.09389317 4289968293
-0.39045978 -0.0163814 -0.091969654 4289708206
-0.39009091 -0.014635428 -0.090738378 4286288550
-0.38863552 -0.013318719 -0.088165268 4284981926
-0.38719633 -0.012016295 -0.085620597 4284262323
-0.38630471 -0.010514419 -0.083759092 4283142562
-0.38541961 -0.009023306 -0.081911176 4286150000
-0.38454103 -0.0075427955 -0.080076709 4289698940
-0.38419184 -0.0058526895 -0.078895867 4288193431
-0.38384396 -0.0041684685 -0.077719279 4286074193
-0.38297755 -0.0027155038 -0.075913072 4286796373
-0.38263381 -0.0010455475 -0.074748121 4290014055
-0.38177648 0.00038883346 -0.072962299 4290207071
-0.38195008 0.0022770807 -0.072430573 4289941076
-0.38109839 0.0036949117 -0.070659325 4290006864
-0.38127139 0.0055769128 -0.070129357 4290734923
-0.38093391 0.0072183679 -0.068984866 4292646977
-0.38161749 0.0093417475 -0.069069222 4293570623
-0.38230357 0.011473084 -0.06915383 4293898812
-0.38402805 0.014120717 -0.070477374 4294160444
-0.38577136 0.016797561 -0.071815349 4294358336
-0.38913855 0.020311831 -0.075078599 4294489414
-0.3931323 0.024185823 -0.079069659 4294756704
-0.3949793 0.027000574 -0.080495924 4294829192
-0.39741388 0.030143356 -0.082608551 4293506674
-0.39988557 0.03333433 -0.084753267 4291786584
-0.40122774 0.035950255 -0.085555747 4290731863
-0.401995 0.038269952 -0.085676536 4289560413
-0.40335304 0.040920556 -0.086486988 4288653929
-0.40472165 0.043591913 -0.087303683 4288391796
-0.40550312 0.045949701 -0.087428726 4288125047
-0.4062877 0.048316959 -0.087554216 4287664243
-0.40767843 0.051038794 -0.088381097 4287667565
-0.41030356 0.054489933 -0.090633549 4288459628
-0.41422373 0.058728803 -0.094372213 4289246583
-0.39346418 -0.031501133 -0.10603222 4288769117
-0.391956 -0.030060887 -0.10331403 4289089872
-0.3910206 -0.028450971 -0.10133357 4288891985
-0.39064619 -0.026664175 -0.10007127 4288695637
-0.3897211 -0.025075559 -0.098114021 4288630618
-0.38880295 -0.023498608 -0.096171439 4290929508
-0.38843623 -0.021736955 -0.094930358 4288507760
-0.38807097 -0.019981623 -0.093693838 4289508251
-0.38770702 -0.018232541 -0.092461847 4288000408
-0.38734454 -0.016489705 -0.091234379 4286424988
-0.38698339 -0.014753056 -0.090011381 4283665291
-0.38608745 -0.013233049 -0.088123485 4282878100
-0.38519812 -0.011723995 -0.086249433 4285503651
-0.38484436 -0.010011257 -0.085046664 4285372824
-0.38449189 -0.0083045233 -0.083848223 4288650898
-0.38361502 -0.0068237316 -0.082003333 4290364590
-0.38326678 -0.0051316316 -0.080816872 4290364328
-0.38291985 -0.0034454588 -0.079634637 4286403671
-0.3820551 -0.001992261 -0.07781826 4284567885
-0.38119671 -0.00054930995 -0.076014966 4286930008
-0.38085675 0.00111417 -0.074851871 4290602347
-0.38051802 0.0027719354 -0.073692918 4290468960
-0.38018054 0.0044240239 -0.072538093 4289941588
-0.37984428 0.0060704104 -0.071387284 4289942097
-0.3795093 0.007711174 -0.07024055 4290932808
-0.38019022 0.0098356474 -0.070327207 4292713024
-0.38087365 0.011968109 -0.070414126 4293766460
-0.38207394 0.014363086 -0.07112179 4294094650
-0.38380337 0.017036611 -0.072460867 4294357823
-0.38714257 0.02054725 -0.075725287 4294620489
-0.39110276 0.024417344 -0.079717413 4294555225
-0.3929348 0.027228298 -0.081144668 4293302879
-0.39534926 0.03036713 -0.083258264 4291588185
-0.39722988 0.033249866 -0.084724486 4290730837
-0.39798355 0.035546724 -0.084842853 4290599770
-0.39931583 0.038166624 -0.085644111 4289953380
-0.40065834 0.040806901 -0.086451419 4288847218
-0.40201119 0.043467753 -0.087264836 4288256632
-0.40337452 0.046149511 -0.088084489 4287665009
-0.40474844 0.048852317 -0.088910379 4287338342
-0.40613309 0.051576432 -0.089742593 4287801187
-0.40935829 0.055389028 -0.09272223 4288263787
-0.41327485 0.059647273 -0.096493244 4289379193
-0.39233035 -0.032796416 -0.10865919 4288241771
-0.39194894 -0.030981485 -0.10736866 4287583586
-0.39044932 -0.029543951 -0.1046429 4286862179
-0.38896674 -0.028122453 -0.10194798 4286468449
-0.38804781 -0.026528424 -0.099983796 4286205793
-0.38713583 -0.024946077 -0.098034322 4286073185
-0.38623068 -0.023375273 -0.09609931 4287515741
-0.38533229 -0.021815864 -0.094178647 4287715423
-0.38497472 -0.020069959 -0.092950463 4288780937
-0.38461852 -0.018330241 -0.091726758 4288852382
-0.38426363 -0.016596694 -0.090507507 4285438328
-0.38444126 -0.01466219 -0.089962974 4282863449
-0.38408741 -0.012938039 -0.088749081 4284508772
-0.38373488 -0.01121999 -0.087539576 4285296748
-0.38338372 -0.0095079681 -0.086334482 4285639581
-0.38303387 -0.0078019551 -0.085133702 4289638554
-0.3826853 -0.0061019389 -0.083937265 4290694069
-0.38233805 -0.0044078571 -0.08274512 4290824619
-0.38147217 -0.0029459281 -0.080910884 4286469208
-0.38112909 -0.0012662993 -0.07973063 4284174922
-0.38027239 0.00017684112 -0.077917144 4284568655
-0.37993339 0.0018422331 -0.076748565 4287260509
-0.37908569 0.0032668824 -0.074955523 4290473329
-0.37875071 0.0049182833 -0.073798448 4290469218
-0.37841693 0.0065639862 -0.072645426 4289941847
-0.37808442 0.0082040718 -0.071496472 4290139474
-0.37825698 0.010083677 -0.070967399 4290999624
-0.37944347 0.012463192 -0.07167466 4292779072
-0.38063848 0.014860197 -0.07238692 4293897789
-0.38235998 0.017536642 -0.07373295 4294225216
-0.38515365 0.020781916 -0.076369844 4293632840
-0.38908052 0.024648091 -0.080362968 4292444495
-0.39034954 0.027167713 -0.081129931 4291322707
-0.39273539 0.030294502 -0.08323551 4290664276
-0.39459395 0.033166178 -0.084696107 4290599768
-0.39590567 0.035762046 -0.085492387 4290536288
-0.39665678 0.038064163 -0.085612178 4289955692
-0.39855921 0.041014239 -0.087102905 4288912245
-0.40048367 0.043998647 -0.088610731 4287861618
-0.40184104 0.046682633 -0.089435622 4287535207
-0.40320891 0.049387746 -0.090266816 4287866464
-0.40578863 0.052812651 -0.092525341 4288263015
-0.40840903 0.056291785 -0.094819374 4288919665
-0.41232195 0.060569543 -0.09862306 4290427519
-0.39100841 -0.036098443 -0.11185966 4286288506
-0.39062867 -0.034274094 -0.11056076 4285302656
-0.39025038 -0.032456391 -0.10926671 4284844428
-0.38987356 -0.030645344 -0.10797756 4284386705
-0.38838854 -0.02921227 -0.10525355 4284190867
-0.38692033 -0.027795114 -0.1025603 4284191122
-0.38601074 -0.026205096 -0.10059756 4284125845
-0.38456962 -0.02481745 -0.097955436 4284321427
-0.3836773 -0.023252761 -0.09602797 4285036414
-0.38332269 -0.021504266 -0.094796486 4286076512
-0.38244 -0.019959979 -0.092891283 4287263339
-0.3820897 -0.018226674 -0.091672264 4289244833
-0.38226688 -0.0162958 -0.091128856 4288458656
-0.3819176 -0.014571909 -0.089915141 4284446056
-0.38209447 -0.012644038 -0.08937259 4283388249
-0.3817462 -0.010929476 -0.088164248 4283193453
-0.38192284 -0.0090045994 -0.087622516 4284327601
-0.38157555 -0.0072992924 -0.086419441 4289447604
-0.38122958 -0.0055999942 -0.085220672 4290957242
-0.38088492 -0.0039066193 -0.084026225 4290233519
-0.38054153 -0.0022191775 -0.082836077 4285943897
-0.3801994 -0.00053760747 -0.081650175 4283584328
-0.37934443 0.00090571609 -0.079826467 4283913804
-0.37849569 0.0023388793 -0.078015916 4284634702
-0.37765309 0.0037619474 -0.076218344 4286931291
-0.37782642 0.0056510717 -0.075686678 4290012271
-0.37749365 0.0072986707 -0.074528255 4290469220
-0.3771621 0.0089405775 -0.073373869 4290073177
-0.37783986 0.011071513 -0.073466443 4290205523
-0.37801298 0.012958396 -0.072935432 4291197514
-0.37920275 0.015357395 -0.073652282 4292976454
-0.38091633 0.018036732 -0.075005271 4293040454
-0.38422352 0.021558855 -0.078297846 4291917133
-0.38760448 0.025159787 -0.081663772 4291058259
-0.3894133 0.027970077 -0.083099358 4290663254
-0.39124253 0.030812399 -0.084551059 4290467928
-0.39309254 0.033687234 -0.086019166 4290272349
-0.39439845 0.036285292 -0.086820498 4290014050
-0.39571434 0.038903467 -0.087627813 4289564014
-0.39819175 0.042187762 -0.089827485 4288387956
-0.40012142 0.045190681 -0.09135697 4287600232
-0.40148252 0.047889948 -0.092195727 4287930978
-0.4028542 0.050610486 -0.093040906 4288328039
-0.40544119 0.054058652 -0.095330134 4288919410
-0.40806907 0.057561602 -0.097655423 4290230399
-0.39062673 -0.041088533 -0.11713553 4286684038
-0.38911998 -0.039580341 -0.11432796 4285436300
-0.38818601 -0.037919711 -0.11228707 4284583568
-0.38836887 -0.035925698 -0.11172598 4283732369
-0.38855177 -0.033931375 -0.11116483 4283273365
-0.38817808 -0.032117598 -0.1098722 4283208854
-0.38780585 -0.030310439 -0.10858436 4283144601
-0.38633528 -0.028881734 -0.1058621 4283014046
-0.38488135 -0.027468896 -0.10317054 4283276707
-0.38398102 -0.025882864 -0.10120926 4283342760
-0.38255388 -0.024499435 -0.098568656 4283671984
-0.38167062 -0.022938617 -0.096642561 4284330679
-0.38079393 -0.021389069 -0.094730645 4284383379
-0.37992373 -0.019850692 -0.092832752 4286206817
-0.38010049 -0.017923467 -0.092290461 4287727225
-0.37975571 -0.016199794 -0.091077022 4289312167
-0.37993217 -0.01427555 -0.090535596 4287930268
-0.38010865 -0.012351025 -0.089994065 4284239199
-0.37976459 -0.010639947 -0.088786818 4282736499
-0.37994078 -0.0087183919 -0.088246152 4286552234
-0.380117 -0.00679655 -0.087705389 4290170816
-0.37977362 -0.005097962 -0.086504318 4291154623
-0.37943152 -0.0034052986 -0.085307568 4288395444
-0.3790907 -0.0017185296 -0.084115118 4284767084
-0.37875113 -3.7670703e-05 -0.082926914 4283126362
-0.37790135 0.001404047 -0.081098609 4283322706
-0.37705773 0.0028355853 -0.079283506 4283650124
-0.37622023 0.0042570592 -0.077481396 4284109131
-0.3763935 0.0061464184 -0.07694976 4286405208
-0.3760632 0.0077933054 -0.075789124 4289224040
-0.3762362 0.0096798381 -0.075258292 4290009184
-0.3769134 0.011816149 -0.075354442 4290138456
-0.37708676 0.013706633 -0.0748225 4290402132
-0.37827528 0.016112912 -0.075547569 4291259983
-0.37998679 0.018801505 -0.076913424 4291389773
-0.3822394 0.02179184 -0.078938156 4290860881
-0.38559195 0.025388902 -0.082304992 4290597208
-0.38792863 0.028484987 -0.084407732 4290272350
-0.39030054 0.031627979 -0.086542048 4289556840
-0.39214861 0.034513101 -0.088024259 4289686117
-0.39401782 0.037431501 -0.08952336 4289951589
-0.39533719 0.040064272 -0.090344183 4288713839
-0.39724281 0.043043334 -0.091870897 4287797611
-0.39975604 0.046392072 -0.09412472 4287996261
-0.4011209 0.049106732 -0.094977535 4288459114
-0.40369418 0.052543022 -0.097282089 4288722033
-0.40569821 0.055673525 -0.098888613 4289574528
-0.39099729 -0.043950904 -0.12267035 4286617736
-0.38891214 -0.042577483 -0.11905152 4284912529
-0.38685897 -0.041224837 -0.11548804 4283863701
-0.3864876 -0.039394602 -0.11418498 4283274136
-0.3861177 -0.037571032 -0.11288687 4283078043
-0.38630009 -0.035580598 -0.11232693 4283012763
-0.38648254 -0.033589866 -0.11176688 4282882463
-0.38611344 -0.031779986 -0.11047557 4282882978
-0.38574573 -0.029976675 -0.10918912 4283014310
-0.38428953 -0.028552342 -0.10646863 4283016109
-0.38284975 -0.02714381 -0.10377873 4283409842
-0.38142616 -0.025750773 -0.10111893 4283674038
-0.3800185 -0.024373014 -0.098488696 4285182904
-0.3791478 -0.022818234 -0.096570075 4284659896
-0.37776572 -0.021468766 -0.093989059 4283603111
-0.37742573 -0.019742126 -0.092774898 4284838784
-0.37760171 -0.017821766 -0.092234671 4286471783
-0.37777776 -0.01590112 -0.09169434 4287728770
-0.37795377 -0.013980202 -0.091153957 4289444005
-0.37812984 -0.012059002 -0.090613477 4285237903
-0.37830591 -0.010137537 -0.09007293 4285364370
-0.37848204 -0.0082157739 -0.089532293 4289184438
-0.37865818 -0.006293721 -0.088991575 4290827202
-0.37831736 -0.0045958431 -0.087788194 4291352261
-0.37797788 -0.0029038955 -0.086589128 4290824895
-0.37712765 -0.0014468005 -0.084740981 4289702558
-0.37679219 0.00023072999 -0.083553895 4289175438
-0.37645796 0.0019024324 -0.082370996 4288646269
-0.37561953 0.0033323953 -0.080551304 4285886572
-0.37478712 0.0047522914 -0.07874468 4283847520
-0.37496027 0.0066418624 -0.078213103 4283846225
-0.37513348 0.0085316906 -0.077681445 4285747795
-0.3753067 0.01042181 -0.077149712 4288435291
-0.3764886 0.012815838 -0.077883415 4289746011
-0.37716991 0.014970002 -0.077984802 4290204249
-0.37785369 0.017132267 -0.078086503 4290598487
-0.38008645 0.020104852 -0.080116265 4290662998
-0.38182685 0.022845678 -0.081522413 4290662743
-0.38465163 0.026183451 -0.084266059 4290141792
-0.38698557 0.029291492 -0.086387448 4289230701
-0.38935477 0.032446757 -0.088540792 4288313969
-0.39175999 0.035650272 -0.090726785 4288966505
-0.39420214 0.038903199 -0.092946231 4289300842
-0.39610478 0.041881215 -0.094491065 4288323177
-0.39861387 0.045227323 -0.096769713 4287996262
-0.40116233 0.048626155 -0.099083982 4288458605
-0.40194708 0.051027339 -0.099234104 4289050228
-0.40394068 0.054148793 -0.10085233 4290033790
-0.38795197 -0.04778605 -0.12362953 4287339910
-0.38589808 -0.046388809 -0.1200174 4285240465
-0.38552701 -0.04454229 -0.118701 4283863960
-0.38405782 -0.043023102 -0.11590078 4283340445
-0.38314822 -0.041358985 -0.11386583 4283539362
-0.38278666 -0.039542157 -0.11257583 4284719272
-0.38296792 -0.037563145 -0.11201919 4283669664
-0.38369301 -0.03541059 -0.11219274 4283013792
-0.38387465 -0.033427242 -0.11163488 4282817959
-0.38405633 -0.031443555 -0.11107693 4282885040
-0.38315034 -0.029827891 -0.10906746 4282951093
-0.38225123 -0.028224112 -0.1070731 4283017656
-0.38135886 -0.026632132 -0.10509362 4283148470
-0.37941584 -0.025431028 -0.10172667 4283016627
-0.37802187 -0.024057379 -0.099098019 4283735207
-0.3771601 -0.022506431 -0.097180724 4283407265
-0.37630469 -0.020966608 -0.095277488 4283275934
-0.37545559 -0.019437835 -0.093388118 4283536795
-0.37563115 -0.017520795 -0.092848912 4284121480
-0.37580672 -0.015603455 -0.092309646 4286409838
-0.37598234 -0.013685859 -0.091770284 4288057994
-0.376158 -0.011767969 -0.091230847 4287276966
-0.376847 -0.009635007 -0.091359265 4288847520
-0.37702304 -0.0077130441 -0.090818658 4290105280
-0.37719908 -0.0057907761 -0.090277992 4290303175
-0.37686086 -0.0040936098 -0.089072295 4289320148
-0.37652394 -0.0024023689 -0.087870926 4288860634
-0.37567893 -0.00094689935 -0.086018138 4289188051
-0.37534603 0.00072992878 -0.084828779 4290104769
-0.37501433 0.0024009359 -0.083643608 4290892474
-0.37418103 0.0038292981 -0.081819355 4289906609
-0.37335375 0.005247605 -0.080008179 4288322196
-0.37352681 0.0071373838 -0.079476647 4285162347
-0.3736999 0.0090274196 -0.078945041 4283912275
-0.37387303 0.010917774 -0.078413352 4285222740
-0.37555414 0.013567859 -0.079790168 4287712861
-0.37674335 0.015986942 -0.080537468 4289744988
-0.37742877 0.018159151 -0.08064422 4290663515
-0.37966651 0.021150436 -0.082700305 4290794331
-0.38141093 0.023907434 -0.084126011 4290077281
-0.38640136 0.028425336 -0.089607723 4289230701
-0.38877496 0.031585898 -0.091793731 4288579188
-0.39118484 0.034794997 -0.094013058 4288444013
-0.39535257 0.039009742 -0.098407194 4289032806
-0.39845294 0.042676304 -0.10145479 4289106025
-0.39982313 0.045397203 -0.10234343 4288391018
-0.40060669 0.047796354 -0.10250046 4288458347
-0.40139332 0.05020529 -0.10265804 4288983668
-0.40278605 0.052978378 -0.10355815 4289967485
-0.3867923 -0.04913047 -0.12632604 4286551695
-0.38529861 -0.047567777 -0.12344956 4284454553
-0.38327289 -0.046177313 -0.11985271 4283472288
-0.38127792 -0.044807721 -0.11631048 4283210402
-0.37984666 -0.043301169 -0.11355034 4283538596
-0.37896141 -0.041651469 -0.11154342 4287347631
-0.37861097 -0.039850947 -0.11026997 4284720567
-0.37879044 -0.037890315 -0.10971861 4283405978
-0.3805685 -0.035414651 -0.11133256 4282751135
-0.38074902 -0.0334423 -0.11077791 4282621609
-0.38146713 -0.031289339 -0.11094832 4282819507
-0.38057429 -0.029680138 -0.10894698 4282951608
-0.38022032 -0.027897038 -0.1076755 4282820791
-0.37880862 -0.026497027 -0.10498901 4282621611
-0.37741271 -0.025112368 -0.10233244 4282817701
-0.3765499 -0.023551837 -0.10039615 4282881953
-0.37517941 -0.022195661 -0.097789347 4283013280
-0.37433279 -0.020659631 -0.09588743 4283210138
-0.37399954 -0.018937195 -0.094672099 4283079584
-0.37417501 -0.017019944 -0.094132945 4283603096
-0.37384272 -0.015306797 -0.092922918 4284187785
-0.37401792 -0.013392473 -0.092384592 4286345844
-0.37419316 -0.01147789 -0.091846168 4287796102
-0.37487718 -0.0093481317 -0.091975525 4289705624
-0.37505281 -0.0074294754 -0.091435984 4290039998
-0.37471902 -0.0057324665 -0.090230487 4290434241
-0.37489438 -0.0038167452 -0.089691758 4289647816
-0.37456155 -0.002128887 -0.088491514 4287145396
-0.37422994 -0.00044693649 -0.087295555 4287542706
-0.37339631 0.00099663076 -0.085451573 4288260255
-0.37306869 0.0026643367 -0.084267497 4287475375
-0.3727423 0.0043262905 -0.083087638 4289249217
-0.37192008 0.0057430095 -0.081271932 4290892480
-0.37259039 0.0078758812 -0.081379488 4289046437
-0.37276369 0.0097695757 -0.080846958 4285621101
-0.37343678 0.011914172 -0.080953829 4283846996
-0.37512153 0.014579595 -0.082349584 4285876569
-0.37631342 0.017011391 -0.083108999 4288893284
-0.37802956 0.019730026 -0.084529325 4290599011
-0.3792432 0.022203838 -0.08530362 4290338659
-0.38046589 0.024696257 -0.086083598 4289100143
-0.38382959 0.028360307 -0.089562394 4288317303
-0.38617477 0.031508673 -0.091739893 4287922292
-0.38855559 0.034705192 -0.093950398 4288769640
-0.39496753 0.040188856 -0.10120826 4289692260
-0.39866751 0.044216685 -0.10503591 4289176425
-0.40004653 0.046959981 -0.10594393 4288655213
-0.40204042 0.050075386 -0.10761215 4288524918
-0.40223101 0.05215745 -0.10702664 4288851839
-0.40363806 0.054960627 -0.10795143 4290294405
-0.38395372 -0.050922349 -0.1267022 4286291608
-0.38193429 -0.049503848 -0.12307372 4283866275
-0.38048545 -0.047956705 -0.12024879 4283145639
-0.37851903 -0.046578873 -0.11671712 4282949292
-0.37658226 -0.045221493 -0.11323847 4282753193
-0.37571409 -0.043573949 -0.11124414 4283539616
-0.37485242 -0.041938402 -0.1092646 4287472272
-0.3750304 -0.039992459 -0.10871748 4288194699
-0.3746905 -0.038211312 -0.10746112 4287603586
-0.37642878 -0.035760414 -0.1090473 4284652693
-0.37713197 -0.033632047 -0.10921302 4283080361
-0.37783781 -0.031495422 -0.10937926 4282819760
-0.37696511 -0.029897286 -0.10739883 4282752429
-0.37714392 -0.027942324 -0.10684917 4282687145
-0.37627712 -0.026362851 -0.10488539 4282687142
-0.37541679 -0.02479481 -0.10293617 4282752421
-0.37456283 -0.0232381 -0.10100128 4282882980
-0.37320578 -0.021885976 -0.098395988 4282947234
-0.37287387 -0.020158196 -0.097173952 4283209626
-0.37203872 -0.018634759 -0.095281199 4284325018
-0.37221378 -0.016720807 -0.094743088 4286947210
-0.3723889 -0.014806569 -0.094204865 4284716694
-0.37256402 -0.012892064 -0.093666591 4284385678
-0.37273917 -0.010977271 -0.093128219 4286413434
-0.37291431 -0.0090621784 -0.092589788 4288256145
-0.37308952 -0.0071468293 -0.092051268 4289837745
-0.37275988 -0.0054532317 -0.090846896 4288727216
-0.37243143 -0.0037655581 -0.089646839 4286488505
-0.37210423 -0.002083706 -0.088451087 4284251556
-0.37177819 -0.0004077472 -0.087259591 4285691524
-0.37195224 0.0014950942 -0.086724594 4285173394
-0.37112981 0.0029268702 -0.08488936 4285899958
-0.37080741 0.004585545 -0.083710536 4287144887
-0.37098059 0.0064788638 -0.0831782 4288527298
-0.3711538 0.0083724763 -0.082645804 4290236609
-0.37182385 0.010514484 -0.082756028 4287535767
-0.37299708 0.01291789 -0.083512992 4284702816
-0.37417892 0.015339128 -0.084275402 4286797919
-0.37588006 0.018043481 -0.085699655 4290481024
-0.37811854 0.021050615 -0.087804675 4291064438
-0.37881652 0.02326511 -0.087926492 4289491568
-0.38056898 0.026054891 -0.089392118 4288250741
-0.38395274 0.029755214 -0.092928007 4287726452
-0.38631213 0.032932304 -0.095143475 4288244329
-0.38870755 0.036158264 -0.097392738 4289290851
-0.39284959 0.040400125 -0.10184135 4289563753
-0.39710557 0.044758942 -0.10641226 4289048430
-0.39847833 0.04750463 -0.10732576 4288128365
-0.39986205 0.050272364 -0.10824648 4287007847
-0.40186271 0.053420488 -0.10993503 4287072106
-0.40327382 0.056240182 -0.11087517 4289373054
-0.37968704 -0.051129397 -0.12421706 4286292897
-0.3777191 -0.049722597 -0.12064197 4283802275
-0.37630779 -0.048188582 -0.1178576 4282819249
-0.37491235 -0.046671629 -0.11510455 4282687923
-0.37301683 -0.045323446 -0.11166393 4282686635
-0.37216827 -0.043687586 -0.10969035 4285439118
-0.37132603 -0.042063516 -0.10773128 4289833819
-0.37099537 -0.040291764 -0.10648615 4291604303
-0.37117168 -0.0383633 -0.10594404 4291079243
-0.3728773 -0.035931293 -0.10751002 4288849767
-0.37356853 -0.033818893 -0.10767167 4284586393
-0.37426236 -0.031698339 -0.10783386 4283013792
-0.37392393 -0.029931242 -0.10657884 4282752168
-0.37461847 -0.027802875 -0.10673882 4282752681
-0.37376419 -0.026229542 -0.10478281 4282817704
-0.37342799 -0.024478322 -0.10353788 4282818215
-0.37258288 -0.022925472 -0.1016044 4282883749
-0.37174404 -0.021383742 -0.099685073 4283080613
-0.37091136 -0.019853093 -0.097779758 4283145122
-0.37058482 -0.01813487 -0.09656328 4286421646
-0.37075979 -0.016220706 -0.096025214 4286816113
-0.37043417 -0.014511708 -0.09481401 4285308558
-0.37010974 -0.012808683 -0.093607172 4284326043
-0.37028417 -0.010900669 -0.093070813 4284518803
-0.3704586 -0.0089923618 -0.092534378 4286217343
-0.37063307 -0.0070837964 -0.091997869 4288321944
-0.370309 -0.0053962674 -0.090798043 4289117614
-0.36998612 -0.0037146253 -0.089602478 4287798685
-0.36966443 -0.0020387592 -0.088411197 4284244863
-0.36983806 -0.00013945632 -0.087877296 4285296755
-0.36951727 0.0015274149 -0.086691156 4284053892
-0.36969063 0.0034238226 -0.086158052 4285307815
-0.36986402 0.0053205271 -0.085624889 4285639880
-0.36954382 0.0069753341 -0.084444702 4288197576
-0.37021086 0.009114759 -0.084558308 4290956984
-0.37137812 0.011512991 -0.085321933 4289707440
-0.37205216 0.013672935 -0.085437626 4287718004
-0.37373838 0.016363088 -0.086865783 4290208632
-0.37544328 0.019083261 -0.088309623 4291460759
-0.37820828 0.022386054 -0.091116764 4290215041
-0.38049349 0.025465652 -0.093289912 4288512372
-0.38067293 0.02742888 -0.092738055 4287594865
-0.38407704 0.031166052 -0.096332073 4287851882
-0.38700402 0.034680285 -0.099296108 4289091935
-0.39055407 0.038581707 -0.10304255 4289814109
-0.39477012 0.042906933 -0.10762113 4289367402
-0.39850423 0.047007527 -0.11156315 4288323951
-0.39989614 0.049789768 -0.11250638 4286807904
-0.40190887 0.052953854 -0.11423081 4284899664
-0.40394604 0.056156505 -0.11597603 4285424980
-0.40475982 0.058646597 -0.11616503 4288648308
-0.37656161 -0.051045369 -0.12328189 4285299579
-0.37462842 -0.049646925 -0.11973422 4283009668
-0.37324235 -0.048121803 -0.11697071 4282820790
-0.3713592 -0.04676288 -0.11351629 4282820283
-0.36950397 -0.045423817 -0.11011299 4282817967
-0.36867452 -0.043799426 -0.10815971 4286619786
-0.36785123 -0.042186704 -0.10622075 4291276358
-0.3675293 -0.040427525 -0.10498755 4292192577
-0.36770418 -0.038513001 -0.10444948 4291997762
-0.36937794 -0.036099561 -0.10599566 4290948695
-0.37005752 -0.034002878 -0.10615338 4285700486
-0.37124732 -0.03172227 -0.10701469 4283014310
-0.37091625 -0.029964762 -0.10576821 4282621869
-0.37160128 -0.027848059 -0.10592584 4282622125
-0.37126958 -0.026097165 -0.10468123 4282621867
-0.37093914 -0.024352448 -0.10344114 4282949545
-0.37060994 -0.022613879 -0.10220552 4282949799
-0.36977983 -0.021075947 -0.10028757 4283211430
-0.36895576 -0.019548988 -0.098383583 4283407009
-0.3686333 -0.01783425 -0.097168274 4284978836
-0.36880788 -0.015923377 -0.096631236 4286817158
-0.36848632 -0.014217835 -0.09542118 4288592007
-0.36816594 -0.012518235 -0.094215482 4286359423
-0.36833996 -0.010613485 -0.093680151 4284455842
-0.36802047 -0.0089229634 -0.092479616 4284453267
-0.36819422 -0.0070211231 -0.091945112 4286413434
-0.36787564 -0.0053396258 -0.090749785 4288125586
-0.36755827 -0.0036639445 -0.089558683 4289248686
-0.36773145 -0.0017681551 -0.089025885 4287862432
-0.36790469 0.00012790837 -0.088492982 4285360760
-0.3680779 0.0020242457 -0.087960035 4283260786
-0.3682512 0.0039208895 -0.087426975 4284451218
-0.36842448 0.0058177961 -0.086893849 4287147191
-0.36909053 0.0079588955 -0.087012239 4289908172
-0.37025574 0.010357242 -0.087786339 4291548869
-0.37092885 0.012518914 -0.087906823 4290166454
-0.37311834 0.015468453 -0.09001679 4289557124
-0.37534031 0.018461931 -0.092157908 4291062920
-0.37603417 0.020675601 -0.092288293 4290671490
-0.37829873 0.023736574 -0.094466276 4288904568
-0.38006455 0.026555354 -0.095982715 4287594097
-0.38293108 0.029998817 -0.098921165 4287851880
-0.38475043 0.032897089 -0.10048608 4288895586
-0.38714746 0.036141552 -0.10278959 4289877597
-0.39186683 0.040734492 -0.10808024 4290011997
-0.39555165 0.044793058 -0.11201225 4288445796
-0.39932492 0.048949331 -0.11603857 4286414432
-0.40134218 0.052120999 -0.11779141 4284833359
-0.40276521 0.054963749 -0.11877311 4283848265
-0.40419981 0.057829935 -0.11976267 4285558361
-0.37347147 -0.050962199 -0.12235761 4283915348
-0.3710573 -0.04971673 -0.11810243 4286348657
-0.37021104 -0.048055682 -0.11609402 4285702566
-0.36836079 -0.046704601 -0.11266538 4283605941
-0.36653781 -0.045373157 -0.10928719 4282753976
-0.36523172 -0.043909568 -0.10665176 4285768084
-0.36442688 -0.04230798 -0.10473248 4290946386
-0.36411345 -0.040561188 -0.10351104 4292390212
-0.36428699 -0.038660407 -0.10297692 4292193863
-0.36592963 -0.036265247 -0.10450374 4290358630
-0.3665978 -0.034184042 -0.1046576 4284784025
-0.36776599 -0.031920686 -0.10550711 4282687151
-0.36794156 -0.029997788 -0.1049668 4282556593
-0.36861718 -0.02789266 -0.10512208 4282688432
-0.36829275 -0.026151139 -0.1038859 4282687919
-0.36796951 -0.024415735 -0.10265415 4282949547
-0.3676475 -0.022686413 -0.10142682 4283015337
-0.36683264 -0.021156436 -0.099522293 4283080102
-0.36700708 -0.01924591 -0.098985434 4283472026
-0.36668864 -0.017534649 -0.09777128 4283932055
-0.36637142 -0.015829353 -0.096561499 4287341183
-0.36654529 -0.013924945 -0.096026368 4287539057
-0.36622894 -0.012228767 -0.094821781 4286294664
-0.36640254 -0.010327271 -0.094287477 4287212957
-0.36608708 -0.0086401151 -0.093088098 4284981150
-0.36674982 -0.0065234439 -0.09321861 4284451983
-0.36594585 -0.0050633755 -0.091360368 4286215032
-0.36563241 -0.0033910191 -0.090170354 4288059536
-0.36580521 -0.001498453 -0.089638561 4289574832
-0.36597803 0.00039439613 -0.089106679 4287665566
-0.3666383 0.0025211903 -0.089229137 4284571522
-0.36681148 0.0044180141 -0.088696137 4285300646
-0.36747453 0.0065565133 -0.088817902 4288920512
-0.36863372 0.0089496989 -0.089598708 4291090635
-0.3698014 0.011360646 -0.090385132 4291350980
-0.3709777 0.013789578 -0.091177247 4290290083
-0.37471911 0.017565001 -0.095363937 4290407799
-0.37541431 0.019785151 -0.095500894 4290536562
-0.3761121 0.022013891 -0.09563829 4289426547
-0.38105884 0.02654255 -0.10136912 4287854959
-0.38178071 0.028827105 -0.10152009 4287851878
-0.38414565 0.032027606 -0.10382295 4288961376
-0.38432908 0.034036681 -0.10325841 4290008926
-0.38617396 0.03698675 -0.10486346 4290337886
-0.39031339 0.041273434 -0.10944919 4289028445
-0.39397967 0.04533859 -0.11339749 4286275924
-0.39773402 0.049501661 -0.11744045 4284176713
-0.39974156 0.05267689 -0.11920182 4283387460
-0.40177351 0.055890977 -0.1209845 4283454281
-0.40383038 0.059144691 -0.12278887 4286018660
-0.37231007 -0.05228246 -0.12499107 4284833107
-0.37093168 -0.050736807 -0.12218763 4285817698
-0.36855018 -0.049497895 -0.11794997 4288717455
-0.36721328 -0.047990188 -0.11522732 4287863193
-0.36539528 -0.046646882 -0.11182412 4285827473
-0.36311674 -0.045471691 -0.10777392 4283607742
-0.36232096 -0.043867413 -0.10585417 4284328880
-0.36153099 -0.042274524 -0.10394827 4287146130
-0.36122441 -0.040537048 -0.10273492 4288784490
-0.36139691 -0.038646415 -0.10220376 4288654452
-0.36204946 -0.036592249 -0.1023519 4286098324
-0.36367378 -0.034194008 -0.10386969 4283080883
-0.3643353 -0.032116152 -0.10402182 4282491314
-0.36499926 -0.030030372 -0.10417438 4282490801
-0.3656657 -0.027936699 -0.10432746 4282557107
-0.36584058 -0.026020065 -0.10378899 4282556594
-0.36552295 -0.024291052 -0.10256197 4282819504
-0.36520648 -0.022568058 -0.10133937 4282884271
-0.3648912 -0.020851105 -0.10012113 4282949805
-0.36457711 -0.019140109 -0.09890727 4283014567
-0.36475083 -0.017236045 -0.098372348 4283277991
-0.36492458 -0.015331718 -0.097837344 4284719004
-0.36461106 -0.013633041 -0.09662956 4284654484
-0.36429873 -0.011940255 -0.095426142 4286295693
-0.36447191 -0.010042 -0.094892859 4286950268
-0.36416045 -0.0083582168 -0.093694583 4284522643
-0.36433336 -0.0064628227 -0.093162104 4283538336
-0.36402273 -0.0047880146 -0.091968954 4284252556
-0.36371329 -0.0031189858 -0.090780064 4286147443
-0.36388567 -0.0012296055 -0.090249255 4288057224
-0.36405805 0.00066003983 -0.089718401 4289047461
-0.36471358 0.002783672 -0.089841768 4286420632
-0.36537153 0.0049152509 -0.089965515 4287867312
-0.36603186 0.0070548644 -0.090089642 4290301382
-0.36767855 0.0096985027 -0.091538496 4291286214
-0.36884481 0.012116819 -0.092333533 4290426545
-0.37052229 0.014813319 -0.093807966 4290280585
-0.3753098 0.019160625 -0.099433087 4290731115
-0.37706175 0.021958424 -0.1009808 4289882730
-0.37883368 0.02478832 -0.102546 4288312173
-0.38171014 0.028241072 -0.10556989 4288047972
-0.38353616 0.031151341 -0.10718551 4289092444
-0.38482687 0.033785302 -0.10808335 4290074460
-0.38668886 0.036756732 -0.10972908 4290403677
-0.38631311 0.038472947 -0.10841689 4289421402
-0.39047876 0.042805556 -0.11307858 4286666577
-0.39299223 0.046225969 -0.11555019 4284042309
-0.39614278 0.050054081 -0.1188426 4283518016
-0.39814064 0.053232886 -0.12061249 4283978566
-0.40016279 0.056450602 -0.12240376 4283782476
-0.4022097 0.059707936 -0.12421686 4285161819
-0.37219024 -0.053328898 -0.1291624 4285491811
-0.37028614 -0.05191043 -0.12556374 4284638041
-0.36841071 -0.050513029 -0.12201913 4288849030
-0.36606145 -0.049280625 -0.11779889 4289639074
-0.36474323 -0.047779497 -0.11508723 4289043864
-0.36246219 -0.046589684 -0.11099234 4287522427
-0.36022264 -0.045421217 -0.10697183 4284454056
-0.35944158 -0.04382563 -0.10506547 4283477185
-0.35819489 -0.042393461 -0.10249564 4284002756
-0.35789639 -0.0406681 -0.10129365 4284330429
-0.3580676 -0.038790841 -0.10076634 4284198587
-0.35918158 -0.036589187 -0.10158519 4283215036
-0.36030364 -0.03437132 -0.10240991 4282359991
-0.36095417 -0.032308668 -0.10255829 4282360245
-0.36160707 -0.030238232 -0.10270713 4282294195
-0.36226237 -0.028159946 -0.10285648 4282360242
-0.36292008 -0.0260738 -0.10300625 4282491572
-0.36260942 -0.024353923 -0.10178742 4282622899
-0.36278298 -0.02245049 -0.10125277 4282753970
-0.36247316 -0.020739786 -0.10003916 4282753970
-0.36264643 -0.018839261 -0.099505335 4282884272
-0.3623375 -0.01713763 -0.09829697 4282819760
-0.36251053 -0.015240012 -0.097763941 4283081903
-0.36268359 -0.013342099 -0.097230852 4283278508
-0.36237523 -0.011652677 -0.096028537 4284392355
-0.36206797 -0.0099691041 -0.094830506 4284392088
-0.36176187 -0.0082913218 -0.093636721 4283867037
-0.3619341 -0.0064025968 -0.093106203 4283997609
-0.36162883 -0.0047337129 -0.09191753 4283734181
-0.36132467 -0.0030705603 -0.090733014 4284446343
-0.36149636 -0.0011877695 -0.090204164 4286211182
-0.3621448 0.00092480832 -0.090328135 4288051063
-0.36279556 0.0030452611 -0.090452433 4286810507
-0.36393127 0.005412587 -0.091235161 4288654489
-0.36458892 0.0075533022 -0.091361612 4289971125
-0.36622763 0.010199877 -0.092817485 4289837230
-0.36788446 0.012875845 -0.094289303 4290545806
-0.37006328 0.015844714 -0.096458361 4290994801
-0.37643617 0.0210592 -0.10427512 4290337894
-0.37821114 0.02389464 -0.1058652 4288767845
-0.38163871 0.027648209 -0.10966651 4288309855
-0.38402984 0.030876642 -0.11205956 4289158489
-0.38589427 0.033842288 -0.11373521 4290008922
-0.38608068 0.035886776 -0.11316094 4290074714
-0.38739896 0.03857588 -0.11409439 4289157466
-0.38872761 0.041286398 -0.11503512 4286731860
-0.39064577 0.044355981 -0.11675125 4284369991
-0.39258683 0.047462489 -0.11848772 4283188288
-0.39574593 0.051318631 -0.12182294 4283518532
-0.39714316 0.054152831 -0.12281915 4284505934
-0.3997772 0.057757039 -0.12543502 4284310099
-0.40120807 0.060652863 -0.12645796 4285163863
-0.37154216 -0.054525923 -0.13260403 4286147168
-0.37015477 -0.052952871 -0.12973063 4284110675
-0.36826956 -0.051539745 -0.12613454 4287399538
-0.36691895 -0.050003655 -0.12333529 4289969315
-0.36458349 -0.048775759 -0.11910282 4289902248
-0.36278138 -0.047424 -0.11566486 4289835167
-0.36052239 -0.046239417 -0.11157222 4288510080
-0.35830441 -0.045076068 -0.1075538 4286541699
-0.35706148 -0.043634593 -0.10496596 4283474617
-0.35583198 -0.04220837 -0.1024059 4282494156
-0.35553876 -0.040489316 -0.10120845 4282559698
-0.3557092 -0.038618572 -0.10068309 4282427847
-0.35634431 -0.036586102 -0.10082698 4282295481
-0.35698175 -0.034546006 -0.1009713 4282360502
-0.35809177 -0.0323283 -0.1017908 4282425523
-0.35826358 -0.030442933 -0.10126133 4282228658
-0.358908 -0.028379884 -0.101407 4282228657
-0.3595548 -0.026309038 -0.10155313 4282425520
-0.35972729 -0.024416028 -0.10102151 4282425777
-0.35989985 -0.022522738 -0.1004898 4282819249
-0.3600724 -0.020629181 -0.099958032 4282885300
-0.36024496 -0.018735304 -0.09942618 4282886067
-0.36041757 -0.016841203 -0.098894253 4282688692
-0.36059019 -0.014946778 -0.098362252 4282819763
-0.36028603 -0.013257596 -0.097160175 4283016627
-0.35998303 -0.011574246 -0.09596239 4283212720
-0.36015508 -0.0096858544 -0.095432088 4283278509
-0.35985288 -0.0080113932 -0.094239429 4283540908
-0.35955179 -0.0063426821 -0.093050934 4286165167
-0.3592518 -0.0046796962 -0.091866672 4286166713
-0.35895294 -0.0030223955 -0.090686552 4284453280
-0.35959435 -0.00092078297 -0.090811037 4284645514
-0.36023808 0.0011887016 -0.090935886 4286212459
-0.36136037 0.0035406642 -0.091717653 4286864996
-0.36297247 0.0061506443 -0.093167737 4287920498
-0.36411497 0.0085426858 -0.093964592 4288382597
-0.36724138 0.011966436 -0.097473837 4288903550
-0.36891904 0.014677219 -0.09898521 4290605686
-0.36960056 0.016883887 -0.099128678 4290796904
-0.37598705 0.022142006 -0.10703596 4289354080
-0.37938231 0.02586814 -0.1108436 4288634970
-0.38175118 0.029076459 -0.11324121 4289354838
-0.38359857 0.032025728 -0.1149206 4290074457
-0.38603312 0.035326984 -0.11738299 4289680986
-0.38678858 0.037706099 -0.11757056 4288171608
-0.38754708 0.040094864 -0.11775877 4286796631
-0.38888407 0.042827673 -0.11871959 4286014807
-0.39257687 0.046960667 -0.12282676 4284896844
-0.39276817 0.049059782 -0.12223724 4283450176
-0.39474544 0.052232746 -0.1240278 4283059266
-0.3967467 0.055444546 -0.12584002 4283718220
-0.39877251 0.058695912 -0.12767431 4284574551
-0.40082327 0.061987571 -0.12953103 4286809447
-0.36898011 -0.054284748 -0.13239354 4284043338
-0.36710012 -0.052858911 -0.12877057 4285031776
-0.36575341 -0.051312551 -0.12595132 4289245590
-0.36392221 -0.04992703 -0.12242377 4290034858
-0.3616274 -0.04870645 -0.11822329 4290034857
-0.35985687 -0.047362447 -0.11481079 4290100393
-0.35716301 -0.046331059 -0.11005124 4289567895
-0.35592395 -0.04488026 -0.10744528 4288372855
-0.35516244 -0.043294828 -0.10554763 4285237912
-0.35394526 -0.041872788 -0.10298906 4282820546
-0.35365582 -0.040157191 -0.10179278 4282295748
-0.3538259 -0.038289592 -0.1012684 4282295488
-0.35399601 -0.036421709 -0.10074394 4282229948
-0.35416615 -0.034553569 -0.10021941 4282229176
-0.3547973 -0.032516714 -0.10036208 4282359220
-0.35543075 -0.030472223 -0.10050521 4282227887
-0.35606652 -0.028420122 -0.10064878 4282162350
-0.35670462 -0.026360357 -0.10079283 4282489515
-0.35687611 -0.024477351 -0.10026411 4282423720
-0.35751683 -0.022406215 -0.10040753 4282622123
-0.3576887 -0.020519264 -0.099877708 4282623413
-0.35786054 -0.018632045 -0.09934783 4282820534
-0.35803244 -0.016744548 -0.098817855 4282754485
-0.35820436 -0.014856789 -0.098287813 4282754228
-0.35837629 -0.012968742 -0.09775769 4282951349
-0.35807717 -0.0112887 -0.096561059 4283016627
-0.35824886 -0.0094035137 -0.096031718 4283147955
-0.35795051 -0.0077323806 -0.094840132 4283475890
-0.35812193 -0.0058500059 -0.094311602 4285839289
-0.35782444 -0.004187698 -0.093125127 4285381060
-0.3579956 -0.002308165 -0.092597388 4283931303
-0.35816678 -0.0004283383 -0.092069589 4283995807
-0.35880789 0.0016822036 -0.092196725 4284776327
-0.3604002 0.0042725811 -0.093644299 4286402135
-0.36200988 0.0068914713 -0.09510757 4287319893
-0.36315086 0.0092907911 -0.095913008 4287911263
-0.36577657 0.012472603 -0.098765075 4289684068
-0.36694628 0.014924188 -0.099594288 4290603116
-0.36913413 0.01793085 -0.10181911 4290272610
-0.37553418 0.023233179 -0.10981803 4289223513
-0.37893721 0.026986519 -0.11367258 4289354069
-0.38076094 0.029912123 -0.11534812 4290205527
-0.3837235 0.033496771 -0.11856845 4290008922
-0.38560429 0.036507502 -0.12029915 4288236888
-0.38693345 0.039225794 -0.1212702 4285679708
-0.38827324 0.04196595 -0.12224892 4284767329
-0.38962373 0.044728223 -0.12323534 4285690469
-0.392759 0.048564475 -0.12662528 4285423704
-0.39414677 0.051393121 -0.12764317 4283581248
-0.39433992 0.053513989 -0.12704769 4282862144
-0.39634678 0.056746881 -0.12888572 4283914572
-0.3977634 0.059638727 -0.12992291 4286348131
-0.36728424 -0.055757381 -0.13428859 4284571737
-0.36695027 -0.05390694 -0.13295606 4283388749
-0.36559668 -0.052345902 -0.13009711 4287598714
-0.36476251 -0.050659046 -0.128025 4289774765
-0.36293516 -0.049275603 -0.12447535 4290165932
-0.36064517 -0.048058592 -0.12024809 4290233007
-0.35839728 -0.046863683 -0.11609849 4290298543
-0.35571927 -0.045837533 -0.11132491 4290231468
-0.35448793 -0.044389196 -0.10871211 4289232782
-0.35373151 -0.042805303 -0.10680992 4287522948
-0.35252196 -0.041385714 -0.10424461 4283865012
-0.35177937 -0.039826181 -0.10237522 4282427331
-0.35194904 -0.037961714 -0.10185181 4282426818
-0.35211876 -0.03609696 -0.10132834 4282492607
-0.35274503 -0.03406655 -0.10147289 4282294970
-0.35337356 -0.032028586 -0.10161787 4282228916
-0.35354394 -0.030156355 -0.10109227 4282096557
-0.35371438 -0.028283831 -0.10056662 4282556078
-0.35434583 -0.026230991 -0.10071001 4282885042
-0.3549796 -0.024170512 -0.10085383 4282687404
-0.35515073 -0.022290429 -0.10032604 4282492083
-0.35532185 -0.020410078 -0.099798203 4282492085
-0.35549301 -0.018529421 -0.099270247 4282688694
-0.35566419 -0.016648531 -0.098742239 4282688695
-0.35583541 -0.014767327 -0.098214142 4282754487
-0.35647318 -0.012680806 -0.098353304 4282754486
-0.3561779 -0.011004115 -0.097157732 4282820534
-0.3563492 -0.0091221109 -0.096629396 4282951605
-0.3565205 -0.0072398195 -0.096101001 4283279284
-0.35622573 -0.0055750655 -0.094911426 4284132531
-0.35639679 -0.0036956116 -0.094383813 4283606447
-0.35656786 -0.0018158641 -0.093856141 4283275684
-0.35720596 0.00029213246 -0.093986623 4285504931
-0.35784644 0.0024079932 -0.09411753 4285043611
-0.3594363 0.0050072088 -0.095578179 4286010462
-0.36056364 0.0073908945 -0.096382499 4287317840
-0.362183 0.010041758 -0.0978688 4288564054
-0.36679494 0.014276913 -0.10352045 4290271841
-0.36747482 0.016491186 -0.10367308 4290533735
-0.36866394 0.018985776 -0.10452992 4290138976
-0.37507761 0.024332797 -0.11262166 4289812057
-0.37958118 0.028714774 -0.1180351 4290009434
-0.38142285 0.031673618 -0.11974934 4290402395
-0.38384962 0.03498527 -0.12225962 4289876824
-0.38631496 0.038349789 -0.1248096 4287252306
-0.38765746 0.04109728 -0.12580645 4284631897
-0.38901076 0.04386707 -0.12681116 4283981412
-0.38978717 0.046312045 -0.1270213 4284113252
-0.39175013 0.049474608 -0.12884468 4283847766
-0.39313647 0.052312896 -0.12987366 4283255621
-0.39393082 0.054805692 -0.13009234 4283716939
-0.3953346 0.057683691 -0.1311325 4286018144
-0.36576927 -0.055240806 -0.13562539 4283912782
-0.36492792 -0.053530473 -0.13351668 4284046945
-0.36409298 -0.051832799 -0.13142388 4288983192
-0.36326438 -0.050147668 -0.12934679 4289970866
-0.36144817 -0.048767842 -0.12578729 4290232495
-0.35965905 -0.047408242 -0.12228063 4290364851
-0.357416 -0.046216916 -0.11810471 4290561972
-0.35427526 -0.045343913 -0.11259884 4290363828
-0.35305169 -0.04389802 -0.10997915 4290031527
-0.35184133 -0.042467479 -0.10738765 4288969607
-0.35109839 -0.040898558 -0.1055004 4286282131
-0.35036078 -0.03934053 -0.10362656 4283344574
-0.35053039 -0.037475862 -0.10310319 4282362052
-0.35070002 -0.035610933 -0.10257977 4282558403
-0.35086966 -0.033745714 -0.10205627 4282557628
-0.35149363 -0.031710617 -0.10220208 4282818483
-0.35166362 -0.029841492 -0.10167748 4282621360
-0.35229018 -0.02779521 -0.1018227 4282688696
-0.35246053 -0.025922224 -0.10129703 4282690233
-0.35263091 -0.024048928 -0.10077126 4282229431
-0.35280132 -0.022175374 -0.10024541 4282295995
-0.35297176 -0.020301564 -0.099719487 4282360758
-0.3531422 -0.018427467 -0.099193491 4282426292
-0.3533127 -0.016553085 -0.098667406 4282491828
-0.3534832 -0.014678416 -0.098141253 4282557622
-0.35411435 -0.012599033 -0.098279774 4282688952
-0.35382429 -0.010928286 -0.097088709 4282689206
-0.3544561 -0.0088416273 -0.097225189 4282754998
-0.35462698 -0.0069625033 -0.096697792 4282951092
-0.35479796 -0.0050831013 -0.096170299 4282949546
-0.35496891 -0.0032034332 -0.095642753 4282882979
-0.35560399 -0.0010980122 -0.095776573 4283145383
-0.35577533 0.00078560429 -0.095247895 4286101169
-0.3564131 0.0029025634 -0.095381126 4285309348
-0.35846859 0.0057445862 -0.097519308 4285881192
-0.36007342 0.0083815427 -0.099009223 4287909719
-0.36121133 0.010795557 -0.099831976 4289351257
-0.36783221 0.016115166 -0.1083653 4290270307
-0.36801106 0.018081771 -0.10781335 4290337390
-0.36818999 0.020048693 -0.10726129 4290533229
-0.37515092 0.02573351 -0.11619342 4290531424
-0.3807902 0.030778406 -0.12324094 4290335837
-0.38209495 0.033462964 -0.12422015 4290335323
-0.38397697 0.036491539 -0.12599485 4289155159
-0.38645792 0.039888464 -0.12858999 4286664785
-0.38780901 0.042658865 -0.12960802 4284699222
-0.38917097 0.045451935 -0.13063416 4284045153
-0.38995233 0.047915086 -0.13085334 4283717980
-0.39133126 0.050747007 -0.13189058 4283782737
-0.39272147 0.05360223 -0.13293618 4284570195
-0.39412305 0.056481086 -0.13399018 4286083683
-0.36323816 -0.054997768 -0.13540491 4283584844
-0.36291295 -0.053155348 -0.13407545 4284376171
-0.36258903 -0.051319618 -0.13275087 4289183140
-0.36176601 -0.049636174 -0.13066882 4290101680
-0.36045414 -0.048112813 -0.1278495 4290298548
-0.35866895 -0.046755377 -0.12432101 4290430646
-0.35643083 -0.045567635 -0.12011857 4290496184
-0.35329688 -0.044701111 -0.11457706 4290561205
-0.35161516 -0.043406792 -0.11124643 4290495925
-0.35086894 -0.041826054 -0.10933521 4289964191
-0.35012805 -0.0402564 -0.10743757 4288576641
-0.34894198 -0.03885483 -0.10487812 4285762203
-0.34911147 -0.03698995 -0.10435482 4283280321
-0.34928101 -0.03512479 -0.10383143 4282492612
-0.34945056 -0.033259366 -0.10330798 4282492864
-0.34962016 -0.031393666 -0.10278443 4283016379
-0.34978977 -0.029527711 -0.10226081 4283738818
-0.35041177 -0.027484315 -0.10240688 4282755518
-0.35058171 -0.025614442 -0.10188219 4282295223
-0.3507517 -0.023744319 -0.10135741 4282032827
-0.35092172 -0.021873917 -0.10083253 4282164412
-0.35109177 -0.020003224 -0.10030759 4282294709
-0.35126182 -0.018132273 -0.099782586 4282163378
-0.35143191 -0.016261037 -0.099257492 4282294449
-0.35160202 -0.014389524 -0.098732308 4282228914
