# .PCD v0.7 - Point Cloud Data file format
VERSION 0.7
FIELDS x y z rgba
SIZE 4 4 4 4
TYPE F F F U
COUNT 1 1 1 1
WIDTH 1000
HEIGHT 1
VIEWPOINT 0 0 0 1 0 0 0
POINTS 1000
DATA ascii
-0.40181565 -0.027233932 -0.10530722 4290337114
-0.40071702 -0.02536805 -0.10344891 4290272344
-0.399627 -0.023516342 -0.10160498 4290539879
-0.39870244 -0.017532771 -0.099127755 4289356636
-0.39878103 -0.015459404 -0.09880393 4288241241
-0.39770684 -0.013658511 -0.09699177 4288310640
-0.39607209 -0.012009642 -0.094459899 4289310607
-0.394456 -0.010379272 -0.091956839 4289644455
-0.39285827 -0.008767114 -0.089482129 4289579939
-0.39127854 -0.0071728267 -0.087035283 4289505163
-0.38809627 -0.006035048 -0.082535401 4288645231
-0.38603896 -0.0046291519 -0.079487525 4287974751
-0.38401183 -0.0032435465 -0.076484285 4289942870
-0.38252941 -0.0017276471 -0.07418406 4290729047
-0.38157478 -7.5363627e-05 -0.072562814 4290859863
-0.38062704 0.0015652715 -0.070953265 4290924375
-0.38019252 0.0033523014 -0.0700012 4291124049
-0.37975961 0.0051331888 -0.06905251 4292318026
-0.37983307 0.0070723197 -0.068749689 4294359877
-0.37990656 0.0090117157 -0.068446793 4294885438
-0.38048697 0.011123359 -0.06878756 4294951483
-0.38158023 0.013419641 -0.069777377 4294951740
-0.38268143 0.015732944 -0.070774317 4294950974
-0.3837907 0.018063378 -0.071778521 4294951743
-0.38543242 0.020603366 -0.073452905 4294952257
-0.38762459 0.023370417 -0.075817883 4294952256
-0.38984942 0.026178995 -0.078218065 4294952775
-0.39265835 0.029243043 -0.081348062 4294957926
-0.39552057 0.032365561 -0.084537446 4294757761
-0.39786536 0.035319023 -0.087068394 4293100390
-0.3990905 0.037847556 -0.08818686 4291390555
-0.4009065 0.040636636 -0.090043202 4289764448
-0.40215528 0.043210883 -0.091183923 4289248621
-0.402823 0.04555285 -0.091594033 4288718711
-0.40528011 0.048680443 -0.094239458 4288189562
-0.40716845 0.051589634 -0.096167915 4287926391
-0.40846673 0.054259334 -0.09735515 4287402093
-0.41163534 0.057796367 -0.10086934 4287733349
-0.41743472 0.062589757 -0.10764884 4288197222
-0.42144835 0.066624612 -0.11219238 4288788844
-0.39849317 -0.027285242 -0.10441698 4290077536
-0.39799175 -0.025315668 -0.10333083 4290267992
-0.3969163 -0.023471106 -0.10149453 4290532183
-0.39699471 -0.021398416 -0.10117094 4291188058
-0.39649913 -0.019450655 -0.10009715 4289680212
-0.39657742 -0.017381387 -0.0997741 4288765536
-0.39608356 -0.015444499 -0.098704964 4289104505
-0.39502376 -0.013650352 -0.09690024 4290100386
-0.39341044 -0.012007613 -0.094378561 4288464033
-0.39181551 -0.010383222 -0.091885515 4289103500
-0.39023858 -0.0087769087 -0.089420617 4289233766
-0.38867939 -0.0071883057 -0.086983345 4286347116
-0.38606903 -0.0059092091 -0.083189048 4287470483
-0.38403037 -0.0045065964 -0.080142044 4287795842
-0.3825396 -0.0029755328 -0.077809192 4287451222
-0.3810651 -0.0014609302 -0.075501792 4289745748
-0.38011569 0.00019058422 -0.073875837 4290795356
-0.3791731 0.0018304493 -0.072261624 4290925913
-0.37874115 0.003617194 -0.071307249 4290794581
-0.37831077 0.0053978302 -0.070356272 4291254868
-0.37788188 0.0071722828 -0.06940864 4292119370
-0.37795514 0.0091084158 -0.069106363 4294225986
-0.37802839 0.011044785 -0.068804055 4294884929
-0.37910873 0.01333272 -0.06979043 4294950461
-0.3801969 0.015637498 -0.070783906 4294951228
-0.38180694 0.018145617 -0.072440751 4294951227
-0.38291493 0.020489661 -0.073452897 4294950970
-0.38508037 0.023245877 -0.07580924 4294951743
-0.38835105 0.02645429 -0.079566166 4294952783
-0.39059797 0.029307595 -0.082012512 4294622055
-0.39343515 0.032425001 -0.085202172 4293100386
-0.39575946 0.035373498 -0.08773347 4292107867
-0.39697406 0.037897598 -0.08885242 4291648348
-0.39819798 0.040441427 -0.08997988 4290416740
-0.40001222 0.043251477 -0.091850244 4289178224
-0.40184766 0.046094615 -0.093742386 4288452985
-0.40430182 0.049232811 -0.096409939 4288123001
-0.40618798 0.052151237 -0.098355055 4287534194
-0.40809661 0.05510471 -0.10032336 4287534694
-0.41190091 0.058951743 -0.10466929 4287998054
-0.41709042 0.063493766 -0.11074399 4288330346
-0.42178291 0.067871153 -0.11618083 4289247854
-0.39585999 -0.025149439 -0.10397149 4289875545
-0.39536548 -0.023191094 -0.10289044 4289875539
-0.3948729 -0.021239951 -0.10181347 4290267731
-0.39438221 -0.019296039 -0.10074057 4290663004
-0.39389345 -0.017359296 -0.099671781 4289559676
-0.39340654 -0.015429656 -0.098607048 4290165158
-0.39180234 -0.013776823 -0.096075729 4289840551
-0.39076877 -0.012005542 -0.094298132 4289509792
-0.38919467 -0.010387092 -0.091815025 4285827243
-0.3876383 -0.0087865507 -0.08935982 4284978060
-0.3860994 -0.0072036604 -0.086932018 4283794293
-0.38404906 -0.0057837665 -0.083840504 4284315253
-0.38254982 -0.0042372863 -0.081474453 4288914328
-0.3810671 -0.0027075047 -0.079134338 4286216048
-0.38011232 -0.0010424983 -0.077486359 4285944396
-0.37916452 0.00061072345 -0.0758503 4289483097
-0.37822363 0.0022522383 -0.074226081 4291583586
-0.3772895 0.003882163 -0.07261353 4291588196
-0.37686163 0.0056624855 -0.07166028 4291056730
-0.37643525 0.007436689 -0.070710368 4291188821
-0.37650841 0.0093729878 -0.070408165 4292182604
-0.37658158 0.011309577 -0.070105903 4294289986
-0.3771548 0.013422252 -0.070449196 4294885184
-0.37823379 0.015723374 -0.071443297 4294949946
-0.37983009 0.0182276 -0.073100798 4294950459
-0.38144392 0.020759597 -0.074776448 4294950975
-0.38307554 0.023319792 -0.076470524 4294949956
-0.38578489 0.02631766 -0.079543866 4294157133
-0.38800409 0.029159451 -0.081980973 4292769113
-0.39080599 0.032263905 -0.0851584 4291845208
-0.39254361 0.03497339 -0.086966023 4291647833
-0.39430109 0.037714172 -0.088794313 4291584095
-0.39550999 0.040247805 -0.089917347 4290547817
-0.39845499 0.043538749 -0.093251184 4288846964
-0.40028119 0.046383817 -0.095151588 4288123512
-0.40331942 0.049787417 -0.098589212 4287795573
-0.40580943 0.052986465 -0.10132154 4287664748
-0.40772331 0.055956908 -0.10331546 4287931497
-0.41153827 0.059829976 -0.10771518 4288329835
-0.41870755 0.065325141 -0.11635352 4288593007
-0.42347261 0.069775343 -0.1219294 4289508471
-0.39373618 -0.024983793 -0.10461 4289353308
-0.39268103 -0.023147162 -0.10277595 4289809491
-0.3921954 -0.021203417 -0.10170343 4290727257
-0.39171162 -0.019266805 -0.10063496 4290664042
-0.39122969 -0.017337324 -0.099570498 4290420622
-0.39019418 -0.015546123 -0.097772956 4290626223
-0.38916656 -0.013768202 -0.095989041 4290496944
-0.38760146 -0.01213985 -0.093496457 4286949038
-0.38659325 -0.010390894 -0.091745257 4285573808
-0.38559261 -0.0086546987 -0.090007149 4285314228
-0.38406789 -0.0070752851 -0.087580353 4283865499
-0.3825601 -0.0055131121 -0.085180491 4288123536
-0.38158914 -0.0038197029 -0.0834921 4291350706
-0.38010889 -0.0022892111 -0.081136666 4287668641
-0.37966865 -0.00046918736 -0.080152325 4284959819
-0.37820968 0.0010324088 -0.077832207 4285942860
-0.3772704 0.0026755647 -0.0761979 4289287262
-0.37633795 0.0043071317 -0.074575365 4291724401
-0.37591091 0.0060900948 -0.073616914 4291522664
-0.37548542 0.0078669302 -0.072661884 4291056733
-0.37506145 0.009637625 -0.071710184 4291254357
-0.3751345 0.011574414 -0.071408018 4292179788
-0.375705 0.013687756 -0.071753703 4294156865
-0.37677869 0.015990037 -0.07275258 4294884931
-0.37836692 0.018495912 -0.074417293 4294950463
-0.37997261 0.021029584 -0.07610026 4294948932
-0.381596 0.023591466 -0.077801712 4294024008
-0.38323742 0.026182054 -0.079521962 4292570961
-0.38596338 0.029223874 -0.082640976 4291844696
-0.38765404 0.03188568 -0.084414236 4291647322
-0.38991246 0.034802597 -0.086915798 4290667361
-0.39164814 0.037532222 -0.088736907 4290864228
-0.39340377 0.040293451 -0.090578862 4290352751
-0.39632267 0.04357874 -0.093912788 4288715129
-0.39871448 0.046673022 -0.096561037 4287860601
-0.40233284 0.05034427 -0.10077732 4287663471
-0.40481985 0.053554256 -0.10353252 4288062827
-0.40734664 0.056815967 -0.10633175 4288396139
-0.41180533 0.061009549 -0.11159589 4288659055
-0.420358 0.0671947 -0.12208014 4289247354
-0.39267346 -0.026665298 -0.10709324 4289425254
-0.39162028 -0.024818746 -0.10524626 4290138196
-0.3905752 -0.022986064 -0.10341339 4290795871
-0.3900944 -0.021046145 -0.10234176 4291252831
-0.38850889 -0.019361712 -0.099789381 4290272115
-0.38803571 -0.017442811 -0.098732702 4290420367
-0.38701808 -0.015661182 -0.096948616 4289182636
-0.3860082 -0.01389269 -0.095177963 4289180586
-0.38500583 -0.012137218 -0.093420565 4285043851
-0.38347861 -0.010532753 -0.090965718 4283138700
-0.38249505 -0.0088055255 -0.08924029 4285438880
-0.38151881 -0.0070908475 -0.08752761 4285114274
-0.38107091 -0.0052423906 -0.086520694 4290491297
-0.38010535 -0.003549776 -0.084827438 4291615168
-0.3791469 -0.0018692997 -0.083146609 4289708205
-0.3787075 -4.6512101e-05 -0.082156837 4285680721
-0.37725103 0.0014557089 -0.079821579 4283911752
-0.37631345 0.0031005109 -0.078177139 4285484879
-0.37538269 0.0047336915 -0.076544568 4288371292
-0.37495646 0.0065192957 -0.07558088 4290800741
-0.37453184 0.0082987547 -0.074620627 4292047720
-0.37410873 0.010072073 -0.073663816 4291319907
-0.37418184 0.012012543 -0.073361158 4291188822
-0.37524989 0.014308691 -0.074365959 4291981644
-0.37582362 0.016438935 -0.0747189 4294089540
-0.37740943 0.018952027 -0.076397471 4294882888
-0.37901267 0.021493036 -0.07809443 4293826122
-0.38063365 0.024062395 -0.079810113 4292438612
-0.38227266 0.026660604 -0.081544779 4291778391
-0.38393 0.029288145 -0.08329881 4291712091
-0.38560596 0.031945489 -0.08507248 4290864227
-0.38784456 0.034857601 -0.087574378 4289424750
-0.3901172 0.037814301 -0.090114236 4290078824
-0.39186394 0.040577348 -0.09196417 4290156913
-0.39476788 0.043865591 -0.095311522 4288650104
-0.39772838 0.047218211 -0.098724075 4287532145
-0.40193927 0.051170573 -0.1037479 4287865704
-0.40443298 0.054400187 -0.10653786 4288330600
-0.40758604 0.057967685 -0.11017305 4288659565
-0.41143802 0.061905205 -0.11470154 4288983412
-0.3916066 -0.028353369 -0.1095862 4289619557
-0.39055538 -0.026496848 -0.10772613 4289549906
-0.38951224 -0.024654262 -0.10588029 4289284691
-0.38847712 -0.022825537 -0.10404862 4288957527
-0.38744989 -0.021010434 -0.10223082 4289358441
-0.3864305 -0.019208852 -0.10042682 4288634234
-0.38541886 -0.017420644 -0.098636426 4288513913
-0.38441485 -0.015645612 -0.096859545 4289575587
-0.38341838 -0.013883628 -0.095095925 4288259482
-0.38189992 -0.012269438 -0.092631817 4283913342
-0.38092214 -0.010535851 -0.090900287 4284771929
-0.38047355 -0.0086745266 -0.089883529 4284309617
-0.3795065 -0.006963308 -0.088171713 4285509542
-0.3785466 -0.0052644154 -0.086472474 4290756524
-0.37810659 -0.0034290303 -0.085473113 4291878341
-0.3776682 -0.0016001243 -0.08447735 4290431667
-0.37723139 0.0002223708 -0.083485216 4285942869
-0.37628862 0.001880605 -0.081818484 4283191368
-0.37535274 0.0035270471 -0.080163836 4283651403
-0.37442365 0.00516184 -0.078521162 4284829773
-0.37399834 0.0069501041 -0.077552214 4286798169
-0.37307921 0.008564245 -0.075927764 4290346862
-0.37265864 0.010337275 -0.074968666 4292441979
-0.37322545 0.012452289 -0.075321548 4291648357
-0.37379435 0.014575247 -0.075675666 4291188569
-0.37486479 0.016889531 -0.076692581 4292109903
-0.37644812 0.019409876 -0.078385085 4292834890
-0.37856165 0.022153584 -0.080773696 4292306002
-0.38018602 0.024736336 -0.082510643 4291843929
-0.38182852 0.027348155 -0.084266886 4291712347
-0.38402194 0.030203592 -0.086744145 4290798947
-0.38516912 0.032661077 -0.087838709 4289429105
-0.38741279 0.035589833 -0.090371072 4288574574
-0.3896907 0.03856359 -0.092942081 4289686631
-0.39144161 0.041341808 -0.094815485 4289961072
-0.39492577 0.044900812 -0.09895432 4288256623
-0.39790517 0.048283517 -0.10242273 4287931239
-0.40214351 0.052274484 -0.10752805 4288460903
-0.4046537 0.055532597 -0.11036517 4288659310
-0.40720451 0.058843642 -0.11324806 4288986745
-0.4110674 0.06280826 -0.11783286 4289378946
-0.3911024 -0.029942516 -0.11286817 4288832624
-0.39061379 -0.027963512 -0.11176397 4287585125
-0.38900363 -0.026217032 -0.10912292 4286734436
-0.38796636 -0.024375349 -0.10727177 4286276710
-0.38693705 -0.022547454 -0.10543483 4286211430
-0.38536936 -0.020854341 -0.10286499 4286472808
-0.38435975 -0.019056562 -0.1010621 4286534500
-0.38282147 -0.017398562 -0.098541155 4287845217
-0.38183087 -0.015630087 -0.096771352 4288780940
-0.38084772 -0.013874556 -0.095014751 4289578161
-0.37987193 -0.012131848 -0.093271211 4286877583
-0.37890342 -0.010401791 -0.091540612 4284700252
-0.37794206 -0.0086842477 -0.089822777 4282799467
-0.3775014 -0.0068361619 -0.088813685 4284129707
-0.37706235 -0.0049946005 -0.087808222 4290434751
-0.37662497 -0.0031595132 -0.086806484 4291944393
-0.37618917 -0.0013309006 -0.085808367 4289972921
-0.37626347 0.00064718717 -0.085500032 4285748833
-0.37532243 0.0023070916 -0.083822921 4283323224
-0.37438825 0.0039551831 -0.082158014 4283257427
-0.37346089 0.0055915862 -0.080505162 4283519309
-0.37254027 0.0072164023 -0.078864262 4284240207
-0.37261355 0.0091672456 -0.078560188 4286077270
-0.37219217 0.010945819 -0.077592894 4289685356
-0.37226534 0.012893695 -0.077289268 4290995319
-0.37333012 0.01520178 -0.078312151 4291188579
-0.37440267 0.017526945 -0.079342455 4291384667
-0.37598923 0.020060219 -0.081055768 4291778647
-0.37810701 0.022819074 -0.083472945 4291777626
-0.37973478 0.025415286 -0.085231453 4291711580
-0.38138077 0.028040892 -0.087009549 4290732644
-0.38357896 0.030912478 -0.089516826 4289297522
-0.38472873 0.03338211 -0.090626054 4288383096
-0.38643131 0.036098778 -0.09246511 4288573290
-0.38926068 0.03931874 -0.095791847 4289556580
-0.39101571 0.042112201 -0.097689018 4289306990
-0.39450839 0.045694303 -0.10187767 4288457061
-0.39808369 0.049361512 -0.1061654 4288394086
-0.40174469 0.053116854 -0.11055581 4288724332
-0.40426171 0.056395061 -0.11342875 4289048180
-0.40681952 0.059726793 -0.1163483 4289638523
-0.41069344 0.063718773 -0.12099022 4290034304
-0.39002612 -0.031646956 -0.11538711 4286482813
-0.38897467 -0.029767014 -0.11349391 4285302922
-0.38849103 -0.027791979 -0.11239068 4284518036
-0.38745162 -0.025937174 -0.11051994 4283928726
-0.38642019 -0.024096355 -0.10866351 4283864988
-0.38484937 -0.022387955 -0.10606545 4284128672
-0.38329652 -0.020698762 -0.10349699 4284588967
-0.38176125 -0.019028412 -0.10095763 4285179549
-0.38077268 -0.017250547 -0.099175498 4285950570
-0.37926599 -0.015614632 -0.096684083 4287979113
-0.37829599 -0.013865507 -0.094934426 4289044894
-0.37733322 -0.012129111 -0.093197741 4289709485
-0.37637758 -0.010405272 -0.091473885 4285959810
-0.37645224 -0.0084137879 -0.091163591 4282931312
-0.37550342 -0.0067094513 -0.089453481 4286355630
-0.37506878 -0.0048713051 -0.08844883 4291026890
-0.37463576 -0.0030396215 -0.087447785 4292009673
-0.3747099 -0.0010616329 -0.087139599 4290564291
-0.37478411 0.00091665017 -0.086831339 4289829519
-0.37384838 0.0025757684 -0.085149422 4289896333
-0.37291947 0.0042230729 -0.083479732 4289435012
-0.37249437 0.0060229478 -0.082496658 4287397494
-0.37207079 0.0078165382 -0.081517085 4284309103
-0.37164879 0.0096039176 -0.08054103 4283847514
-0.3717221 0.011558796 -0.080236435 4285551193
-0.37179542 0.013513948 -0.079931796 4287518817
-0.37286228 0.015832892 -0.080968089 4290074976
-0.37393695 0.01816909 -0.082011908 4291122271
-0.37552664 0.020715421 -0.083746344 4291778910
-0.37713394 0.02329029 -0.08549995 4291778401
-0.37927991 0.026099376 -0.087972775 4290732644
-0.38092941 0.028738832 -0.089773022 4289100147
-0.38313237 0.031626757 -0.092310697 4288120954
-0.38536888 0.034558915 -0.094886862 4287923574
-0.38653854 0.037071228 -0.096029319 4289095269
-0.38938519 0.040319379 -0.099409707 4289820001
-0.39115104 0.043135107 -0.101339 4289242732
-0.39466575 0.046750527 -0.10559534 4288723052
-0.39767182 0.050185502 -0.10916398 4288723309
-0.40073803 0.053689491 -0.11280393 4288526453
-0.40386623 0.057264581 -0.11651739 4287735676
-0.40705821 0.060912956 -0.12030654 4288324988
-0.38935539 -0.037458908 -0.1193655 4287471242
-0.3883023 -0.035549689 -0.11744964 4286027150
-0.38781792 -0.033556443 -0.11633459 4284650132
-0.38733545 -0.031570602 -0.11522391 4283733656
-0.38685486 -0.029592145 -0.11411747 4283406237
-0.38637614 -0.027621064 -0.11301521 4283276706
-0.38589934 -0.0256573 -0.11191722 4283344041
-0.38432536 -0.023933426 -0.10929058 4283344304
-0.38331169 -0.022110343 -0.10744953 4283476916
-0.38176748 -0.020422494 -0.10487325 4283478465
-0.37971044 -0.018877205 -0.10158879 4284854461
-0.37820679 -0.017229138 -0.099079229 4284386712
-0.37723881 -0.015470812 -0.097317472 4285819240
-0.37576294 -0.01385648 -0.094854951 4287848821
-0.37481302 -0.012126346 -0.093125075 4288848026
-0.37437791 -0.010272077 -0.092110097 4288854696
-0.3739444 -0.0084243482 -0.091098808 4285169540
-0.37401873 -0.0064397445 -0.090789668 4289514164
-0.37358671 -0.0046018995 -0.089782611 4291419591
-0.37315628 -0.0027705082 -0.088779211 4291682250
-0.37323037 -0.00079232408 -0.08847107 4291224526
-0.37330446 0.0011861617 -0.088162892 4292078290
-0.37237406 0.0028445192 -0.08647617 4292538575
-0.37194827 0.0046533877 -0.085484102 4292471754
-0.37152404 0.00645595 -0.084495626 4291551690
-0.37110135 0.008252224 -0.083510734 4289968564
-0.37068021 0.010042252 -0.082529329 4286944129
-0.37075359 0.01200088 -0.082224227 4284439395
-0.3713218 0.014138785 -0.082593799 4284568661
-0.37239072 0.016468691 -0.083643682 4286337621
-0.3729651 0.018627116 -0.084017754 4289681766
-0.37506035 0.021375494 -0.086456984 4291452018
-0.37667096 0.023963798 -0.088232264 4291190633
-0.37882137 0.026788622 -0.090734854 4289427825
-0.38047436 0.029442124 -0.092557512 4288120440
-0.38322017 0.032567848 -0.09585385 4287793528
-0.38547003 0.035524227 -0.098471984 4287660148
-0.38609597 0.037820511 -0.098891355 4289487460
-0.38894922 0.04108867 -0.10231253 4289953122
-0.39071929 0.043920085 -0.10426635 4289178730
-0.39482465 0.047819328 -0.1093572 4288723310
-0.39844638 0.051556341 -0.11378603 4288325230
-0.4009366 0.054822091 -0.11668519 4287137889
-0.40346724 0.058141205 -0.11963135 4285625945
-0.40603924 0.06151491 -0.12262562 4286087522
-0.38932875 -0.041122515 -0.12385643 4287734410
-0.38770366 -0.039276402 -0.12110875 4285896337
-0.38665688 -0.03736018 -0.11918621 4284519576
-0.38561827 -0.035458524 -0.11727852 4283799453
-0.3856962 -0.033374246 -0.11695398 4283276193
-0.38521868 -0.031392403 -0.11584429 4283211687
-0.38529649 -0.029311528 -0.11552026 4283277995
-0.38482067 -0.027340775 -0.11441538 4283147954
-0.38434672 -0.025377344 -0.11331477 4283280056
-0.38332701 -0.023538234 -0.11144773 4283412412
-0.38177374 -0.021832621 -0.10883386 4283346621
-0.37970483 -0.020267935 -0.10550077 4283148474
-0.37766707 -0.018726524 -0.10221779 4283736749
-0.37617761 -0.017082186 -0.099709474 4283473317
-0.37470481 -0.015455945 -0.097229145 4283996569
-0.37375695 -0.013716744 -0.095487349 4285167492
-0.37281609 -0.011990125 -0.093758397 4287458424
-0.37238532 -0.0101393 -0.092744187 4288782485
-0.37245953 -0.0081547974 -0.092435166 4286883503
-0.37203029 -0.006313866 -0.091425188 4289971904
-0.37160262 -0.0044794348 -0.090418868 4291418565
-0.37167659 -0.0025013536 -0.090110853 4291875003
-0.37175056 -0.00052294153 -0.089802787 4290035887
-0.37182456 0.0014557395 -0.08949466 4289306535
-0.37089947 0.003113281 -0.087803133 4289830559
-0.37047628 0.0049218601 -0.086808741 4288659120
-0.37005463 0.0067241266 -0.085817903 4288400081
-0.37012812 0.008689533 -0.085511848 4291222996
-0.37020162 0.010655212 -0.085205778 4291354312
-0.37027514 0.012621157 -0.084899642 4287537556
-0.37034866 0.014587432 -0.08459346 4284702049
-0.37191546 0.017109198 -0.086339146 4286466648
-0.37249094 0.019276941 -0.086719632 4291388535
-0.37459037 0.022040512 -0.089187987 4291784344
-0.37672111 0.024845634 -0.091693126 4290148472
-0.37835911 0.027483124 -0.093517907 4288382326
-0.38054657 0.030367114 -0.096088871 4287727480
-0.38276738 0.033295348 -0.098698929 4287726197
-0.38502234 0.036268853 -0.10134907 4287851117
-0.38675585 0.039050099 -0.1032824 4289617252
-0.38850957 0.041864026 -0.10523819 4290018917
-0.39085364 0.044963725 -0.10799123 4289244012
-0.39439937 0.048637129 -0.11236887 4288195952
-0.3980304 0.05239917 -0.11685173 4287204464
-0.40052718 0.05568514 -0.11978746 4285621078
-0.40306467 0.059025019 -0.12277093 4284240452
-0.40564385 0.062420066 -0.12580338 4285294676
-0.38653585 -0.043112889 -0.12398604 4286683534
-0.38493332 -0.041262411 -0.12124845 4284651673
-0.38445523 -0.039258551 -0.12012631 4283669150
-0.38508955 -0.03707872 -0.12059717 4283671974
-0.38405687 -0.035177942 -0.11868411 4284458924
-0.38468915 -0.032993812 -0.11915111 4283605162
-0.38421255 -0.031008648 -0.11803508 4283147696
-0.38429043 -0.028923523 -0.1177105 4283214263
-0.38436827 -0.026838111 -0.11738587 4283150015
-0.38389325 -0.024867835 -0.1162753 4283084737
-0.38232461 -0.023141466 -0.11361349 4282952378
-0.38077399 -0.021434657 -0.11098224 4282950831
-0.37870863 -0.019869827 -0.1076265 4283015335
-0.3761518 -0.018452562 -0.10358166 4283212199
-0.37467077 -0.016809564 -0.10106574 4283212198
-0.37269688 -0.015313135 -0.097858459 4283343525
-0.37175807 -0.013577478 -0.09611766 4283801248
-0.37082621 -0.011854335 -0.094389617 4284712336
-0.37039986 -0.010006994 -0.093376212 4287001718
-0.3704738 -0.0080259172 -0.093067825 4287403665
-0.37004891 -0.0061884392 -0.092058606 4290166451
-0.37012273 -0.0042104311 -0.091750711 4289844163
-0.37019661 -0.0022321218 -0.091442741 4290694340
-0.37027049 -0.00025354 -0.091134749 4287144877
-0.3703444 0.00172534 -0.090826698 4284449963
-0.36992052 0.0035430246 -0.089823216 4284973210
-0.36949825 0.0053543248 -0.088823356 4285506483
-0.36907753 0.0071592997 -0.087827109 4286164409
-0.36865833 0.0089579532 -0.086834438 4288193715
-0.36922461 0.011097964 -0.087213993 4290235869
-0.36929813 0.013067701 -0.086907372 4290368203
-0.36986661 0.015219725 -0.087287657 4286347644
-0.37093589 0.01756685 -0.088360734 4288240489
-0.37201303 0.019931596 -0.089441672 4292512129
-0.37360644 0.022511957 -0.091233745 4291524987
-0.37625167 0.025531374 -0.094474755 4288971385
-0.37841901 0.028395114 -0.097048201 4287792760
-0.3800852 0.031083319 -0.098924264 4287594869
-0.38231087 0.034028437 -0.10156606 4287786860
-0.3845709 0.037019286 -0.10424858 4289027423
-0.38686597 0.040056873 -0.10697269 4290533468
-0.38806626 0.042645447 -0.10818693 4290475619
-0.39098927 0.046019759 -0.11176035 4289107052
-0.3939704 0.049461462 -0.11540469 4286875235
-0.39761075 0.053248819 -0.11994234 4285032285
-0.40011418 0.056555234 -0.12291514 4283912013
-0.40265852 0.059916105 -0.12593646 4283519302
-0.40461501 0.063028947 -0.1281486 4284573270
-0.38592714 -0.046890508 -0.12769203 4287866253
-0.38376474 -0.04508777 -0.1241147 4285569687
-0.38054526 -0.04347099 -0.11901338 4283996831
-0.37953985 -0.041564614 -0.117125 4283407780
-0.37907848 -0.039586879 -0.11602599 4283867817
-0.38077697 -0.037255805 -0.11804621 4286894772
-0.37977073 -0.035372451 -0.11616141 4284327092
-0.38147652 -0.033011809 -0.11818623 4283080616
-0.38210127 -0.030831443 -0.11865053 4282952116
-0.38217887 -0.028750148 -0.11832666 4283410879
-0.38225645 -0.026668567 -0.11800274 4283215551
-0.38343596 -0.024354285 -0.11925909 4282886072
-0.38241172 -0.022504486 -0.11735475 4283015852
-0.37977016 -0.021035129 -0.11313907 4282753707
-0.37770838 -0.01947015 -0.1097606 4282949545
-0.37463626 -0.018178528 -0.10494576 4283277478
-0.37316364 -0.016536897 -0.10242225 4283211427
-0.37120086 -0.015042264 -0.099204965 4285048221
-0.37026748 -0.013307413 -0.097459219 4287078802
-0.36934102 -0.011585095 -0.095726311 4284521895
-0.36891729 -0.0097380206 -0.094710514 4284584599
-0.36849511 -0.0078974981 -0.09369839 4286480512
-0.36856887 -0.005919564 -0.093390584 4288319631
-0.36864263 -0.0039413581 -0.093082756 4289575599
-0.36871639 -0.0019628496 -0.092774868 4290623922
-0.36879015 1.5931628e-05 -0.092466958 4285829011
-0.36886394 0.0019950103 -0.092158973 4283065214
-0.36844271 0.0038123988 -0.0911531 4284581265
-0.36802304 0.0056234035 -0.090150878 4284056725
-0.36809659 0.0075961049 -0.089843899 4285050559
-0.36767831 0.0093974508 -0.088845819 4289444789
-0.36775175 0.011367147 -0.08853931 4291614413
-0.36782518 0.013337113 -0.088232763 4292273105
-0.36839086 0.015489798 -0.088615552 4288321185
-0.36995241 0.018026235 -0.090390012 4289751425
-0.37102783 0.020397257 -0.091480531 4291520893
-0.37312785 0.023185013 -0.093998283 4290017139
-0.37525943 0.026014956 -0.096553788 4288054135
-0.37795028 0.029102331 -0.099881999 4287529590
-0.38069257 0.032249093 -0.10327385 4287656300
-0.38239422 0.034996234 -0.10521107 4288832607
-0.38466793 0.038012173 -0.1079375 4290468184
-0.38641608 0.040831115 -0.10992836 4291319642
-0.38932276 0.044187456 -0.11351905 4290081122
-0.39054918 0.046828698 -0.11477595 4287265896
-0.39353773 0.050292432 -0.11846504 4284834388
-0.39718744 0.054105386 -0.12305822 4283386693
-0.39908659 0.0571444 -0.12522596 4282860864
-0.40162766 0.060517188 -0.12827255 4282993216
-0.40295529 0.063335948 -0.12964165 4283981392
-0.38203821 -0.048996784 -0.1261805 4287472272
-0.37937954 -0.0472636 -0.12184753 4284784542
-0.3778396 -0.045414269 -0.11915936 4283539622
-0.37578842 -0.043663595 -0.11572913 4283146665
-0.37481248 -0.041778028 -0.11387486 4283015593
-0.37488845 -0.039737593 -0.11355744 4284523169
-0.37654656 -0.037429489 -0.11554427 4286949786
-0.37715456 -0.035283007 -0.11599834 4285571223
-0.37883854 -0.032930769 -0.1180145 4283735964
-0.37999782 -0.030654849 -0.11926381 4284656058
-0.38061962 -0.028469387 -0.11973024 4283740359
-0.38234362 -0.026048863 -0.12179165 4283147697
-0.38242158 -0.02395458 -0.12146587 4282950575
-0.38139915 -0.02210254 -0.11954927 4283081645
-0.37876213 -0.020634014 -0.11530446 4282950317
-0.37670404 -0.019068873 -0.11190309 4283146922
-0.37363738 -0.017779181 -0.107055 4283343783
-0.37165624 -0.016264154 -0.10377901 4283276966
-0.36970454 -0.014771377 -0.10055171 4287670162
-0.36877662 -0.013037329 -0.098801054 4287276152
-0.36785555 -0.011315777 -0.097063273 4285704091
-0.36743447 -0.0094690314 -0.096045069 4284721060
-0.36701491 -0.0076287747 -0.095030561 4284849822
-0.36708856 -0.0056506419 -0.09472283 4285825676
-0.3671622 -0.0036722322 -0.094415076 4288119689
-0.36723587 -0.0016935285 -0.094107263 4289834670
-0.36730954 0.00028545127 -0.093799397 4289117873
-0.36738321 0.0022647295 -0.093491495 4286747017
-0.36696461 0.0040818206 -0.092483252 4284573307
-0.36703816 0.0060580382 -0.092175826 4283065213
-0.36662096 0.0078654308 -0.091171764 4283868081
-0.36669445 0.0098386295 -0.090864792 4290171840
-0.36676788 0.0118121 -0.090557799 4292272593
-0.36733258 0.013965861 -0.090945654 4292271563
-0.3678993 0.016127823 -0.091334917 4290548376
-0.36896503 0.018487381 -0.092426993 4291126386
-0.3705413 0.021059832 -0.094235875 4290797677
-0.37264541 0.023863176 -0.096783735 4288904309
-0.37530136 0.026918532 -0.10010171 4287660149
-0.37800786 0.030032389 -0.10348281 4287590253
-0.38076642 0.033206455 -0.10692888 4288766815
-0.3830274 0.03620841 -0.10966876 4290337369
-0.38476583 0.039016731 -0.11166986 4291254363
-0.38652471 0.041858368 -0.11369447 4291058266
-0.38887587 0.04498899 -0.11654178 4288704345
-0.39126453 0.048169829 -0.11943448 4285753168
-0.39251339 0.050859239 -0.12073016 4283780419
-0.39615792 0.054687005 -0.12536018 4283057213
-0.39805457 0.057735991 -0.12754652 4283320895
-0.39997452 0.060822796 -0.12975968 4283321152
-0.40191823 0.063948095 -0.13200016 4283716424
-0.38038969 -0.050810762 -0.12792034 4287605137
-0.37774685 -0.049060147 -0.12357067 4284654243
-0.3751547 -0.047342744 -0.11930431 4283344046
-0.37365344 -0.045510374 -0.11665632 4283147952
-0.37216932 -0.043698512 -0.11403839 4282884783
-0.3712143 -0.041826867 -0.1122046 4284588192
-0.37077707 -0.03988545 -0.11113565 4288785531
-0.37448186 -0.037243262 -0.11615537 4290753888
-0.37561327 -0.035006054 -0.11738581 4290098016
-0.37836421 -0.032452162 -0.12098793 4286951039
-0.38061917 -0.029954234 -0.12385506 4284653480
-0.38179895 -0.027639402 -0.12514199 4283737774
-0.38243148 -0.025421789 -0.12562542 4283147698
-0.38195527 -0.023434341 -0.12448804 4283213233
-0.38093057 -0.021576896 -0.12255229 4283016625
-0.37774995 -0.020231269 -0.11747849 4283147696
-0.37516776 -0.018791288 -0.11328586 4283147181
-0.37211841 -0.017504534 -0.1084222 4283343533
-0.37014854 -0.015991366 -0.10513601 4283605411
-0.36820796 -0.014500416 -0.1018987 4285702290
-0.36678985 -0.012899413 -0.099424809 4287146378
-0.36587772 -0.011181341 -0.097687989 4289115265
-0.3654609 -0.009338038 -0.096670583 4286098307
-0.36553442 -0.0073600058 -0.096362971 4284721314
-0.36560798 -0.0053816745 -0.096055314 4284522400
-0.36568153 -0.0034030699 -0.09574762 4285432209
-0.36575508 -0.001424164 -0.095439874 4287918979
-0.36582866 0.00055501156 -0.09513209 4289046434
-0.36590222 0.0025344919 -0.094824255 4289708720
-0.36597583 0.0045142714 -0.094516389 4287665304
-0.36604944 0.0064943191 -0.094208449 4284374408
-0.36612302 0.0084746731 -0.093900494 4286420150
-0.36619666 0.010455324 -0.093592465 4291025871
-0.3662703 0.012436253 -0.093284421 4292338385
-0.36683601 0.014599297 -0.093678795 4291086271
-0.36740384 0.016770622 -0.094074562 4290935436
-0.36897129 0.019333415 -0.095892735 4291647851
-0.37055627 0.021925196 -0.097731188 4290145386
-0.37267226 0.024751088 -0.10031976 4288183155
-0.37534347 0.027832471 -0.10369025 4287786604
-0.37806585 0.030973196 -0.10712525 4288832350
-0.38084087 0.034174971 -0.11062662 4290271318
-0.38311553 0.037202254 -0.11341142 4291057497
-0.38486457 0.040033143 -0.11544639 4291189596
-0.38663432 0.042897824 -0.11750534 4289749080
-0.3884252 0.045796964 -0.11958881 4286537039
-0.39023748 0.048731122 -0.12169716 4284305479
-0.39148465 0.051428359 -0.12300461 4283254080
-0.39452478 0.054988518 -0.12682939 4282992190
-0.39701796 0.05833007 -0.12987679 4283453508
-0.39832106 0.061128426 -0.13124712 4283650886
-0.40025443 0.064255871 -0.13349687 4284242507
-0.37504682 -0.05098566 -0.1236994 4287474330
-0.37249017 -0.049256522 -0.11944818 4284197035
-0.36998188 -0.047559787 -0.11527731 4283082935
-0.36903676 -0.045677479 -0.11344244 4282951608
-0.36860433 -0.043732885 -0.11237336 4283081903
-0.36766973 -0.0418749 -0.11055957 4286948748
-0.36724231 -0.039947707 -0.10950179 4291474001
-0.36832306 -0.037766919 -0.11068199 4292523084
-0.36839783 -0.035752319 -0.11036881 4292392265
-0.37153894 -0.033161592 -0.11459291 4289901413
-0.37422445 -0.030613974 -0.11813381 4284915614
-0.37589133 -0.028233729 -0.12016236 4283475628
-0.37703902 -0.025938587 -0.12142005 4283213749
-0.37928358 -0.023388762 -0.1242905 4283213492
-0.3782731 -0.021538468 -0.12236308 4283147956
-0.37619871 -0.019951174 -0.11887476 4283082164
-0.37363124 -0.018513691 -0.11466889 4283213235
-0.37008798 -0.017356182 -0.10903957 4283278252
-0.36813685 -0.01584677 -0.10575504 4283669404
-0.36621469 -0.01435943 -0.10251918 4284130715
-0.36530119 -0.012629711 -0.10076463 4287997567
-0.36439443 -0.010912429 -0.09902297 4287736438
-0.36398026 -0.0090694241 -0.098003164 4286557072
-0.36405367 -0.0070911953 -0.097695626 4288198804
-0.36412713 -0.0051126629 -0.097388044 4285507995
-0.36420056 -0.0031338595 -0.097080417 4284063399
-0.36427402 -0.0011547579 -0.09677273 4285169294
-0.36434749 0.00082461984 -0.096465021 4287456891
-0.36442098 0.0028042959 -0.096157268 4288977038
-0.36449447 0.0047842739 -0.095849447 4289574314
-0.36456797 0.0067645544 -0.095541604 4286878111
-0.36464149 0.0087451031 -0.095233694 4289243320
-0.36471501 0.010725925 -0.094925754 4291615438
-0.36527774 0.012885747 -0.095323265 4291877573
-0.36584255 0.015053815 -0.095722206 4290486691
-0.36690441 0.017418241 -0.096834801 4291060598
-0.36847481 0.019994393 -0.098675206 4291189096
-0.37006283 0.022599801 -0.10053627 4289163117
-0.37218302 0.025441652 -0.10315586 4288047722
-0.3748596 0.028541546 -0.10656624 4288897376
-0.37812421 0.031924907 -0.11081004 4290337110
-0.38091588 0.035154849 -0.11436775 4290991959
-0.3826485 0.037968066 -0.11640449 4290729559
-0.38440162 0.040814843 -0.11846521 4289352533
-0.38617551 0.043695759 -0.12055035 4286927704
-0.38797063 0.046611406 -0.1226604 4285156961
-0.38978735 0.049562436 -0.12479573 4284040785
-0.39103758 0.052274115 -0.12612095 4282991423
-0.39348722 0.05557321 -0.12914424 4282729788
-0.39537108 0.058634277 -0.13135831 4283059010
-0.39727825 0.061733399 -0.1335997 4283782475
-0.39859036 0.064563692 -0.13499382 4285623643
-0.37095496 -0.048981976 -0.12083036 4286620056
-0.36846104 -0.047287628 -0.1166465 4284063921
-0.36701712 -0.045479275 -0.11404848 4283018942
-0.36558938 -0.043690886 -0.11147959 4282951351
-0.36467114 -0.041843239 -0.10967933 4286752399
-0.36474523 -0.039844025 -0.10936865 4291735625
-0.36531499 -0.037757818 -0.10979955 4293047366
-0.3658869 -0.035663504 -0.11023205 4292654666
-0.36898756 -0.033081356 -0.11443871 4289901674
-0.37163836 -0.030542491 -0.11796469 4284326310
-0.37328383 -0.028170763 -0.11998457 4283082421
-0.37548181 -0.025658019 -0.12282176 4283017658
-0.37717217 -0.023224849 -0.12489737 4283082935
-0.37670967 -0.021256361 -0.12377038 4283083191
-0.37464723 -0.019671032 -0.12027128 4283082678
-0.37209445 -0.018236019 -0.11605214 4283082422
-0.36806488 -0.017208366 -0.1096549 4283148722
-0.36613238 -0.015702643 -0.10637196 4283344043
-0.36422855 -0.014218923 -0.10313761 4283410348
-0.36332396 -0.012492717 -0.10138407 4285179041
-0.36242604 -0.010778896 -0.099643409 4284786585
-0.36201611 -0.0089393212 -0.098624408 4285705612
-0.36208931 -0.006964521 -0.098317504 4286622345
-0.3621625 -0.0049894205 -0.098010562 4284327078
-0.36271936 -0.0028646078 -0.098413445 4283476399
-0.3627927 -0.00088530401 -0.098105848 4283866534
-0.36286607 0.0010942991 -0.097798191 4285166988
-0.36293945 0.0030741775 -0.097490512 4286800751
-0.36301282 0.0050543551 -0.097182766 4288770426
-0.36308622 0.0070348005 -0.096874982 4287794826
-0.36364585 0.0091874208 -0.097276248 4289635221
-0.3637194 0.01117212 -0.096967801 4290560436
-0.36428124 0.01333695 -0.097369879 4289965989
-0.36484519 0.015510065 -0.097773433 4290804354
-0.36541119 0.017691491 -0.098178416 4291651439
-0.3674728 0.020464517 -0.10075122 4290077029
-0.36905807 0.023077663 -0.10262754 4288568931
-0.37168974 0.026137486 -0.10601366 4289091929
-0.37437177 0.029256094 -0.10946448 4290336086
-0.37710559 0.032435227 -0.11298189 4290991447
-0.38044101 0.035911012 -0.11735892 4290597977
-0.38217753 0.038739949 -0.11942135 4289417301
-0.38393462 0.041602761 -0.12150815 4287188303
-0.38571268 0.044500045 -0.12361979 4285091682
-0.38751212 0.04743243 -0.12575677 4284245391
-0.38875058 0.050130002 -0.12708336 4283848044
-0.38999906 0.052849665 -0.12842056 4282991166
-0.39244506 0.056160357 -0.13146874 4282532668
-0.39372388 0.058938563 -0.13284013 4283124291
-0.39501327 0.061739892 -0.13422275 4284833879
-0.36788091 -0.048910026 -0.11987494 4286546810
-0.36542985 -0.04722571 -0.11572369 4286546824
-0.3640109 -0.045427639 -0.11314551 4285116598
-0.36309844 -0.043573625 -0.11133917 4283674558
-0.36219272 -0.041733064 -0.1095462 4285442979
-0.36226645 -0.039741039 -0.10923672 4289378419
-0.36282936 -0.037662189 -0.10966588 4291276643
-0.36290327 -0.035665888 -0.10935572 4291080556
-0.36595267 -0.033098157 -0.11352884 4287082639
-0.36855948 -0.030573696 -0.11702622 4283278523
-0.36966151 -0.028322339 -0.11825301 4283017401
-0.37181476 -0.02582984 -0.12105523 4282821052
-0.37241557 -0.023650454 -0.12152166 4282886329
-0.37407821 -0.021219259 -0.12357771 4282952120
-0.37100023 -0.019887375 -0.11853117 4283017402
-0.36901233 -0.018336015 -0.115125 4282886330
-0.3655493 -0.017186932 -0.10952146 4282952377
-0.3636426 -0.015686797 -0.1062518 4283147957
-0.36176404 -0.014208472 -0.10303032 4283214258
-0.36087173 -0.012488445 -0.10128373 4283411124
-0.3604646 -0.01064581 -0.10026181 4283345328
-0.36005893 -0.0088096475 -0.099243626 4283870377
-0.36013186 -0.0068382346 -0.098937355 4284066472
-0.36020485 -0.0048665861 -0.098631032 4283475374
-0.36075693 -0.0027452165 -0.099034391 4283476143
-0.36131111 -0.00061577617 -0.099439189 4283738544
-0.36138439 0.0013639961 -0.099131614 4283799461
-0.36145765 0.0033440739 -0.098824002 4284777866
-0.36153093 0.0053244499 -0.098516338 4286607217
-0.36160421 0.0073051243 -0.098208621 4287585892
-0.36216101 0.009458445 -0.098612413 4288703077
-0.36223447 0.01144334 -0.098304033 4289033079
-0.36279345 0.013608838 -0.098708645 4289554802
-0.3638438 0.015968043 -0.09983249 4291256427
-0.36440894 0.018154567 -0.10024211 4291713892
-0.36646679 0.020936444 -0.10283525 4289485147
-0.36855567 0.023760503 -0.10546738 4289154901
-0.37119249 0.026838658 -0.10889345 4290399827
-0.37387991 0.029976184 -0.11238527 4291121750
-0.37715822 0.033402983 -0.11672994 4291055960
-0.37996215 0.036673144 -0.12037379 4289940821
-0.38170251 0.039517999 -0.12246222 4287383122
-0.38346368 0.042397019 -0.12457553 4284762197
-0.38524592 0.045310836 -0.12671404 4284174940
-0.38704965 0.048260067 -0.12887833 4283916401
-0.38829112 0.050972112 -0.13022292 4283520348
-0.38954267 0.053706411 -0.13157831 4283123778
-0.3913984 0.056749951 -0.13380302 4283058757
-0.39267546 0.059536468 -0.13518684 4284308309
-0.3658478 -0.048704483 -0.12047373 4285887083
-0.36342031 -0.047025055 -0.11632475 4288454282
-0.36201516 -0.04523126 -0.11374806 4287209894
-0.36111167 -0.043381214 -0.11194295 4284981166
-0.36021492 -0.041544579 -0.11015111 4284199360
-0.3598057 -0.039638769 -0.10910603 4285380792
-0.36036187 -0.037567232 -0.10953341 4286296755
-0.35995242 -0.035668198 -0.10848938 4286035384
-0.36295155 -0.033114694 -0.11262944 4284066752
-0.36501351 -0.030705618 -0.11533669 4282753987
-0.36609375 -0.028471576 -0.1165479 4282689468
-0.36769173 -0.026109859 -0.11854059 4282623674
-0.36827892 -0.023951558 -0.11899785 4282754231
-0.36784279 -0.022022447 -0.11790577 4282820792
-0.36740834 -0.020100376 -0.11681779 4282886331
-0.36596483 -0.018434841 -0.11420856 4282952121
-0.36305219 -0.017165648 -0.10938925 4283083706
-0.36165711 -0.015543648 -0.10686486 4283083450
-0.35979652 -0.014068928 -0.1036449 4283083449
-0.35891297 -0.012352348 -0.10189928 4282952891
-0.35851005 -0.01051316 -0.10087822 4282952375
-0.35810861 -0.0086803725 -0.09986081 4283083448
-0.35818133 -0.0067123952 -0.099555179 4283280312
-0.35872862 -0.0045983968 -0.099959597 4283279542
-0.3592779 -0.0024763716 -0.10036546 4283411123
-0.35935092 -0.00050030393 -0.10005856 4283542195
-0.35990238 0.0016337712 -0.10046529 4283342251
-0.35997561 0.0036140403 -0.10015772 4283670436
-0.36004877 0.0055946158 -0.099850126 4284979093
-0.36012197 0.0075754891 -0.099542484 4286209125
-0.3606759 0.0097295064 -0.099948809 4287514961
-0.36074927 0.011714604 -0.099640496 4288432984
-0.36179 0.014062338 -0.10076582 4290533726
-0.36283848 0.016427761 -0.10189943 4291650407
-0.36389476 0.018811122 -0.10304146 4291514972
-0.36746663 0.022208083 -0.10789639 4290269013
-0.36958286 0.025068862 -0.1105921 4290333778
-0.37225473 0.028189322 -0.11410032 4290990166
-0.37444484 0.031146811 -0.11689085 4291187290
-0.37721121 0.03438209 -0.12052216 4291120982
-0.38003209 0.037681501 -0.12422501 4289416531
-0.38178319 0.040549509 -0.12634894 4285809225
-0.38355523 0.043452151 -0.1284982 4283909966
-0.3847751 0.046128184 -0.12983337 4283912020
-0.38658315 0.049094468 -0.13202532 4283978065
-0.38724446 0.051546071 -0.1325359 4283650893
-0.38849419 0.054288462 -0.13390355 4283782734
-0.38975412 0.057053503 -0.13528226 4284571991
-0.39102432 0.059841521 -0.13667221 4286019176
-0.36576325 -0.050270878 -0.12450823 4286873456
-0.3638221 -0.04849967 -0.12107055 4287526768
-0.36141801 -0.046825103 -0.1169238 4289377697
-0.36002657 -0.04503556 -0.11434866 4288847007
-0.35913205 -0.043189477 -0.11254472 4287002769
-0.35776609 -0.041435994 -0.11001747 4284063931
-0.35736281 -0.039537206 -0.10897654 4283217105
-0.35743579 -0.037559185 -0.10866945 4283152345
-0.35656068 -0.035759691 -0.10690601 4283020500
-0.35901752 -0.033320554 -0.11025805 4282624713
-0.36054313 -0.031034654 -0.11217492 4282361793
-0.36159444 -0.028826727 -0.1133608 4282493117
-0.36314896 -0.026493445 -0.1153131 4282426810
-0.36372083 -0.02436005 -0.11575921 4282491574
-0.36379552 -0.022335229 -0.11544484 4282688948
-0.36387023 -0.02031013 -0.11513043 4282557107
-0.36196518 -0.018778376 -0.11180073 4282754482
-0.35960519 -0.017393243 -0.1077852 4283017913
-0.35871729 -0.015655296 -0.10601482 4282952381
-0.35736132 -0.014058966 -0.10353683 4283018172
-0.35648981 -0.012348527 -0.10179807 4282822078
-0.35609266 -0.010515838 -0.10078095 4282952891
-0.35616511 -0.0085515548 -0.100476 4282952890
-0.35623762 -0.0065869452 -0.10017098 4283018170
-0.35678026 -0.0044764103 -0.10057587 4283083962
-0.35732487 -0.0023578166 -0.10098219 4283346102
-0.3578715 -0.00023117945 -0.10138996 4283147698
-0.35842016 0.0019035835 -0.10179919 4283211944
-0.35849324 0.0038840522 -0.1014917 4283408809
-0.35856631 0.0058648298 -0.10118417 4284265400
-0.35863942 0.0078459065 -0.10087661 4285035912
-0.35967031 0.010174618 -0.10200454 4287055955
-0.35974368 0.012163579 -0.10169575 4289089622
-0.36078253 0.014517523 -0.10283084 4291388514
-0.36231828 0.017077697 -0.10470513 4292042854
-0.36436796 0.01986203 -0.10734168 4292041060
-0.36797318 0.023299038 -0.1122908 4291383136
-0.37010941 0.02619032 -0.11504095 4291121241
-0.37280691 0.029345967 -0.11861937 4291123293
-0.37555712 0.032563582 -0.12226769 4291122011
-0.37836158 0.035844948 -0.12598787 4291055191
-0.38010263 0.038701918 -0.1281224 4288499541
-0.38130131 0.041342586 -0.12944828 4285155146
-0.38307747 0.044261888 -0.13162485 4283779916
-0.3843002 0.046952162 -0.13297805 4283584339
-0.38611257 0.049935702 -0.13519801 4283717209
-0.38677552 0.052399147 -0.13571723 4283719260
-0.38802829 0.055156406 -0.13710345 4284508002
-0.38929135 0.057936549 -0.13850097 4286151020
-0.36524364 -0.049865622 -0.12747326 4285361769
-0.36329898 -0.048090562 -0.12400012 4289176200
-0.36138359 -0.046341967 -0.12057921 4289773228
-0.3599844 -0.044544883 -0.11796915 4289834918
-0.35811862 -0.042844828 -0.1146375 4288643216
-0.35723272 -0.041009773 -0.11283586 4286086807
-0.35635337 -0.039187964 -0.11104744 4283279553
-0.35595262 -0.037292842 -0.11000465 4282494924
-0.35508281 -0.035494126 -0.10823639 4282362828
-0.35609838 -0.033335496 -0.10939045 4282362822
-0.3575992 -0.031062208 -0.11129193 4282231491
-0.35815215 -0.028969361 -0.11172412 4282361790
-0.35870719 -0.026868397 -0.11215787 4282295481
-0.35926431 -0.024759337 -0.11259318 4282360244
-0.35837263 -0.022985371 -0.11079536 4282951344
-0.35941184 -0.020754294 -0.11197159 4282687660
-0.35851964 -0.018994583 -0.11017597 4282623409
-0.35668197 -0.017494587 -0.10693185 4282886584
-0.35580963 -0.015765639 -0.10517441 4282755518
-0.35494363 -0.014049059 -0.1034298 4282821822
-0.3545492 -0.012213338 -0.10240982 4282822078
-0.35415626 -0.010384032 -0.10139353 4282886845
-0.3542285 -0.0084231328 -0.10108919 4282887357
-0.35430074 -0.0064619337 -0.1007848 4282887613
-0.35483873 -0.0043547987 -0.10119013 4283084475
-0.35584798 -0.0020893409 -0.10231132 4283017912
-0.35639182 3.7985737e-05 -0.10272159 4282950064
-0.35693765 0.0021734438 -0.10313334 4283212198
-0.35701063 0.0041541108 -0.10282592 4284720548
-0.35708362 0.0061350884 -0.10251847 4284330947
-0.3571566 0.0081163589 -0.10221095 4284516256
-0.35818189 0.010446276 -0.10334391 4287319643
-0.35825521 0.012435432 -0.10303517 4290269017
-0.35977107 0.014974448 -0.10490378 4291649379
-0.3613039 0.017542155 -0.10679323 4291909475
-0.36384726 0.020532491 -0.1101999 4291778669
-0.36848718 0.024406744 -0.11675287 4291450996
-0.37064379 0.027329132 -0.11955874 4291318630
-0.37336743 0.030520711 -0.12320921 4290992232
-0.37614471 0.033775404 -0.1269315 4291122274
-0.37842199 0.036854263 -0.12989594 4291058271
-0.37961388 0.039487496 -0.13122901 4287714904
-0.3808153 0.042142112 -0.13257264 4284633169
-0.38259554 0.045078181 -0.13477693 4283386956
-0.38382119 0.047782835 -0.13614841 4283059019
-0.38505676 0.050509769 -0.137531 4283257941
-0.38688841 0.053539969 -0.13979693 4283916387
-0.38755828 0.056031525 -0.14032981 4285493874
-0.36618161 -0.051327128 -0.13320908 4285360737
-0.36471978 -0.049457207 -0.13046135 4285362030
-0.36277154 -0.047678292 -0.12695223 4289642402
-0.36134845 -0.045853302 -0.12427641 4290101423
-0.35945129 -0.044124305 -0.1208599 4290297519
-0.35758242 -0.042420808 -0.11749431 4289897631
-0.35621729 -0.040661439 -0.11492562 4288314245
-0.35533997 -0.038837377 -0.11312626 4285304991
-0.35446912 -0.03702642 -0.11134011 4283150275
-0.35313866 -0.035318382 -0.108838 4282494152
-0.35321105 -0.033350263 -0.10853264 4282494151
-0.35421777 -0.031187249 -0.1096857 4282428357
-0.35476035 -0.029109823 -0.1101118 4282361534
-0.35577843 -0.026918562 -0.11127699 4282163384
-0.3558515 -0.024931071 -0.11096863 4282622646
-0.35640016 -0.022829637 -0.11139934 4283214777
-0.35647342 -0.020837888 -0.11109032 4282755510
-0.35559687 -0.019087408 -0.10930795 4282493627
-0.35379061 -0.017594807 -0.10608809 4282755771
-0.35386312 -0.015624076 -0.10578232 4282755772
-0.35300571 -0.013910921 -0.10403873 4282493627
-0.35261545 -0.012078623 -0.1030196 4282821309
-0.35222659 -0.010252698 -0.10200407 4282952381
-0.35229859 -0.0082951384 -0.10170036 4282887614
-0.35237062 -0.0063373079 -0.10139659 4282821824
-0.35336706 -0.0040874546 -0.10251457 4283018424
-0.35437086 -0.0018208247 -0.10364068 4282885555
-0.35491186 0.00030719888 -0.10405347 4282950576
-0.35545489 0.0024433492 -0.10446773 4283213489
-0.35552776 0.0044242148 -0.10416038 4286494390
-0.35560063 0.0064053908 -0.103853 4284985022
-0.35567352 0.0083868615 -0.10354557 4284321190
-0.35669327 0.010718004 -0.1046835 4287780197
-0.35724264 0.012886698 -0.105101 4290858587
-0.35875556 0.015433146 -0.10698466 4291515231
-0.36077449 0.01820004 -0.10963353 4291449441
-0.36332235 0.0212081 -0.11307997 4291187302
-0.36848891 0.025319984 -0.12049454 4291122798
-0.37118614 0.028485687 -0.1241471 4291252589
-0.37393647 0.031713918 -0.12787142 4290796667
-0.37564412 0.034534913 -0.13000888 4290995310
-0.37792638 0.037632324 -0.13300981 4290538855
-0.37912092 0.040279407 -0.13436069 4287456090
-0.38032508 0.042948082 -0.1357224 4284438351
-0.38210943 0.045901109 -0.13795477 4283124292
-0.38391557 0.048890483 -0.14021431 4282860866
-0.38515896 0.051638853 -0.14162198 4283256655
-0.38641262 0.054410096 -0.14304119 4284834916
-0.36514062 -0.050985139 -0.13542695 4284568149
-0.36419156 -0.049045563 -0.13347271 4287136634
-0.36223984 -0.047262821 -0.1299272 4289775536
-0.36081427 -0.045433026 -0.1272243 4290298288
-0.35891384 -0.043700468 -0.12377275 4290561461
-0.35655984 -0.042072695 -0.11960862 4290494897
-0.35519779 -0.040311798 -0.11702341 4289698709
-0.35432252 -0.038485423 -0.11521301 4287856264
-0.3534537 -0.036672257 -0.11341592 4284980654
-0.3521263 -0.034962833 -0.11089786 4283347144
-0.35173526 -0.033084866 -0.10986113 4282625735
-0.35134566 -0.031213496 -0.10882813 4282494406
-0.35141787 -0.029248212 -0.1085233 4282361537
-0.35241607 -0.027073313 -0.10967419 4282950075
-0.35248855 -0.025100214 -0.10936814 4283215297
-0.35256103 -0.023126842 -0.10906205 4282886845
-0.3530995 -0.021037037 -0.10948615 4282427063
-0.35270602 -0.019179165 -0.10844977 4282362817
-0.35185117 -0.017450279 -0.10669341 4282493118
-0.35192344 -0.015482954 -0.10638826 4282493116
-0.35107461 -0.01377324 -0.10464569 4282427320
-0.35068843 -0.011944332 -0.10362735 4282689464
-0.35076031 -0.0099868737 -0.10332375 4282755512
-0.35083222 -0.0080291145 -0.1030201 4282756028
-0.35090414 -0.0060710902 -0.10271639 4282690235
-0.35143477 -0.0039666793 -0.10312468 4283017393
-0.35242957 -0.0017035534 -0.10425102 4283279280
-0.35296592 0.00042098295 -0.10466423 4283213487
-0.35397184 0.0027132945 -0.10580236 4283543484
-0.35404459 0.0046943962 -0.1054951 4285974989
-0.35411736 0.0066757672 -0.10518778 4284788414
-0.35419014 0.0086574359 -0.10488041 4284452778
-0.35520434 0.010989743 -0.10602333 4288633447
-0.35575086 0.013159142 -0.1064434 4291055706
