# .PCD v0.7 - Point Cloud Data file format
VERSION 0.7
FIELDS x y z rgba
SIZE 4 4 4 4
TYPE F F F U
COUNT 1 1 1 1
WIDTH 1007
HEIGHT 1
VIEWPOINT 0 0 0 1 0 0 0
POINTS 1007
DATA ascii
-0.40350097 0.054001428 -0.10533118 4287729790
-0.40449229 0.056272127 -0.10713115 4287861114
-0.40489453 0.058479737 -0.10814375 4287665526
-0.40649843 0.060868569 -0.11077398 4288390764
-0.40812147 0.063286304 -0.11343566 4288397680
-0.40976405 0.06573347 -0.1161295 4288791142
-0.41267818 0.068417162 -0.12054484 4289969523
-0.40649334 -0.0033080806 -0.10022037 4289420365
-0.4063029 -0.0012024959 -0.10043264 4291200320
-0.40611243 0.00090337754 -0.10064494 4293699656
-0.40592194 0.0030095729 -0.10085727 4293701449
-0.40455073 0.0051636202 -0.099515997 4293570883
-0.40377435 0.0072817886 -0.098954849 4293768257
-0.40184006 0.0094226114 -0.096864633 4292982624
-0.39878997 0.011561178 -0.093295813 4291676316
-0.39635459 0.013652514 -0.090530857 4291220655
-0.39450613 0.015709572 -0.088535964 4290955942
-0.39377204 0.017745357 -0.088012636 4289700998
-0.39304072 0.019773787 -0.087491296 4286153078
-0.39231208 0.021794869 -0.086971961 4285166443
-0.39212883 0.023820892 -0.087176211 4285363045
-0.39194557 0.025847225 -0.087380491 4285888874
-0.39285234 0.027913708 -0.089037731 4289370242
-0.3932161 0.029972173 -0.089973807 4291612586
-0.39358121 0.032038718 -0.09091343 4292722564
-0.39450103 0.034145366 -0.092596799 4294819397
-0.39487061 0.036232293 -0.09354686 4294952534
-0.39524162 0.038327474 -0.094500601 4294696834
-0.39561397 0.04043097 -0.095458023 4290695040
-0.39598775 0.042542849 -0.096419156 4289053536
-0.39692727 0.044715725 -0.098143227 4289054825
-0.39787406 0.046905696 -0.099880695 4288589683
-0.39882815 0.049112931 -0.10163165 4287992705
-0.40094942 0.051470596 -0.10496199 4287926400
-0.40192673 0.053722311 -0.10675354 4287926909
-0.40291172 0.055992115 -0.10855922 4287992186
-0.40390444 0.058280118 -0.11037918 4287205232
-0.40550542 0.060672686 -0.11302802 4287799391
-0.40773535 0.06318602 -0.11653668 4288530026
-0.40938208 0.065642647 -0.11926024 4288923755
-0.41167516 0.068232782 -0.12286952 4289578616
-0.40393776 -0.0056070942 -0.09986949 4289420124
-0.40374795 -0.00350987 -0.10008102 4290732871
-0.40355811 -0.0014123255 -0.10029259 4293701201
-0.40336823 0.00068553898 -0.10050418 4294038897
-0.40317836 0.0027836915 -0.10071582 4293701959
-0.40182301 0.004930424 -0.099380396 4293702723
-0.40105483 0.0070409691 -0.098821849 4293768771
-0.39914358 0.0091751339 -0.096740596 4293769028
-0.39613071 0.011308069 -0.093186639 4292788070
-0.39372453 0.01339356 -0.090433128 4291676054
-0.3918978 0.015444471 -0.088446401 4291611816
-0.39117125 0.017473295 -0.087925337 4291153838
-0.39044741 0.019494785 -0.087406263 4290364833
-0.38972622 0.021508981 -0.08688914 4289503361
-0.38954356 0.023527583 -0.087092727 4286545269
-0.3898983 0.025561947 -0.088018209 4287660920
-0.39025435 0.027604237 -0.088947177 4291218064
-0.39115462 0.029677829 -0.090610467 4292984190
-0.39206165 0.031767409 -0.092286348 4294819652
-0.39187673 0.03381044 -0.092492431 4294950474
-0.39278993 0.035924308 -0.09418194 4294815073
-0.39315608 0.038015071 -0.095135175 4291740026
-0.39352363 0.040114131 -0.096092105 4289183842
-0.39389256 0.042221528 -0.097052708 4288988772
-0.39482218 0.04438917 -0.098776057 4288790385
-0.39519563 0.046517551 -0.099747412 4288191102
-0.39670277 0.048775677 -0.10226283 4287992704
-0.3988032 0.051126286 -0.10559177 4287795071
-0.39977005 0.05337245 -0.1073824 4287795579
-0.40191945 0.055787757 -0.11079112 4287796088
-0.40291011 0.058079693 -0.1126237 4287533163
-0.40450826 0.060475972 -0.11529139 4288396904
-0.40857595 0.063269854 -0.12134818 4288792681
-0.41024104 0.065747112 -0.12412333 4289186161
-0.41255984 0.068359546 -0.12780224 4288261501
-0.40373865 -0.0080855582 -0.10262869 4289360744
-0.40179315 -0.0058443225 -0.10050486 4289613387
-0.40102357 -0.0037101202 -0.099943012 4290473805
-0.40083435 -0.0016205488 -0.10015386 4293767779
-0.40064508 0.00046933669 -0.10036477 4294891131
-0.39987913 0.0025880951 -0.099804349 4294621520
-0.39911607 0.0046989722 -0.099246122 4293899331
-0.39778671 0.0068222294 -0.097926855 4293899838
-0.39590508 0.0089455508 -0.095862836 4294162494
-0.39239058 0.011080503 -0.091599338 4293899840
-0.39003053 0.013152192 -0.088878587 4293377372
-0.38823804 0.015189284 -0.086915553 4292526470
-0.38805562 0.017203413 -0.087118804 4291741073
-0.38734153 0.019214258 -0.086604223 4291478929
-0.38715941 0.02122518 -0.086807162 4291152531
-0.38697726 0.023236409 -0.08701013 4290756746
-0.38785842 0.025277685 -0.088653758 4292261742
-0.3887462 0.02733459 -0.090309769 4294100055
-0.38964063 0.029407328 -0.091978326 4294885440
-0.3894563 0.031442504 -0.092183717 4294950211
-0.38981333 0.033508591 -0.093126036 4294027089
-0.39017168 0.035582755 -0.09407194 4292704865
-0.39107826 0.037703838 -0.095767595 4291586652
-0.39089242 0.039755713 -0.095974661 4289633118
-0.39125478 0.041854538 -0.096931502 4288987243
-0.39217061 0.044012651 -0.098647907 4288720502
-0.39309341 0.046187647 -0.10037757 4288189311
-0.39458534 0.048439674 -0.10289188 4287992191
-0.39723772 0.050848551 -0.1070062 4287992704
-0.39819834 0.053093772 -0.10880247 4287926907
-0.40033519 0.055507082 -0.11222253 4287140463
-0.40250602 0.057959039 -0.11569704 4288196704
-0.40471163 0.060450673 -0.11922733 4288726888
-0.40818641 0.063168161 -0.12451957 4288989036
-0.40985575 0.065655127 -0.12732556 4290165617
-0.41218075 0.068277732 -0.13104609 4290231422
-0.40042365 -0.0082193818 -0.10170215 4289353557
-0.39908153 -0.0060353568 -0.10036562 4289613649
-0.39831999 -0.0039088721 -0.099806309 4290007888
-0.39813137 -0.0018272168 -0.10001647 4291125845
-0.39624047 0.00035313398 -0.097932465 4292250461
-0.3954902 0.0024519484 -0.09738224 4292717159
-0.39418471 0.0045674434 -0.096080236 4294032467
-0.39399815 0.0066264113 -0.096288115 4294162754
-0.39215231 0.0087348679 -0.094249263 4294161980
-0.38924474 0.010844157 -0.090765879 4294227004
-0.3863914 0.012914374 -0.087347478 4294358591
-0.38515601 0.014933428 -0.086119264 4294360898
-0.38497448 0.016936485 -0.08632151 4294164291
-0.38426995 0.018936794 -0.085811406 4294229576
-0.38408875 0.02093669 -0.086013317 4294361671
-0.38442981 0.022947349 -0.08692839 4294623294
-0.38529804 0.024980091 -0.088565685 4294884924
-0.38617277 0.027028341 -0.090215296 4294950971
-0.38705403 0.029092299 -0.091877334 4294949947
-0.3874051 0.031146031 -0.092815615 4294621518
-0.38775748 0.0332078 -0.093757473 4292571986
-0.38811114 0.035277665 -0.094702922 4291713626
-0.38846609 0.037355654 -0.095651962 4291777625
-0.38828087 0.039399926 -0.09585835 4290867037
-0.38918003 0.041536245 -0.097561002 4289506920
-0.39008602 0.043689229 -0.099276669 4288719481
-0.39099896 0.045858983 -0.10100552 4288189312
-0.39247578 0.048104946 -0.10351875 4287992448
-0.39567196 0.05057073 -0.10842089 4287992446
-0.39720225 0.052884683 -0.11102216 4287664760
-0.39933532 0.055301249 -0.11446667 4287797348
-0.40209842 0.057837401 -0.11879524 4288725095
-0.40430948 0.060338255 -0.12236478 4288792938
-0.40841556 0.063158996 -0.12858468 4288857207
-0.41009653 0.065661401 -0.1314332 4288000130
-0.41179827 0.068195172 -0.13431703 4289313398
-0.39771718 -0.0084014395 -0.10155842 4289154639
-0.3969582 -0.0062704915 -0.10099687 4289481548
-0.39563701 -0.0041061486 -0.099670954 4289941074
-0.39544898 -0.0020323477 -0.099880435 4290072659
-0.3930248 0.00017382251 -0.097049557 4290467152
-0.39228481 0.0022611285 -0.096504271 4290796624
-0.39099884 0.0043654479 -0.095213175 4291459916
-0.38972259 0.0064541055 -0.093931891 4292648010
-0.38791814 0.0085438453 -0.091925673 4293900620
-0.38560453 0.010622934 -0.089217931 4294161987
-0.38332522 0.012671436 -0.086550429 4294489917
-0.38262495 0.01467552 -0.086040899 4294687546
-0.38192728 0.016672472 -0.085533299 4294754621
-0.38174662 0.018664854 -0.085734569 4294883897
-0.38156593 0.020657515 -0.085935853 4294950202
-0.38190097 0.022660375 -0.086847484 4294949432
-0.38275644 0.024684658 -0.088478528 4294949688
-0.38414302 0.026741957 -0.090846166 4294950972
-0.38448656 0.028779577 -0.091777332 4294949959
-0.38536131 0.030850589 -0.093445398 4292771404
-0.38517743 0.032878757 -0.093650259 4291517269
-0.38605806 0.03497364 -0.095331766 4291581016
-0.38587344 0.037010055 -0.095537461 4291713114
-0.38622335 0.039087866 -0.096486449 4291517280
-0.38657457 0.04117386 -0.097439043 4289893730
-0.38746709 0.043317407 -0.099147841 4289114231
-0.3883664 0.045477632 -0.10086972 4288255104
-0.39037403 0.047771443 -0.10414343 4287991936
-0.39353931 0.050228707 -0.10904344 4287992186
-0.396202 0.052674714 -0.11325084 4287336300
-0.39891744 0.05516956 -0.11754168 4288329061
-0.40108967 0.057633907 -0.12107985 4288858985
-0.40329692 0.060138337 -0.12467512 4288989809
-0.40739679 0.062962174 -0.13094094 4289511821
-0.40907475 0.065468691 -0.13380998 4288790162
-0.41077355 0.068006687 -0.13671473 4289249398
-0.4124935 0.07057672 -0.13965575 4290297466
-0.39692262 -0.010822104 -0.1035283 4289222747
-0.39559636 -0.0086322157 -0.10218747 4286269261
-0.39428031 -0.0064588902 -0.10085706 4287121225
-0.39297432 -0.0043019643 -0.099536858 4289285971
-0.39223152 -0.002198519 -0.098984778 4289743956
-0.38821816 9.4670053e-05 -0.093944781 4289941077
-0.38695949 0.0021871889 -0.092675559 4290137171
-0.38571027 0.0042643114 -0.091415927 4290400339
-0.38447037 0.0063261851 -0.090165704 4290926930
-0.38376269 0.0083563374 -0.089645647 4291329869
-0.38305762 0.01037923 -0.0891276 4292975687
-0.38080546 0.012422124 -0.086470738 4294293574
-0.38011232 0.014419435 -0.085963339 4294359099
-0.37942171 0.01640966 -0.085457884 4294555963
-0.37924162 0.018394869 -0.085658513 4294884924
-0.37906146 0.020380381 -0.085859179 4294949944
-0.37939051 0.022375498 -0.08676742 4294949688
-0.38023341 0.024391394 -0.088392235 4294949947
-0.38160059 0.02643952 -0.090750709 4294948671
-0.38245955 0.028490029 -0.092405654 4293628231
-0.38279977 0.030531423 -0.093339898 4291648085
-0.38314128 0.032580759 -0.09427768 4291580760
-0.38348401 0.034638107 -0.095218994 4291647323
-0.38435811 0.036740076 -0.096906558 4289815396
-0.3841733 0.03877696 -0.09711241 4291254111
-0.38451988 0.040858589 -0.098064527 4290344800
-0.38540277 0.04299704 -0.09977258 4289706358
-0.38683319 0.045205232 -0.10225498 4288387711
-0.3888289 0.047497116 -0.10553946 4287926911
-0.39253959 0.050014976 -0.11125103 4287337330
-0.39519751 0.052463874 -0.11548853 4287931744
-0.39732286 0.054887038 -0.11898242 4288595050
-0.39948222 0.057349302 -0.12253223 4288922730
-0.40167636 0.059851617 -0.12613934 4288593529
-0.4057529 0.06267152 -0.13242625 4287933591
-0.40742058 0.065176427 -0.1353046 4288855677
-0.40910894 0.067712791 -0.13821875 4289249395
-0.41146123 0.070391752 -0.142085 4289838200
-0.39479908 -0.011048866 -0.10415493 4287451473
-0.39348346 -0.008862162 -0.10281441 4284236609
-0.39217791 -0.0066919634 -0.10148422 4283908425
-0.39033169 -0.0044963104 -0.099404052 4285155414
-0.38905054 -0.0023628124 -0.098099589 4288301142
-0.38563302 -0.00011300761 -0.093835264 4289679702
-0.38438869 0.0019726355 -0.092571355 4290005845
-0.38315359 0.0040429272 -0.091316916 4290203222
-0.38140902 0.0061189733 -0.089351572 4290268243
-0.38019639 0.0081553515 -0.088120729 4290269268
-0.37899265 0.010176973 -0.086898997 4291123792
-0.37881216 0.012165157 -0.087100029 4291724361
-0.37812385 0.014159391 -0.086592562 4293370433
-0.37743801 0.016146626 -0.086086981 4294360131
-0.37725812 0.018128345 -0.086287372 4294818107
-0.37707821 0.020110341 -0.086487763 4294949177
-0.37740287 0.022101445 -0.087395623 4294949176
-0.37823671 0.024112761 -0.089019865 4294948668
-0.37959006 0.02615572 -0.091377579 4294157125
-0.38043982 0.028201506 -0.093031883 4292305233
-0.38077554 0.030238681 -0.093965672 4291515479
-0.38111246 0.03228379 -0.09490297 4291645785
-0.38197422 0.034368895 -0.096583076 4290601317
-0.38231525 0.036433958 -0.09753067 4288840823
-0.38265759 0.038507093 -0.098481871 4290076001
-0.38353163 0.040632471 -0.10018834 4290799202
-0.38441232 0.042774286 -0.10190784 4289636457
-0.38529974 0.044932775 -0.10364048 4288653688
-0.38783148 0.047280367 -0.10771492 4287861881
-0.39153561 0.049800359 -0.11346748 4287664999
-0.39361534 0.052183352 -0.11691806 4288527463
-0.39631015 0.054678611 -0.12125409 4288791912
-0.3984656 0.057144314 -0.1248294 4289119854
-0.40065584 0.059650201 -0.12846249 4289958513
-0.40410867 0.062380847 -0.13391183 4289704307
-0.40576607 0.064884134 -0.13679948 4289117553
-0.40744403 0.067418829 -0.13972303 4289182576
-0.41042429 0.070205994 -0.14452465 4289575542
-0.39513361 -0.013594984 -0.1077034 4288965221
-0.3932451 -0.011330198 -0.10555887 4285683287
-0.39193535 -0.0091422088 -0.10421307 4286801761
-0.39008334 -0.0069241626 -0.10210927 4288255349
-0.3882525 -0.004731236 -0.1000296 4288646003
-0.38644248 -0.0025629601 -0.097973637 4288640870
-0.38306701 -0.00031915068 -0.093726851 4286797151
-0.38131633 0.0017886063 -0.09174072 4288956497
-0.38061568 0.003823169 -0.091218904 4289941078
-0.37940362 0.0058717001 -0.089978933 4290071638
-0.3782005 0.0079053873 -0.088748179 4290203222
-0.37751195 0.0099107753 -0.088236764 4290466387
-0.37632239 0.011918976 -0.087019257 4290467921
-0.37614241 0.013900281 -0.0872197 4291321678
-0.37546134 0.015884474 -0.086714007 4292119367
-0.37528166 0.01786272 -0.086914122 4294026816
-0.37510195 0.019841269 -0.087114275 4294752577
-0.37542224 0.021828378 -0.088021748 4294949432
-0.37624711 0.023835134 -0.089645401 4294685253
-0.37758681 0.025872892 -0.09200234 4292570956
-0.37842739 0.027913978 -0.093656026 4291712345
-0.37875855 0.029947007 -0.094589338 4291581018
-0.37960818 0.032015402 -0.096262075 4291255391
-0.3804642 0.034099665 -0.097947396 4289365110
-0.38080224 0.036164384 -0.098897681 4288187515
-0.38114154 0.038237173 -0.099851601 4288116082
-0.38200974 0.040361691 -0.10156336 4290731360
-0.38288456 0.042502649 -0.1032882 4289958242
-0.384303 0.044712558 -0.10579577 4289312882
-0.38628283 0.0470054 -0.10911416 4287468398
-0.38940606 0.049459007 -0.11408222 4288196451
-0.39260313 0.051971003 -0.11916788 4288595307
-0.39529318 0.054469325 -0.12353519 4288924014
-0.39744464 0.056938477 -0.12713607 4289318532
-0.39963087 0.059447948 -0.13079531 4288653454
-0.40307808 0.062181845 -0.13628466 4286940774
-0.40473238 0.064689249 -0.13919304 4286346067
-0.40640718 0.067228198 -0.14213765 4287139674
-0.40938273 0.070019357 -0.14697483 4288916588
-0.39300483 -0.013817512 -0.10832469 4288830304
-0.39169082 -0.011611554 -0.10696308 4287919727
-0.39038694 -0.0094223376 -0.10561195 4288457375
-0.3885437 -0.0072025172 -0.10350025 4286415249
-0.38618091 -0.0049652886 -0.10065299 4285690992
-0.38438597 -0.0027996255 -0.098597489 4285763974
-0.38051993 -0.00052383129 -0.093619443 4287529858
-0.37930363 0.0015481296 -0.092365988 4286206042
-0.37809634 0.0036049888 -0.09112186 4286728785
-0.37689793 0.0056469124 -0.089886963 4289350484
-0.37570837 0.0076741022 -0.088661171 4290073432
-0.37502682 0.0096727014 -0.088151939 4290269015
-0.37385055 0.011674573 -0.086939313 4290268757
-0.37367111 0.013648784 -0.087139122 4290400852
-0.37299696 0.015626343 -0.086635537 4290729809
-0.37281778 0.017597511 -0.086835064 4291913803
-0.37263858 0.019568983 -0.087034598 4292777286
-0.37295309 0.021548478 -0.087938696 4294421834
-0.37376574 0.023546988 -0.089556225 4293100618
-0.37559065 0.02559109 -0.092625037 4291777876
-0.37642211 0.027627496 -0.094278082 4291711834
-0.37725976 0.029679405 -0.095943496 4291712604
-0.37810364 0.031746965 -0.097621404 4289821802
-0.37895384 0.033830378 -0.099311978 4288057726
-0.37981048 0.035929825 -0.10101534 4287794814
-0.38014841 0.038006254 -0.10197517 4287858042
-0.38101438 0.040134095 -0.10369839 4290469216
-0.38188687 0.042278424 -0.10543474 4290409312
-0.38276604 0.044439476 -0.10718442 4289770860
-0.38473389 0.046730381 -0.11051363 4288524387
-0.38783884 0.049180936 -0.1154982 4288659047
-0.39101726 0.051689819 -0.12060073 4288987499
-0.39427179 0.054259121 -0.12582557 4287148915
-0.39641923 0.05673172 -0.12945229 4286943350
-0.39860147 0.059244778 -0.1331379 4285624162
-0.40142992 0.061890461 -0.13777383 4284569158
-0.40307385 0.064396232 -0.14069156 4283978051
-0.40411329 0.066830799 -0.14273246 4285031760
-0.40769613 0.069721796 -0.14849874 4286678364
-0.40877247 0.072220445 -0.15060692 4286674272
-0.39794612 -0.023260774 -0.1169488 4289815135
-0.39543033 -0.02082427 -0.11390032 4290344292
-0.39276266 -0.016324338 -0.11111224 4289035372
-0.39144436 -0.014100187 -0.10973449 4287652462
-0.39013627 -0.011892964 -0.10836753 4288978833
-0.38883826 -0.0097024953 -0.10701112 4288388765
-0.38700381 -0.0074808905 -0.10489146 4284847247
-0.38465261 -0.0052414075 -0.10203372 4283530365
-0.38233697 -0.003035452 -0.099219285 4285359479
-0.37901992 -0.00079443416 -0.094974622 4289503883
-0.37729812 0.0013084634 -0.092989162 4286942606
-0.37660724 0.0033366892 -0.092467196 4284890437
-0.37541422 0.0053797956 -0.091227449 4285350211
-0.3737312 0.0074263262 -0.089284651 4286533715
-0.37355104 0.0094073508 -0.08948525 4289350741
-0.37188739 0.011421164 -0.08756274 4290204248
-0.37170815 0.013391893 -0.087762304 4290269273
-0.37055025 0.015370038 -0.086557895 4290400599
-0.37085971 0.017334234 -0.087457865 4290859605
-0.37019295 0.019298634 -0.086955726 4291124310
-0.3705017 0.021270569 -0.087856486 4292108372
-0.37130231 0.023260904 -0.089467898 4291844180
-0.37310213 0.025295507 -0.092524864 4291712603
-0.37442404 0.027342021 -0.094898082 4291777370
-0.37576067 0.029411748 -0.097297899 4290274665
-0.37711236 0.031505056 -0.099724762 4288514942
-0.37796032 0.033591647 -0.10142653 4288057471
-0.37881464 0.03569432 -0.10314125 4287925631
-0.37967545 0.037813243 -0.10486899 4288055928
-0.38054273 0.039948616 -0.10660989 4289291364
-0.38141665 0.042100638 -0.10836416 4290667617
-0.38229731 0.044269472 -0.11013193 4289700966
-0.38426897 0.046568088 -0.11349691 4288789865
-0.38682485 0.048964549 -0.11772371 4288725099
-0.39056596 0.05154366 -0.12369516 4289182060
-0.39266652 0.053974718 -0.12727596 4288784756
-0.39538941 0.056524109 -0.13177812 4286218092
-0.39696988 0.058956109 -0.1346121 4284376654
-0.39856958 0.061418232 -0.13748077 4283516476
-0.40018907 0.063910991 -0.14038488 4283912768
-0.40182853 0.066434979 -0.14332497 4283849292
-0.40474358 0.069206573 -0.1481546 4284637264
-0.40643921 0.071807049 -0.15119316 4284769370
-0.39519501 -0.023388345 -0.11674274 4289483357
-0.39327988 -0.021035377 -0.11451572 4289614679
-0.39138716 -0.018709686 -0.11231478 4289093208
-0.39063397 -0.01654223 -0.11172852 4289288024
-0.38932636 -0.014321382 -0.1103512 4288246390
-0.3880288 -0.012117404 -0.10898458 4289443231
-0.38674134 -0.0099301217 -0.10762853 4288457881
-0.38492233 -0.0077112969 -0.10550951 4284913816
-0.38259131 -0.0054741558 -0.10265264 4283932074
-0.38029546 -0.0032704729 -0.099838957 4284384666
-0.3785502 -0.0011340273 -0.097807586 4289839020
-0.37733647 0.00094825431 -0.096534014 4289773480
-0.37613174 0.003015335 -0.095269948 4284963676
-0.37443218 0.0050900476 -0.093290389 4282990654
-0.3732492 0.0071233474 -0.092050031 4283646786
-0.37257069 0.0091269342 -0.091533855 4285349958
-0.37090927 0.01114614 -0.089596666 4286205523
-0.37023994 0.013128322 -0.089088798 4288892245
-0.36908725 0.015107555 -0.087879673 4290074200
-0.36890852 0.017071865 -0.08807867 4290335067
-0.36872971 0.019036472 -0.08827772 4291451746
-0.36903569 0.021008087 -0.089181013 4291449951
-0.36983079 0.022997618 -0.090797395 4291450462
-0.37161964 0.025030442 -0.093864277 4291847276
-0.37293315 0.027075667 -0.096245095 4291385953
-0.37476856 0.029166164 -0.099392913 4289169531
-0.37560445 0.031236036 -0.10108716 4287925891
-0.37696275 0.033351991 -0.10354936 4287860096
-0.37781477 0.035457876 -0.10527544 4287860605
-0.37867326 0.037580121 -0.10701469 4287924856
-0.3795383 0.039718851 -0.10876724 4287917426
-0.38040993 0.041874252 -0.11053328 4290600035
-0.3812882 0.044046547 -0.11231289 4290217312
-0.38325578 0.046348061 -0.11570144 4288985194
-0.38580662 0.048747264 -0.11995818 4288723567
-0.38954082 0.05132864 -0.12597266 4287802998
-0.39163727 0.05376298 -0.12957899 4286878809
-0.39318222 0.056158625 -0.13237697 4285430355
-0.39474592 0.058583662 -0.13520896 4283389253
-0.39632872 0.061038669 -0.13807563 4282861627
-0.39793092 0.063524157 -0.14097756 4282925881
-0.39955294 0.066040747 -0.14391539 4282991672
-0.40243801 0.06880267 -0.1487412 4283714369
-0.4041155 0.0713953 -0.15177725 4284900439
-0.39246526 -0.023514941 -0.11653861 4289556586
-0.3905735 -0.021170268 -0.1143216 4289089370
-0.38926098 -0.01892316 -0.11292887 4289219410
-0.38851318 -0.01675933 -0.11234266 4289746521
-0.38721627 -0.014541777 -0.11096577 4288839292
-0.38592929 -0.012341063 -0.10959953 4289378217
-0.38465214 -0.010156929 -0.10824382 4287606695
-0.38284847 -0.0079408819 -0.10612545 4284521120
-0.38106537 -0.0057498273 -0.10403126 4284717991
-0.37878093 -0.0035438964 -0.10120727 4284914586
-0.37755936 -0.001440928 -0.099913828 4289903012
-0.37686002 0.00061530934 -0.099373199 4290694325
-0.37565243 0.0026915236 -0.098093919 4285564562
-0.37445384 0.0047525791 -0.096824199 4282991170
-0.37276343 0.0068180747 -0.094836153 4282927430
-0.37208319 0.0088297939 -0.094313025 4283057477
-0.37041819 0.010858221 -0.092353515 4283450953
-0.36974716 0.012848364 -0.091838829 4285350986
-0.36810711 0.01484053 -0.089907199 4286075477
-0.36792788 0.016808579 -0.090106703 4287844958
-0.36726624 0.018774256 -0.08959996 4290799461
-0.36756942 0.020745555 -0.090505756 4291122023
-0.368359 0.022734279 -0.092127129 4291581538
-0.37013686 0.024765348 -0.095203951 4291647855
-0.37144199 0.026809234 -0.097592324 4289819756
-0.37326613 0.028897932 -0.10075034 4288254339
-0.37460604 0.030992601 -0.10320146 4287925635
-0.37647825 0.033141274 -0.1064439 4287795071
-0.37733161 0.035254568 -0.10818768 4287729020
-0.37819138 0.037384268 -0.10994481 4287989112
-0.37852973 0.039488118 -0.1109331 4287719022
-0.379399 0.041646965 -0.11271098 4290599524
-0.38081047 0.043873928 -0.11529779 4291257181
-0.38223836 0.046127159 -0.11791477 4289567848
-0.3847841 0.048529036 -0.1222017 4288722047
-0.38851133 0.051112719 -0.12825942 4287669627
-0.39060363 0.053550381 -0.13189147 4285097555
-0.3915633 0.05587199 -0.13383971 4283452992
-0.39311701 0.058295462 -0.13668072 4282729786
-0.39468971 0.060748883 -0.13955651 4282532147
-0.39568174 0.063138857 -0.14156803 4282597426
-0.39728636 0.065648064 -0.14450364 4282729272
-0.40014178 0.068400346 -0.14932565 4283256386
-0.40242782 0.071097746 -0.15330212 4285097816
-0.3884446 -0.021379568 -0.11493307 4289355617
-0.38769689 -0.019206889 -0.11434194 4290005331
-0.38640043 -0.016975643 -0.11295468 4290138973
-0.38511401 -0.014761372 -0.11157817 4288313462
-0.38383749 -0.012563855 -0.11021237 4288784800
-0.38257074 -0.01038292 -0.10885704 4286027932
-0.38078228 -0.0081696417 -0.1067393 4283524476
-0.37901419 -0.0059812772 -0.10464572 4284444280
-0.37726608 -0.0038173464 -0.10257586 4285631875
-0.37656453 -0.0017490337 -0.10202824 4289769634
-0.37586561 0.00031184099 -0.10148274 4290760891
-0.37516928 0.0023652299 -0.10093932 4287473830
-0.37396786 0.0044353721 -0.099654339 4284041047
-0.37227374 0.0065104757 -0.097643241 4282930286
-0.37159175 0.008530424 -0.097113065 4283980658
-0.3699232 0.010568123 -0.095130928 4284177524
-0.36876091 0.012575012 -0.093888693 4283520111
-0.3671231 0.014572471 -0.09194243 4283454303
-0.36694345 0.016544312 -0.092142396 4284830038
-0.36628222 0.018514184 -0.091631107 4286535772
-0.36610284 0.020482996 -0.091830775 4290203230
-0.36688694 0.022470921 -0.093457103 4293746792
-0.36865383 0.024500178 -0.096543849 4292109945
-0.36995059 0.026542781 -0.098939806 4289235325
-0.37226695 0.028650817 -0.10285623 4287925894
-0.37411439 0.030773595 -0.10608391 4287990658
-0.37547168 0.03289929 -0.10858882 4287728510
-0.37684447 0.035049647 -0.11112241 4287727739
-0.37770557 0.037186891 -0.11289766 4287396463
-0.3780441 0.039298605 -0.11389554 4289222232
-0.37891474 0.041465215 -0.11569177 4291318617
-0.37979209 0.043648873 -0.11750188 4291778908
-0.38121668 0.045905337 -0.12013696 4290606956
-0.38375726 0.048309926 -0.12445429 4287273353
-0.38634819 0.050762586 -0.12885727 4285566571
-0.38841879 0.053192776 -0.13248694 4285483850
-0.38994405 0.055585295 -0.13530274 4283580988
-0.39148781 0.058007203 -0.13815275 4282597170
-0.39246064 0.060371332 -0.14014643 4282728753
-0.39403558 0.062848002 -0.14305538 4282794806
-0.39562991 0.065355629 -0.14600027 4282795325
-0.39785472 0.067999631 -0.14990793 4284044102
-0.40011671 0.070688255 -0.1538811 4285557340
-0.38632372 -0.021588113 -0.11554244 4289680728
-0.38558143 -0.019419082 -0.11495134 4290006615
-0.38429558 -0.017191174 -0.11356458 4290072923
-0.38301966 -0.014980176 -0.11218852 4288503656
-0.38175347 -0.012785874 -0.11082307 4287991944
-0.38049704 -0.010608103 -0.10946815 4287601556
-0.37872368 -0.0083975829 -0.10735105 4284643182
-0.3769705 -0.0062118727 -0.10525807 4283191906
-0.37575096 -0.004090881 -0.10394469 4284182893
-0.37505215 -0.0020218599 -0.10339462 4289244324
-0.37435591 3.9659739e-05 -0.10284667 4290760636
-0.37366232 0.002093757 -0.1023008 4289642158
-0.37297124 0.0041404339 -0.101757 4288908159
-0.37127942 0.0062212148 -0.099730521 4289116845
-0.37059784 0.0082456134 -0.099195622 4289841596
-0.36893165 0.010288823 -0.097198389 4289974465
-0.3677707 0.012300595 -0.095946349 4289642424
-0.36661825 0.014297902 -0.094703525 4288715671
-0.36595511 0.016278993 -0.094185777 4285230718
-0.3652944 0.018253144 -0.093669944 4284243819
-0.36511454 0.020225681 -0.093870096 4290141031
-0.36589631 0.022216469 -0.095507003 4293421938
-0.36717051 0.02423498 -0.097884022 4291585394
-0.36895251 0.026292913 -0.1010268 4288909188
-0.37126374 0.028402753 -0.10497028 4287991170
-0.37310696 0.030527832 -0.10822016 4287925376
-0.37497818 0.032685567 -0.1115196 4287727996
-0.37583041 0.034809571 -0.11329304 4287594872
-0.37721568 0.036987942 -0.11587342 4288372066
-0.37755448 0.039107576 -0.11688104 4290661718
-0.37789452 0.041235711 -0.11789253 4291842650
-0.37876949 0.043422882 -0.11971486 4291974236
-0.38019073 0.04568259 -0.12236814 4290666847
-0.38217631 0.048029453 -0.1258827 4288058470
-0.38475141 0.050479472 -0.13029999 4284704082
-0.38680914 0.052907575 -0.13394129 4285294159
-0.38832453 0.055298544 -0.136766 4283516478
-0.38985831 0.057718921 -0.13962504 4282662452
-0.39082438 0.060082059 -0.14162482 4282662710
-0.39179829 0.062464789 -0.14364097 4282663740
-0.39337546 0.064965047 -0.14658359 4283386694
-0.39497209 0.067496635 -0.14956266 4285030739
-0.39843196 0.07039123 -0.15540333 4286083940
-0.38605446 -0.024130968 -0.11836405 4289225571
-0.38475919 -0.021872094 -0.11695589 4288695377
-0.3834739 -0.019630481 -0.11555871 4287973973
-0.38273987 -0.017473197 -0.11497007 4287448410
-0.38146982 -0.015260944 -0.11358871 4286859611
-0.38020948 -0.013065391 -0.11221798 4287454308
-0.37895882 -0.010886352 -0.11085784 4287598724
-0.37667266 -0.008624712 -0.10796074 4287604885
-0.37544951 -0.0064866617 -0.10663221 4285562496
-0.3742356 -0.0043644705 -0.10531377 4283719542
-0.37353951 -0.0022947663 -0.10476123 4289047970
-0.37284598 -0.00023257083 -0.10421084 4290695104
-0.37215507 0.0018221997 -0.10366253 4290563515
-0.3714667 0.003869578 -0.1031163 4289381046
-0.37028107 0.0059308484 -0.10182585 4287741129
-0.3696 0.0079597235 -0.10128616 4287347151
-0.3679361 0.010008465 -0.099273734 4287942615
-0.36677656 0.012025142 -0.098011836 4290238428
-0.36514345 0.014033313 -0.096035972 4292407770
-0.36448288 0.016015047 -0.095515907 4290692291
-0.36430264 0.01799109 -0.095716491 4286025352
-0.36412236 0.019967401 -0.095917121 4291586675
-0.36442101 0.021952519 -0.096839912 4292829038
-0.3661727 0.023982048 -0.09995763 4290733933
-0.36795044 0.026042085 -0.10312182 4288647299
-0.37025648 0.028153704 -0.10709251 4287795072
-0.37260625 0.030305702 -0.11113859 4287794302
-0.37448069 0.032470163 -0.11447307 4287792249
-0.37533414 0.034601655 -0.11626479 4287980904
-0.37672177 0.036787398 -0.11887247 4290006871
-0.37706074 0.038915016 -0.11988986 4291448665
-0.37793407 0.041097298 -0.12172358 4291778140
-0.37881419 0.043296892 -0.12357162 4291516251
-0.37970114 0.045514017 -0.12543416 4290602333
-0.38114172 0.047808819 -0.1281475 4287400550
-0.38315436 0.050196297 -0.13174294 4283846473
-0.38519916 0.052622307 -0.13539594 4283584334
-0.38670471 0.055011768 -0.13822955 4282925113
-0.3876521 0.057349488 -0.14021169 4282531124
-0.38860711 0.059706513 -0.14220993 4282597176
-0.39015493 0.062174447 -0.14512579 4282795839
-0.39172181 0.064673096 -0.1480777 4284439632
-0.39330807 0.06720306 -0.15106615 4285624930
-0.39674687 0.070094146 -0.15692586 4286480239
-0.38522834 -0.026607605 -0.12038702 4289033327
-0.38393363 -0.024334796 -0.11896829 4287451999
-0.38319436 -0.022156164 -0.11836962 4286274657
-0.38191503 -0.019913275 -0.11696705 4285492847
-0.3806456 -0.017687423 -0.11557537 4284971135
-0.37938595 -0.015478441 -0.1141945 4284969851
-0.37813589 -0.013286103 -0.11282422 4286012515
-0.37637246 -0.011056017 -0.1106841 4286864996
-0.37462914 -0.0088510057 -0.10856839 4287596669
-0.37341589 -0.0067159771 -0.10724019 4287733402
-0.37221178 -0.0045967475 -0.10592201 4286024595
-0.37202656 -0.0025677306 -0.1061281 4289242532
-0.37133577 -0.00050482398 -0.10557525 4290563775
-0.37014613 0.0015801275 -0.10427082 4290690736
-0.3694627 0.0036242665 -0.10372459 4287737515
-0.36828661 0.0056828037 -0.1024344 4285245367
-0.36761039 0.0077084992 -0.1018947 4284128698
-0.36596048 0.0097550368 -0.099882752 4285569977
-0.36529344 0.011758876 -0.099351786 4287737524
-0.36366838 0.01376864 -0.097368665 4289833903
-0.36301041 0.015751055 -0.096846253 4292139986
-0.36283001 0.017727222 -0.097046979 4289445566
-0.36264962 0.019703725 -0.097247712 4292775300
-0.36342353 0.021696575 -0.098900273 4292433259
-0.3651709 0.023728125 -0.10203916 4290276202
-0.36694437 0.025790274 -0.10522489 4288384898
-0.36924514 0.027903659 -0.10922299 4287728766
-0.37210143 0.030081822 -0.11407946 4287727740
-0.37397909 0.032253038 -0.11744949 4287591277
-0.37535876 0.034425065 -0.12006411 4289352022
-0.37622371 0.036585249 -0.121895 4291055189
-0.37709534 0.038762558 -0.12374015 4291646299
-0.37797382 0.040957209 -0.12559979 4292171870
-0.37831905 0.043118779 -0.12664251 4291056989
-0.37920743 0.045344092 -0.12852454 4289877849
-0.38065061 0.047647096 -0.13126701 4285880660
-0.38211098 0.049977928 -0.13404223 4285483594
-0.38358888 0.052337021 -0.13685086 4283715680
-0.38451791 0.054649796 -0.13881561 4282728250
-0.38545445 0.056981526 -0.14079621 4282465590
-0.38639849 0.059332464 -0.1427929 4282728506
-0.38792953 0.061793268 -0.14570658 4283649863
-0.3894794 0.064284623 -0.1486561 4285492833
-0.39164373 0.066909418 -0.15256993 4286480495
-0.39506152 0.069797002 -0.15844864 4287596404
-0.38365427 -0.026893742 -0.12180906 4286674543
-0.38291252 -0.0247017 -0.12120258 4285037440
-0.38162923 -0.02244026 -0.11978361 4284123533
-0.38089567 -0.020269059 -0.11918461 4283733659
-0.37962762 -0.018037381 -0.11778181 4283802282
-0.3783693 -0.015822614 -0.11638985 4283999148
-0.37659431 -0.013565194 -0.11421695 4284122508
-0.37483957 -0.011333313 -0.11206899 4285294952
-0.37259305 -0.0090764919 -0.10917393 4286015587
-0.37138966 -0.0069445097 -0.10784611 4287458169
-0.3701953 -0.0048282435 -0.10652825 4287206029
-0.37001032 -0.0028028414 -0.10673407 4288192157
-0.36932448 -0.00074320112 -0.10618123 4289906878
-0.36814445 0.0013389064 -0.1048771 4290036152
-0.36746588 0.0033798446 -0.10433086 4286294702
-0.3662993 0.0054355939 -0.10304096 4283592076
-0.36562788 0.0074581853 -0.10250123 4285560435
-0.36447451 0.0094880657 -0.10122529 4284578700
-0.36381009 0.011492556 -0.10069197 4284786103
-0.36266971 0.013496957 -0.099429779 4289903798
-0.36201227 0.015483636 -0.09890274 4292142808
-0.3618314 0.017463619 -0.09910395 4291220936
-0.3621262 0.019447835 -0.1000345 4292378759
-0.36290088 0.021447254 -0.10170353 4292039270
-0.36465079 0.023484668 -0.10487504 4289949547
-0.36642686 0.025552878 -0.10809409 4288187774
-0.3692348 0.027691806 -0.11291023 4287662204
-0.37159249 0.029856177 -0.11704311 4287462259
-0.37347335 0.032034196 -0.12044907 4288829020
-0.37485528 0.034213528 -0.12309141 4290792276
-0.37625334 0.03641868 -0.12576467 4291776087
-0.37713009 0.038608294 -0.12763596 4291843674
-0.37747425 0.040769346 -0.12868479 4291450974
-0.37836096 0.042989638 -0.13057868 4290663262
-0.3787095 0.04517274 -0.13163953 4287974487
-0.38015535 0.047484063 -0.13441162 4284699992
-0.38106322 0.049758628 -0.13635105 4285225808
-0.38197833 0.052051682 -0.13830602 4283650125
-0.38233963 0.054289192 -0.13939954 4282926910
-0.38326532 0.05661498 -0.14137867 4282663997
-0.38419852 0.058959864 -0.1433738 4282927428
-0.38571286 0.061413568 -0.14628521 4284507225
-0.38841364 0.064089015 -0.15106675 4286085742
-0.3905735 0.066717818 -0.15500884 4287006579
-0.38392586 -0.029565152 -0.12550476 4285697413
-0.38262844 -0.027267307 -0.12405784 4284255115
-0.38188714 -0.025070054 -0.12344585 4283536537
-0.38114867 -0.02288112 -0.12283633 4283342758
-0.38041306 -0.020700414 -0.1222292 4283212974
-0.37914181 -0.018458163 -0.12080915 4283017139
-0.37734845 -0.01616814 -0.11859392 4283081129
-0.37557578 -0.013904219 -0.11640427 4283078298
-0.37382346 -0.011665987 -0.11423977 4283534992
-0.37158024 -0.0094021959 -0.11132289 4284056966
-0.36987361 -0.0072183893 -0.1092158 4285428091
-0.36868477 -0.0051009348 -0.10789294 4286345586
-0.36800137 -0.0030371239 -0.107338 4287068800
-0.36732045 -0.00098076905 -0.10678518 4288587427
-0.36614996 0.0010985023 -0.10548133 4289901478
-0.36498815 0.003162618 -0.10418724 4288260503
-0.36431909 0.0051892824 -0.10364548 4284116342
-0.36365244 0.0072087403 -0.10310578 4284574320
-0.36298823 0.0092210099 -0.10256808 4283260274
-0.36232647 0.011226188 -0.10203239 4284454285
-0.3616671 0.013224218 -0.10149875 4290560436
-0.36148548 0.015211385 -0.10170077 4292011223
-0.36178061 0.017198594 -0.10263959 4291417541
-0.36207685 0.019193484 -0.10358196 4291586687
-0.36333874 0.02121049 -0.10602213 4291711587
-0.36461478 0.023250427 -0.10848968 4289623148
-0.36640051 0.025328724 -0.11175425 4288054650
-0.3682133 0.027438911 -0.11506845 4287462518
-0.37056562 0.029605146 -0.11923002 4288175715
-0.37244201 0.031785622 -0.12265956 4290136917
-0.37382048 0.033967916 -0.12532002 4291513687
-0.37521511 0.036176071 -0.12801167 4291777370
-0.37608936 0.038369197 -0.12989558 4291713115
-0.37643203 0.040534195 -0.13095105 4290924888
-0.37731618 0.042758141 -0.1328577 4290333783
-0.37766325 0.044945266 -0.13392535 4286333522
-0.37910557 0.047260009 -0.13671662 4282992734
-0.38001093 0.049538359 -0.13866927 4283454543
-0.38092354 0.051835336 -0.14063761 4282992448
-0.38128331 0.054077078 -0.14173813 4282795842
-0.3822065 0.056406874 -0.1437308 4282993477
-0.38313711 0.058755845 -0.14573961 4283783505
-0.38522297 0.061303083 -0.14958194 4285493609
-0.38792965 0.063988604 -0.15441737 4286415221
-0.39009434 0.066627704 -0.15840383 4287465336
-0.3849555 -0.034505457 -0.12987527 4287666053
-0.38308877 -0.032072514 -0.12755805 4285109390
-0.38234207 -0.029853268 -0.12693562 4283732887
-0.38159832 -0.027642395 -0.1263157 4283209889
-0.38085741 -0.025439924 -0.12569824 4282949032
-0.38066405 -0.023325469 -0.12591329 4283081905
-0.37992638 -0.021135168 -0.1252979 4282950577
-0.37865192 -0.018882295 -0.12386046 4282817959
-0.37738734 -0.016646663 -0.12243421 4282817182
-0.37560403 -0.01436666 -0.12020969 4283013277
-0.37332121 -0.012056218 -0.11721352 4283341723
-0.37107316 -0.0097806584 -0.11426293 4284390292
-0.36835724 -0.0074923262 -0.11058576 4284190353
-0.367174 -0.0053736749 -0.10925785 4284450958
-0.36599961 -0.0032705853 -0.10793993 4285234050
-0.3653236 -0.0012174727 -0.10738713 4286936440
-0.363677 0.0008895428 -0.10533357 4288053380
-0.36301023 0.0029203105 -0.10478977 4288389533
-0.3623459 0.0049438262 -0.10424803 4287868578
-0.36216328 0.0069410079 -0.10445117 4287927441
-0.36102456 0.0089693759 -0.1031706 4285101686
-0.36084256 0.010959762 -0.10337307 4284054149
-0.36066052 0.012950423 -0.10357554 4290627510
-0.36047843 0.014941416 -0.10377807 4291943890
-0.36077213 0.01693199 -0.10472263 4291152833
-0.36154589 0.01893322 -0.10641858 4291190650
-0.36280942 0.02095649 -0.10888383 4291842912
-0.36408713 0.023002783 -0.1113769 4289622120
-0.36587548 0.025087262 -0.11467576 4287855731
-0.36769104 0.027203783 -0.11802493 4287914854
-0.37004724 0.029376287 -0.12223106 4289612630
-0.37140641 0.031536009 -0.12487882 4291054420
-0.37278137 0.033721261 -0.12755753 4291711064
-0.37417248 0.035932485 -0.13026778 4291712347
-0.37451062 0.038088314 -0.13132198 4291581276
-0.3753854 0.040298101 -0.13322648 4290726739
-0.37626705 0.042525679 -0.13514602 4289742672
-0.37661257 0.04471685 -0.13622046 4285610818
-0.3780514 0.047035009 -0.13903116 4282794315
-0.37895417 0.049317218 -0.14099708 4282468941
-0.37986425 0.051618062 -0.1429788 4282796357
-0.38022244 0.053864088 -0.14408641 4283059277
-0.38114309 0.056197874 -0.14609271 4283586384
-0.38263857 0.058634762 -0.1490209 4284901721
-0.38472879 0.06119163 -0.15290605 4286149996
-0.3874414 0.063887335 -0.157796 4286480758
-0.38961092 0.066536754 -0.16182745 4287991673
-0.38411385 -0.037042603 -0.13195361 4286879372
-0.38280261 -0.034692861 -0.13046686 4284780434
-0.38150167 -0.032361399 -0.12899189 4284060827
-0.38075796 -0.030141406 -0.12836672 4283408038
-0.38056377 -0.02801902 -0.12858272 4283015598
-0.38036954 -0.02589635 -0.12879874 4282885556
-0.38017529 -0.023773383 -0.12901479 4283081652
-0.37943557 -0.021573406 -0.12839103 4282818218
-0.37869871 -0.019381747 -0.12776968 4282882207
-0.37742639 -0.017130867 -0.12631992 4283144346
-0.37563229 -0.014834561 -0.12405983 4283406235
-0.37333593 -0.012506953 -0.12101667 4284980881
-0.3705619 -0.010162076 -0.11722576 4286817914
-0.36733958 -0.0078137172 -0.11272986 4284979084
-0.36566293 -0.0056464733 -0.11062302 4284653469
-0.36400512 -0.0035032241 -0.10853984 4283994778
-0.36284894 -0.0014184142 -0.10723212 4284582802
-0.36170134 0.00065126433 -0.10593411 4285625986
-0.36103934 0.0026788425 -0.10539033 4286935672
-0.36037979 0.0046992293 -0.10484859 4288054148
-0.35972261 0.0067124632 -0.10430886 4288454814
-0.35954049 0.0087027373 -0.10451141 4288195744
-0.35935837 0.010693286 -0.10471398 4287007636
-0.35917619 0.012684136 -0.10491659 4289311409
-0.35899401 0.014675262 -0.10511921 4291090121
-0.35975966 0.016664315 -0.10681359 4289901488
-0.36053094 0.018668462 -0.1085206 4291123063
-0.36179101 0.020694163 -0.11100238 4292568165
-0.36306527 0.022743018 -0.11351216 4289291871
-0.36484912 0.024829606 -0.11683359 4287586913
-0.36666021 0.026948402 -0.12020576 4289153875
-0.3684991 0.029100044 -0.1236298 4290790995
-0.36984912 0.03125836 -0.12628582 4291579735
-0.37121487 0.033442158 -0.12897287 4291712346
-0.37259665 0.035651922 -0.13169155 4291647068
-0.37346211 0.037847642 -0.13359381 4291710552
-0.37380001 0.040016223 -0.13465889 4290857298
-0.37521344 0.042292234 -0.13744369 4288955724
-0.37555745 0.044487465 -0.1385249 4285414972
-0.37699261 0.046809047 -0.14135514 4283384895
-0.37789288 0.049095102 -0.14333446 4282401859
-0.37880036 0.051399861 -0.14532971 4282730051
-0.37971514 0.053723566 -0.14734115 4283059278
-0.38063732 0.056066465 -0.14936893 4283717206
-0.38213566 0.058512669 -0.15232924 4285296483
-0.38481027 0.061169483 -0.1571932 4286414705
-0.38694876 0.063785158 -0.16120298 4287201910
-0.38215387 -0.039363716 -0.13232461 4286420621
-0.38085294 -0.037009589 -0.13083945 4284387989
-0.38010895 -0.034776438 -0.13020949 4284195488
-0.37991428 -0.032650333 -0.13042596 4284528555
-0.37971961 -0.030523943 -0.13064246 4283343535
-0.37952492 -0.028397193 -0.130859 4283147960
-0.37987757 -0.026356446 -0.13192412 4284592317
-0.38023162 -0.024307303 -0.13299349 4286168250
-0.37948722 -0.022093028 -0.13235822 4284131246
-0.37874573 -0.019887177 -0.13172548 4283210403
-0.37746561 -0.017620847 -0.13025175 4283275677
-0.37566063 -0.015308013 -0.12795545 4283603099
-0.3733505 -0.012962993 -0.12486437 4286028941
-0.3705602 -0.010600037 -0.12101473 4286816116
-0.36681762 -0.0081846602 -0.11566474 4287210117
-0.36415163 -0.0059193214 -0.11198843 4286293883
-0.36250213 -0.003774385 -0.10989774 4285046425
-0.36135143 -0.0016883684 -0.10858506 4284653471
-0.35973272 0.00041378525 -0.10653266 4284059803
-0.35907549 0.0024382146 -0.1059889 4284710789
-0.35842061 0.0044555073 -0.10544717 4285950831
-0.35823843 0.0064456435 -0.10564978 4286736243
-0.35758626 0.0084523847 -0.10510977 4288377720
-0.35740432 0.010439426 -0.10531209 4287986050
-0.35769162 0.012417769 -0.10625786 4287597717
-0.35797995 0.014403723 -0.10720722 4288455330
-0.35826933 0.016397312 -0.10816008 4288641929
-0.35951194 0.018402632 -0.1106307 4290990437
-0.36076853 0.020430826 -0.11312909 4291778142
-0.36203927 0.022482216 -0.11565575 4289679696
-0.36381862 0.024570955 -0.11899988 4288432975
-0.36562511 0.026691955 -0.12239515 4290134861
-0.36695066 0.028823776 -0.1250288 4291446868
-0.36829156 0.030980658 -0.12769307 4291711579
-0.37016812 0.033193916 -0.13122244 4291647325
-0.3715463 0.03540672 -0.13395977 4291646299
-0.37240919 0.037605971 -0.13587485 4291840856
-0.37327883 0.039822929 -0.13780509 4291318359
-0.37469465 0.042107016 -0.14061983 4287974225
-0.37503886 0.04431079 -0.14171188 4284760384
-0.37592939 0.046582125 -0.14368872 4283583042
-0.3773782 0.048935547 -0.14657308 4282532158
-0.37828714 0.051249143 -0.14858963 4282466366
-0.37920341 0.053581845 -0.15062258 4282795590
-0.38069284 0.056012712 -0.15359066 4283978578
-0.38220072 0.058473874 -0.15659541 4285493349
-0.38489243 0.061146997 -0.16153395 4286349168
-0.38075304 -0.041792959 -0.13354932 4286289804
-0.38055715 -0.039654959 -0.13376713 4284191125
-0.3787162 -0.037191577 -0.13142712 4284128159
-0.37852141 -0.035065599 -0.1316437 4285642153
-0.37832662 -0.03293933 -0.1318603 4284265648
-0.37867686 -0.030908024 -0.13292748 4283080879
-0.37902844 -0.028868359 -0.13399889 4284000441
-0.37938133 -0.026820259 -0.13507457 4286760133
-0.37973568 -0.024763707 -0.13615465 4289257935
-0.37953922 -0.022618918 -0.13637313 4285576124
-0.37824565 -0.02032388 -0.13486931 4283604648
-0.377505 -0.0181167 -0.13423052 4283342245
-0.375689 -0.015787108 -0.13189732 4283538338
-0.37336498 -0.013424403 -0.12875745 4284979351
-0.3705582 -0.011043105 -0.12484793 4286618757
-0.3662914 -0.0085584829 -0.1186222 4288194420
-0.36312917 -0.0062364531 -0.11412773 4286358141
-0.36099887 -0.0040455637 -0.11125586 4287145869
-0.35985366 -0.0019584068 -0.10993824 4285309320
-0.35824314 0.00014540783 -0.10787845 4283211173
-0.35711861 0.0021984561 -0.10658549 4283406752
-0.35646844 0.0042126048 -0.1060438 4284189327
-0.35628644 0.0061992309 -0.10624618 4284903543
-0.35563895 0.0082029309 -0.10570614 4286603619
-0.35592234 0.010173364 -0.10665103 4286995047
-0.35620677 0.012151375 -0.10759939 4286798945
-0.35649225 0.014136973 -0.10855133 4287258470
-0.35724977 0.016128043 -0.1102618 4288893282
-0.35848886 0.018135788 -0.11274891 4290859102
-0.35926092 0.020161064 -0.11449119 4291253344
-0.36100912 0.022220349 -0.11780767 4290727769
-0.36179942 0.024284733 -0.11958896 4290136914
-0.36358696 0.026399668 -0.12298241 4290988625
-0.36489809 0.028525881 -0.12561454 4291578968
-0.36622441 0.030677048 -0.12827714 4291647325
-0.36963797 0.032975245 -0.13432433 4291581790
-0.37049153 0.035160501 -0.13623717 4291711069
-0.37188238 0.037402924 -0.13902599 4291776861
-0.37328973 0.039672419 -0.14184813 4291320158
-0.37471402 0.041969482 -0.14470421 4288828248
-0.37506017 0.044186439 -0.14581107 4285219398
-0.37595603 0.046471164 -0.14781648 4283584073
-0.3768591 0.048774675 -0.14983815 4282926657
-0.37776944 0.051097181 -0.15187627 4282662974
-0.37925002 0.053512685 -0.15485211 4282729793
-0.38074887 0.055958278 -0.15786473 4284372813
-0.38226619 0.058434494 -0.16091469 4285623903
-0.3849754 0.061124135 -0.16592944 4287070314
-0.37880361 -0.044100229 -0.13391654 4286421133
-0.37751821 -0.041732304 -0.1324282 4284060821
-0.37624294 -0.0393827 -0.13095161 4283405977
-0.37604883 -0.037265275 -0.13116743 4284718747
-0.3758547 -0.035147496 -0.13138327 4285835677
-0.37673867 -0.033228386 -0.13329491 4283800995
-0.37708563 -0.031197473 -0.13436504 4283146155
-0.37797967 -0.029250588 -0.1363 4284262577
-0.37833112 -0.027199002 -0.13738261 4287285188
-0.37923551 -0.025223779 -0.13934132 4290112730
-0.37959146 -0.023151161 -0.14043657 4286235080
-0.37884066 -0.020916404 -0.13978033 4283933359
-0.37754458 -0.018618504 -0.13825712 4283408554
-0.3757174 -0.016271923 -0.13588627 4283538341
-0.37337935 -0.013891345 -0.13269669 4283865759
-0.37055591 -0.011491432 -0.12872614 4285308309
-0.36626452 -0.0089854635 -0.12240535 4286029699
-0.3621026 -0.0065548667 -0.11627537 4284981395
-0.35949534 -0.0043168273 -0.11261423 4285964684
-0.35835558 -0.002228468 -0.11129168 4284194198
-0.35628402 -9.077385e-05 -0.10847282 4283015335
-0.35563409 0.0019311758 -0.10792668 4283015339
-0.35498655 0.0039460058 -0.10738265 4283145380
-0.35480443 0.0059327963 -0.10758512 4283338388
-0.35415953 0.0079371147 -0.10704274 4284386192
-0.35444009 0.0099072484 -0.10799021 4285035653
-0.35472164 0.01188493 -0.10894117 4286073940
-0.3554711 0.013863828 -0.11065003 4286989388
-0.35622612 0.015857747 -0.1123716 4289415255
-0.35698676 0.017866854 -0.11410603 4291319650
-0.35823122 0.019896133 -0.11662894 4291520878
-0.35948974 0.021948693 -0.11918043 4291385711
-0.36076254 0.024024934 -0.12176099 4291517796
-0.36254543 0.026142094 -0.12517762 4291581279
-0.36486053 0.028313408 -0.12946956 4291057248
-0.36619422 0.030476032 -0.13217025 4291320415
-0.36910337 0.032754797 -0.13745084 4291646558
-0.37048584 0.034982845 -0.14024696 4291908194
-0.37188476 0.037237782 -0.14307646 4291647584
-0.37276074 0.039475743 -0.14505501 4291386207
-0.37418741 0.041781019 -0.14794199 4290140510
-0.37453377 0.044006672 -0.14905992 4286335569
-0.375431 0.046300068 -0.15108672 4284043087
-0.37633547 0.048612408 -0.15312999 4283978314
-0.37724724 0.050943926 -0.15518993 4283780936
-0.37873057 0.053368561 -0.15819852 4283584584
-0.38023221 0.055823531 -0.16124435 4284833105
-0.38175246 0.058309365 -0.16432811 4286477152
-0.37795115 -0.04665174 -0.13599889 4286880655
-0.37612545 -0.044147447 -0.13364583 4284323223
-0.37485555 -0.041788489 -0.13216455 4283668376
-0.37359557 -0.03944774 -0.13069488 4285373578
-0.37340212 -0.03733841 -0.13090996 4287144827
-0.37373969 -0.035332013 -0.13196705 4287145338
-0.3746134 -0.03341721 -0.13387735 4284784270
-0.37549409 -0.031486981 -0.13580287 4283473574
-0.3763817 -0.029541042 -0.13774367 4284130732
-0.37782517 -0.027669044 -0.14057434 4286692802
-0.37873101 -0.025687644 -0.1425539 4290374618
-0.37908727 -0.02360744 -0.14366013 4286893776
-0.37833431 -0.021362584 -0.14299491 4284196531
-0.37813592 -0.019199593 -0.14321548 4283474606
-0.37629047 -0.016830619 -0.1407961 4283473576
-0.37392923 -0.014426559 -0.13754253 4283408295
-0.37107816 -0.012002408 -0.13349348 4283605671
-0.36623701 -0.0094174622 -0.12623243 4283736228
-0.36156085 -0.0069203014 -0.11921895 4283605416
-0.35846925 -0.0046291202 -0.11474329 4283670691
-0.35733107 -0.0025355637 -0.11341042 4283015341
-0.35526314 -0.00039147623 -0.11057077 4282884525
-0.35414934 0.0016638734 -0.10926811 4283081132
-0.35350439 0.0036793603 -0.10872171 4282817958
-0.35332215 0.005666309 -0.10892431 4282947744
-0.35267985 0.0076712761 -0.10837959 4283539113
-0.35295758 0.0096410839 -0.10932963 4284196016
-0.35323626 0.011618404 -0.11028317 4284900469
-0.35398012 0.013596507 -0.11199711 4287120205
-0.35472944 0.015589591 -0.11372383 4289941082
-0.35548437 0.017597862 -0.11546342 4291517797
-0.35672024 0.019625787 -0.1179941 4291583851
-0.35845226 0.021685241 -0.12134358 4291384169
-0.35923412 0.023751846 -0.12314192 4291450986
-0.36149967 0.025883513 -0.12738153 4291515245
