# .PCD v0.7 - Point Cloud Data file format
VERSION 0.7
FIELDS x y z rgba
SIZE 4 4 4 4
TYPE F F F U
COUNT 1 1 1 1
WIDTH 989
HEIGHT 1
VIEWPOINT 0 0 0 1 0 0 0
POINTS 989
DATA ascii
-0.41530362 0.028753635 -0.064077534 4291668588
-0.43845513 -0.011784578 -0.12456642 4284830796
-0.43875587 -0.0097241458 -0.12370156 4284438605
-0.43763864 -0.0083172154 -0.12130059 4283122491
-0.43653062 -0.0069215777 -0.11891927 4286268474
-0.43473729 -0.0058649359 -0.11580994 4287518796
-0.43365243 -0.0044928407 -0.11347488 4288236869
-0.43121591 -0.0037891332 -0.10970383 4288105033
-0.43015835 -0.0024413255 -0.10742117 4288366408
-0.42711765 -0.0020887742 -0.10304061 4288694871
-0.42349064 -0.0020660048 -0.098061815 4290608242
-0.42185104 -0.0010815269 -0.095207609 4290011484
-0.41587177 -0.0023357342 -0.08780016 4290540613
-0.4101173 -0.0035425159 -0.080671042 4291926076
-0.40745595 -0.0032006796 -0.076816358 4292517687
-0.40484372 -0.0028648856 -0.0730327 4292519224
-0.40227932 -0.0025349259 -0.069318093 4292716344
-0.40254545 -0.00071153964 -0.06855274 4292520003
-0.40281165 0.0011120879 -0.067787267 4291934572
-0.40251601 0.0026273376 -0.066443831 4289375877
-0.40278178 0.0044481889 -0.065679528 4287074431
-0.40304756 0.0062692878 -0.064915121 4286746751
-0.40331343 0.0080906665 -0.064150602 4286745468
-0.40357929 0.009912326 -0.063385963 4286417017
-0.4044095 0.012059593 -0.063192062 4286417273
-0.40467596 0.013885097 -0.062425792 4287206786
-0.40550977 0.016044097 -0.062229548 4289180570
-0.40634668 0.018211253 -0.062032457 4290890152
-0.40776131 0.02073035 -0.062408116 4291610778
-0.40918642 0.023268292 -0.06278646 4292327019
-0.41062215 0.025825374 -0.063167475 4292584774
-0.41265979 0.028764855 -0.064135507 4292126033
-0.41472045 0.03173773 -0.065114342 4291735150
-0.43514088 -0.013664173 -0.12524185 4284437826
-0.4340429 -0.012247217 -0.1228447 4283189056
-0.43364608 -0.010523128 -0.12122545 4284039744
-0.43325093 -0.0088058244 -0.11961269 4286667076
-0.43080267 -0.0080635045 -0.11576928 4287646286
-0.42974013 -0.0066909073 -0.11344866 4288107337
-0.42868614 -0.0053290096 -0.11114661 4288301128
-0.4123846 -0.011422826 -0.092412107 4288563015
-0.41025284 -0.010707404 -0.089022659 4286860870
-0.40756491 -0.010296156 -0.085053839 4288105547
-0.40435132 -0.010182869 -0.080544002 4289481295
-0.41719058 -0.0019172108 -0.093146138 4289547597
-0.40147606 -0.0082394918 -0.07536453 4289746248
-0.39950573 -0.0075734006 -0.072228819 4291066943
-0.39811286 -0.0066276137 -0.069716975 4292190011
-0.39728037 -0.0054015098 -0.067805186 4292650297
-0.39591205 -0.0044754087 -0.065339595 4292782138
-0.39726043 -0.0020909507 -0.06572099 4292782143
-0.39861858 0.0003110645 -0.066105038 4292261983
-0.3988823 0.0021186639 -0.065346405 4290953360
-0.39969772 0.0042353286 -0.06515792 4288588428
-0.39996201 0.0060467534 -0.06439767 4286812028
-0.40078095 0.0081749316 -0.064206898 4286416249
-0.40160292 0.010311143 -0.064015321 4286417274
-0.40242791 0.012455427 -0.063822918 4286482806
-0.40269381 0.014277818 -0.063058071 4286548342
-0.4035224 0.016433807 -0.062863357 4287470978
-0.40492132 0.018937038 -0.063240834 4289642139
-0.40575868 0.021114035 -0.063045144 4291218338
-0.40717366 0.023648949 -0.063425131 4291935872
-0.40918067 0.026559902 -0.06438937 4292520530
-0.41062167 0.029139256 -0.064777702 4292519497
-0.41266695 0.032108869 -0.065758295 4291930457
-0.41473535 0.035112329 -0.066749886 4291408758
-0.42754766 -0.023125915 -0.12464086 4289029472
-0.42988336 -0.02021387 -0.12608339 4289023311
-0.43018007 -0.018179428 -0.12522966 4289814865
-0.43047681 -0.016144658 -0.12437582 4286665542
-0.43008867 -0.014420038 -0.12276031 4284302660
-0.42902231 -0.013014161 -0.12039766 4286137411
-0.42729235 -0.011931664 -0.11731125 4286928970
-0.42758566 -0.0099204006 -0.11646725 4287974727
-0.41372183 -0.014645371 -0.10008056 4288105547
-0.41155502 -0.013897615 -0.096593581 4288431693
-0.40942127 -0.013160982 -0.093159586 4287058250
-0.40614417 -0.013014404 -0.088499062 4285218117
-0.40466928 -0.012009325 -0.085816555 4283907387
-0.40206799 -0.011591109 -0.081929065 4286726208
-0.39895615 -0.011464811 -0.077511556 4288760139
-0.39591211 -0.011340977 -0.07319016 4289218893
-0.39617598 -0.0095317308 -0.072430938 4289219406
-0.39319476 -0.0094295191 -0.068210572 4289877061
-0.39238867 -0.0082065901 -0.066324882 4291264829
-0.39264888 -0.0064224461 -0.065576203 4292453181
-0.39237747 -0.0049265968 -0.064265892 4292651068
-0.39370337 -0.0025606395 -0.064640701 4292847931
-0.39450058 -0.00047548561 -0.0644532 4292456531
-0.39530066 0.0016174433 -0.064264931 4291477643
-0.39610368 0.0037181838 -0.06407591 4290428575
-0.39690962 0.0058267219 -0.063886046 4288127114
-0.39826658 0.0082587134 -0.064263016 4286744954
-0.39908093 0.010387534 -0.064072244 4286416247
-0.4004533 0.012849927 -0.064451732 4286416502
-0.40127614 0.014999324 -0.064260028 4286482294
-0.40266418 0.017492697 -0.064642064 4286811515
-0.4034957 0.019662987 -0.064449437 4288128396
-0.40489966 0.022187842 -0.064834058 4290101917
-0.40631405 0.024731636 -0.065221377 4291412882
-0.40773895 0.027294595 -0.065611482 4292259172
-0.4091745 0.029876903 -0.066004388 4293109833
-0.41121155 0.03285088 -0.066991903 4293306705
-0.41267374 0.035478912 -0.067393437 4291865441
-0.41429615 -0.027407583 -0.11272259 4288636765
-0.42425916 -0.021191506 -0.12285964 4288759630
-0.42455217 -0.019181436 -0.12201629 4289415757
-0.42484525 -0.01717113 -0.12117282 4288564301
-0.42447308 -0.015465024 -0.11958335 4287715662
-0.42344204 -0.014071652 -0.11726192 4287580236
-0.41288817 -0.017160816 -0.10433994 4288107335
-0.41011244 -0.016679255 -0.10013302 4288301387
-0.40798548 -0.015920293 -0.096665725 4287515729
-0.40589073 -0.015172577 -0.093250841 4285352545
-0.40382758 -0.014435812 -0.089887209 4283712089
-0.40122429 -0.013993771 -0.085947573 4282531923
-0.39923 -0.013277414 -0.082693659 4282401095
-0.3967118 -0.01285274 -0.078884616 4283973185
-0.39423928 -0.012435513 -0.075144611 4287448394
-0.39234582 -0.011747668 -0.072050311 4289088337
-0.39207274 -0.010232308 -0.070719354 4289284686
-0.38968578 -0.0098451022 -0.067118444 4289481547
-0.38889784 -0.0086291516 -0.065250017 4290010693
-0.3902041 -0.0062893778 -0.065626577 4291660094
-0.3894144 -0.0050855475 -0.063763238 4292519229
-0.39019674 -0.0030234789 -0.063576013 4292782139
-0.39098188 -0.00095382059 -0.063387945 4292783173
-0.39230049 0.0014228706 -0.063758805 4291999337
-0.39309371 0.0035121741 -0.063569844 4291150742
-0.39442706 0.0059182453 -0.063943088 4290230174
-0.3957701 0.0083420025 -0.064318918 4288255878
-0.39712292 0.010783565 -0.06469737 4286613624
-0.39848557 0.013243155 -0.065078437 4286548089
-0.39985824 0.015720962 -0.065462194 4286744954
-0.401241 0.018217195 -0.065848663 4286745467
-0.40263397 0.02073206 -0.066237845 4287206529
-0.40403724 0.023265719 -0.06662976 4288982417
-0.40545094 0.025818484 -0.067024492 4290952595
-0.40687522 0.028390436 -0.067422047 4292063339
-0.40831015 0.030981885 -0.067822427 4293110600
-0.40975589 0.033593014 -0.068225712 4293766735
-0.41121253 0.036224063 -0.06863191 4293897046
-0.4132804 0.039262932 -0.069643468 4292128363
-0.40814984 -0.026873773 -0.10759214 4288498255
-0.40782619 -0.025224945 -0.10609952 4288563275
-0.40750381 -0.023582166 -0.10461252 4289022026
-0.40658507 -0.022221776 -0.10245536 4289680718
-0.40567335 -0.020871522 -0.10031451 4288563014
-0.40535828 -0.019251846 -0.098852336 4288366674
-0.4044565 -0.017919987 -0.096737169 4287716190
-0.40240008 -0.017161479 -0.093341142 4288182382
-0.40037444 -0.016414035 -0.089995839 4288189564
-0.39837894 -0.015677387 -0.08670003 4288127625
-0.39641285 -0.014951353 -0.083452716 4288193926
-0.39447555 -0.014235646 -0.080252737 4288056177
-0.39202771 -0.013806689 -0.076507226 4286673756
-0.39015338 -0.013110287 -0.07340879 4285418580
-0.3883059 -0.012423575 -0.070354551 4287973713
-0.38909018 -0.010364666 -0.070178665 4289154384
-0.38674226 -0.00997811 -0.066601694 4289349964
-0.38648349 -0.0084892772 -0.065301448 4289416011
-0.3872577 -0.00644089 -0.065117791 4290011974
-0.38648251 -0.0052426844 -0.063266158 4291793471
-0.38725543 -0.0031916504 -0.063079037 4292650555
-0.3880311 -0.0011330753 -0.062891141 4292913980
-0.38933209 0.0012304981 -0.063258253 4292718925
-0.39064237 0.0036112352 -0.063627832 4291738487
-0.39249489 0.0063184495 -0.064563021 4291084950
-0.39382848 0.0087395059 -0.064940445 4289966229
-0.39571518 0.011499674 -0.06589102 4287991937
-0.39762253 0.014290283 -0.066851884 4286744953
-0.39899448 0.016776655 -0.067242831 4286942331
-0.4003765 0.019281585 -0.067636542 4287204735
-0.40176877 0.021805214 -0.068033032 4288060294
-0.40317139 0.024347758 -0.068432346 4290033045
-0.40458441 0.026909458 -0.068834528 4291411341
-0.40600803 0.029490516 -0.069239564 4292390497
-0.40685973 0.031721167 -0.069051854 4293241924
-0.40829995 0.034335297 -0.069459766 4293702222
-0.40916085 0.036588147 -0.069271207 4294427486
-0.41121313 0.039623551 -0.070284478 4292328296
-0.41389352 0.043091007 -0.0719193 4290622324
-0.40249869 -0.027984548 -0.10408396 4288499279
-0.40160751 -0.02662071 -0.10194952 4288496970
-0.40130171 -0.024999959 -0.10049292 4289546831
-0.40099716 -0.023385037 -0.099041738 4289615698
-0.40011844 -0.022047985 -0.096941978 4289351250
-0.39981785 -0.02044718 -0.095505424 4288572524
-0.39894855 -0.019128088 -0.093430512 4288517253
-0.39752173 -0.018094912 -0.09073595 4289046161
-0.39555457 -0.017348604 -0.087447017 4288523923
-0.39361629 -0.016613016 -0.084206238 4286813848
-0.39170632 -0.015887864 -0.081012577 4286286724
-0.39035779 -0.014899326 -0.078458287 4285433218
-0.38796878 -0.014468024 -0.074762508 4286617480
-0.38665959 -0.013500693 -0.072277993 4287334008
-0.38484988 -0.012815859 -0.0692534 4286732120
-0.38459432 -0.011322309 -0.067948677 4288762964
-0.38433966 -0.0098337736 -0.066648453 4289286995
-0.38408592 -0.0083502661 -0.065352671 4289284941
-0.38434219 -0.0065906625 -0.064614624 4289417037
-0.38408902 -0.0051149256 -0.063324504 4290212678
-0.38485491 -0.003070689 -0.063138165 4291861824
-0.38562357 -0.0010189468 -0.062951088 4292848187
-0.38691127 0.0013368365 -0.063317075 4293176638
-0.38820824 0.0037097058 -0.063685611 4292719184
-0.39004099 0.0064080153 -0.06461779 4291869301
-0.39136085 0.0088208681 -0.064994045 4291215502
-0.3943072 0.012215918 -0.067084856 4289637771
-0.39620677 0.015010638 -0.068052284 4287730560
-0.39812729 0.017836362 -0.069030188 4287663745
-0.40006903 0.020693582 -0.070018813 4288980368
-0.40146524 0.023231979 -0.0704256 4290035101
-0.40287182 0.025789494 -0.070835285 4290823577
-0.40428892 0.028366322 -0.071247913 4291739256
-0.40571666 0.030962702 -0.071663521 4293177417
-0.40657094 0.033204697 -0.071479671 4293635904
-0.4074285 0.035455361 -0.071295023 4293308488
-0.40828928 0.037714772 -0.071109556 4292326998
-0.40974578 0.040372033 -0.071528092 4290163297
-0.41181299 0.043446787 -0.072559901 4289245545
-0.39958462 -0.029653078 -0.1047838 4288438615
-0.39813498 -0.028548401 -0.10199023 4289809497
-0.39670169 -0.027455853 -0.09922795 4289220947
-0.39584544 -0.026113886 -0.097143464 4289418079
-0.3955549 -0.024517788 -0.095717497 4289548119
-0.39470777 -0.023193691 -0.093657464 4288636008
-0.39442107 -0.021611327 -0.092245683 4288977037
-0.39358291 -0.020304784 -0.090209678 4289310361
-0.39275095 -0.019007558 -0.088188544 4288851606
-0.39138165 -0.017991608 -0.085567117 4288915085
-0.39002737 -0.016986452 -0.08297421 4286031770
-0.38815707 -0.01626366 -0.079812579 4283859858
-0.38736281 -0.015007996 -0.077872202 4283071610
-0.38605207 -0.014034338 -0.075362161 4284179810
-0.3852725 -0.012797343 -0.073454767 4286809720
-0.3839846 -0.011843564 -0.070990331 4286416249
-0.38372999 -0.010348897 -0.069680199 4287387993
-0.38245943 -0.0094143171 -0.067252941 4289813858
-0.38271561 -0.0076547507 -0.066514999 4289875540
-0.38297182 -0.005894945 -0.065776959 4289481294
-0.38272098 -0.0044202222 -0.064484812 4289482827
-0.3829768 -0.002663003 -0.06374786 4290607427
-0.38374069 -0.0006139577 -0.063562185 4292321599
-0.38450736 0.0014426042 -0.063375771 4293045566
-0.38630724 0.0041095889 -0.064299777 4293177152
-0.38812649 0.0068054437 -0.065233625 4292982095
-0.38943705 0.0092156297 -0.065611415 4292720997
-0.39343923 0.013257406 -0.068855911 4291672702
-0.39588618 0.016396403 -0.070418812 4290096512
-0.39781192 0.019240387 -0.07141339 4289770375
-0.39975902 0.022116158 -0.072418891 4290495638
-0.40172789 0.025024282 -0.073435485 4290954388
-0.40256977 0.027242096 -0.073256329 4291608449
-0.40341482 0.029468438 -0.07307639 4292916827
-0.4048419 0.032074034 -0.07349965 4293767745
-0.40569609 0.034322545 -0.073318914 4293177924
-0.40655348 0.036579799 -0.073137388 4291407946
-0.40741417 0.038845796 -0.072955057 4289638230
-0.40946412 0.041905977 -0.073993139 4288656225
-0.41093609 0.044599917 -0.074425742 4289247085
-0.39669248 -0.031309064 -0.10547841 4288959572
-0.39526448 -0.030199245 -0.10269152 4289620831
-0.39329532 -0.029357392 -0.099283621 4288832120
-0.39190483 -0.028272294 -0.096567228 4288500309
-0.39107573 -0.026941974 -0.094515711 4289088607
-0.39025277 -0.025621196 -0.092479222 4289220712
-0.38943586 -0.024309812 -0.090457529 4288905335
-0.39024323 -0.022218006 -0.090314925 4288915350
-0.38942796 -0.020920988 -0.088304654 4289178265
-0.38861865 -0.019633163 -0.086308941 4289114275
-0.3878153 -0.018354427 -0.084327631 4286352026
-0.38701779 -0.017084701 -0.082360588 4284848530
-0.38622609 -0.015823882 -0.080407612 4283931554
-0.38544011 -0.014571853 -0.078468576 4282945944
-0.3846598 -0.013328548 -0.076543361 4284052843
-0.38388512 -0.012093858 -0.074631765 4284837742
-0.38311601 -0.010867686 -0.072733663 4287537804
-0.38286239 -0.009371886 -0.071418129 4286602076
-0.38159412 -0.0084405895 -0.068977393 4288636253
-0.38185066 -0.0066777337 -0.068238176 4289357662
-0.38210726 -0.0049146013 -0.067498855 4289286482
-0.38135269 -0.003725396 -0.065645345 4289350734
-0.38160843 -0.0019679689 -0.064908415 4289745993
-0.38186422 -0.00021024095 -0.064171359 4291329601
-0.38313401 0.0021405118 -0.064540446 4292650303
-0.38441274 0.0045082206 -0.064911999 4293177405
-0.38621852 0.007201599 -0.065847442 4293374529
-0.38804379 0.0099242218 -0.066792853 4293571655
-0.39310959 0.014631644 -0.071216956 4293441876
-0.39556301 0.017792465 -0.072802931 4293114464
-0.39749396 0.020654883 -0.073814385 4293445749
-0.39944646 0.023549424 -0.074837022 4294039426
-0.4014208 0.026476653 -0.075870961 4293839987
-0.40226519 0.028705701 -0.075695723 4293770074
-0.40311277 0.030943369 -0.075519674 4293834057
-0.4039636 0.03318971 -0.075342894 4293046854
-0.40481761 0.035444759 -0.075165294 4290948940
-0.40567493 0.037708562 -0.074986927 4289377109
-0.40712407 0.040370993 -0.075421073 4288591199
-0.40858427 0.043053918 -0.075858399 4288854378
-0.41005558 0.045757558 -0.076298907 4289443705
-0.3924154 -0.031837761 -0.10338768 4286732396
-0.39102453 -0.030735096 -0.10063846 4286860384
-0.38964912 -0.029644389 -0.097919688 4286334048
-0.38828897 -0.028565489 -0.09523084 4286136662
-0.38747913 -0.027243644 -0.093199298 4286729048
-0.38667527 -0.025931178 -0.091182515 4287451507
-0.38640773 -0.024369659 -0.089798562 4288249201
-0.38614124 -0.022813542 -0.088419564 4288850323
-0.3858757 -0.021262815 -0.087045439 4287080075
-0.38561121 -0.019717462 -0.085676223 4285369748
-0.38534769 -0.018177429 -0.084311843 4283466124
-0.38456193 -0.016912725 -0.082351953 4282944143
-0.38378179 -0.01565684 -0.080406062 4285043610
-0.38352406 -0.014137138 -0.07906305 4284780190
-0.38326728 -0.012622644 -0.077724755 4285236619
-0.38301149 -0.011113288 -0.076391146 4287602831
-0.38173321 -0.01016637 -0.073906712 4289772187
-0.38148201 -0.0086716013 -0.072589122 4286869607
-0.38123173 -0.0071818708 -0.071276069 4285616725
-0.3809824 -0.0056971428 -0.069967628 4289028707
-0.38073397 -0.0042173802 -0.068663657 4289879900
-0.38048643 -0.0027426332 -0.067364186 4289548367
-0.38023981 -0.00127278 -0.066069163 4289481548
-0.38049555 0.00048511929 -0.06533213 4290010440
-0.38125494 0.00254041 -0.065149181 4291725119
-0.38252473 0.0049055433 -0.065522291 4292978237
-0.38483253 0.0079063103 -0.067022748 4293439549
-0.38612884 0.010316544 -0.067406371 4293702976
-0.39115399 0.015022063 -0.071832448 4293965124
-0.3946856 0.018858118 -0.074607752 4294228564
-0.39661521 0.021731952 -0.075631097 4294695801
-0.39913127 0.024993505 -0.077273391 4294963083
-0.40053937 0.027577154 -0.077711917 4294890347
-0.40195808 0.030180439 -0.078153625 4294358092
-0.40280819 0.032429483 -0.077981561 4293043532
-0.40366152 0.034687299 -0.077808768 4291075407
-0.40451816 0.036953926 -0.077635199 4289246042
-0.40537804 0.039229397 -0.077460833 4288525922
-0.40683147 0.041907933 -0.077906042 4288853356
-0.40829599 0.044607148 -0.078354493 4289047668
-0.40917143 0.046919774 -0.078179486 4290034043
-0.39667544 -0.039189164 -0.11826438 4286616441
-0.39522532 -0.038018472 -0.1153625 4285435775
-0.39379174 -0.036860846 -0.11249357 4284779910
-0.39293626 -0.035469357 -0.11033613 4284582282
-0.39208722 -0.034088083 -0.10819486 4284517005
-0.39124462 -0.032716889 -0.10606954 4284451727
-0.38985756 -0.031607274 -0.1033003 4284320917
-0.38903114 -0.03025751 -0.10121271 4284254864
-0.38712963 -0.029424114 -0.097853482 4284320141
-0.38578826 -0.028350163 -0.095174901 4284252286
-0.38499045 -0.027033715 -0.093151025 4285033319
-0.38419849 -0.025726575 -0.091141775 4286010204
-0.38393635 -0.02417089 -0.089762956 4286932577
-0.38315257 -0.022880703 -0.087776698 4288520590
-0.38341507 -0.021075591 -0.087019973 4288062357
-0.38263607 -0.019800721 -0.085050561 4284513388
-0.38289768 -0.018001605 -0.084296361 4282470739
-0.38212341 -0.016741857 -0.082343608 4284442464
-0.38186854 -0.015220268 -0.080997251 4285099880
-0.38161463 -0.013703862 -0.079655617 4285043344
-0.38136166 -0.012192626 -0.078318693 4287140239
-0.38110963 -0.010686532 -0.076986402 4289378210
-0.3803502 -0.0094649382 -0.075079963 4290560162
-0.38060835 -0.0076896162 -0.074335746 4286740593
-0.37985346 -0.0064824992 -0.072445206 4284634958
-0.37960649 -0.0049987743 -0.071134701 4286142033
-0.37936044 -0.0035200703 -0.069828697 4288894815
-0.37911522 -0.0020463071 -0.06852717 4289679701
-0.37887096 -0.00057747477 -0.067230128 4289416272
-0.37912661 0.0011806391 -0.066493116 4289482574
-0.37938228 0.0029390196 -0.065755993 4290341703
-0.38064316 0.0053015985 -0.066130616 4292121920
-0.38242227 0.0079900902 -0.067069255 4293241662
-0.38422048 0.010707639 -0.068017878 4293701694
-0.38920528 0.015411201 -0.072445951 4294029634
-0.39270887 0.019244699 -0.075222909 4294491736
-0.39517733 0.02246373 -0.076850176 4294894210
-0.39768264 0.025730977 -0.078501545 4294961030
-0.39908525 0.028317567 -0.078944683 4294360416
-0.40049842 0.030923866 -0.079391055 4292907852
-0.4013457 0.033174563 -0.079221331 4291524178
-0.40277547 0.035814479 -0.07967104 4290085721
-0.40363196 0.038087733 -0.079500668 4288918885
-0.40507865 0.040761895 -0.07995373 4288722285
-0.40653637 0.043456685 -0.080410123 4288783987
-0.40800527 0.046172392 -0.080869921 4288522101
-0.40948555 0.048909228 -0.081333116 4289970045
-0.39492828 -0.043928318 -0.12264412 4287142787
-0.39405668 -0.042492267 -0.12041952 4285567624
-0.39376155 -0.040827584 -0.11891506 4284779913
-0.39176959 -0.039892212 -0.11532684 4283863179
-0.39092159 -0.03848961 -0.11315896 4283468686
-0.38897344 -0.037581779 -0.10965409 4283272594
-0.38924474 -0.035715114 -0.10887168 4283076753
-0.38841578 -0.034342997 -0.1067519 4283011220
-0.38813856 -0.032732278 -0.10530876 4283142291
-0.38731843 -0.031378392 -0.10321383 4283011990
-0.38596594 -0.030285981 -0.10048596 4283208601
-0.38462839 -0.029205337 -0.097788051 4283209373
-0.38330555 -0.02813627 -0.09511961 4283406758
-0.38304394 -0.026570827 -0.093728721 4286551972
-0.38226041 -0.025267538 -0.09172105 4285759884
-0.3814826 -0.02397343 -0.089727841 4286206817
-0.38122678 -0.02242887 -0.088358946 4287464568
-0.38097188 -0.020889593 -0.086994924 4288786333
-0.38020444 -0.019619772 -0.085032679 4287403153
-0.380465 -0.017826913 -0.084281206 4283845980
-0.38021299 -0.016303429 -0.082931519 4283321946
-0.37996194 -0.014785144 -0.081586547 4283456103
-0.38022169 -0.012997916 -0.080837443 4283931293
-0.37997115 -0.011487699 -0.079498418 4287999127
-0.37972149 -0.0099826474 -0.078164048 4289903782
-0.37896696 -0.0087633859 -0.076253429 4290494627
-0.37922502 -0.0069878218 -0.075509228 4286672746
-0.37847495 -0.0057829809 -0.073614545 4284438607
-0.37823033 -0.0043003191 -0.072301991 4284306762
-0.37798661 -0.0028225938 -0.070993945 4286077262
-0.37774378 -0.0013498659 -0.069690377 4288305749
-0.37750185 0.00011793172 -0.068391316 4289286483
-0.3777574 0.0018762808 -0.067654319 4289482575
-0.37801301 0.0036348759 -0.066917218 4289746253
-0.37876791 0.0056963665 -0.066736981 4290737222
-0.38104066 0.0086925356 -0.068240814 4292320834
-0.38231865 0.011097423 -0.068627395 4293373503
-0.38779345 0.016129373 -0.073643066 4293963843
-0.39128143 0.019971026 -0.076433212 4294559581
-0.39318842 0.022846172 -0.077464834 4294893960
-0.3956742 0.0261104 -0.079117745 4294100607
-0.39763087 0.029058151 -0.08017768 4292643667
-0.39903849 0.031667441 -0.080628686 4291389779
-0.39988294 0.033919767 -0.080461308 4290862424
-0.40130714 0.036562718 -0.080915719 4290345313
-0.40274212 0.039225962 -0.081373401 4289376624
-0.40477666 0.042306203 -0.082465835 4288587124
-0.40623873 0.04501747 -0.082933627 4287995760
-0.4083131 0.048161283 -0.084045313 4288524398
-0.40980303 0.050921883 -0.084523484 4289314168
-0.39117199 -0.047683034 -0.12336262 4286879620
-0.39088276 -0.046012226 -0.1218558 4285239179
-0.38947356 -0.044810031 -0.11895051 4284124819
-0.38863403 -0.04338941 -0.1167693 4283403924
-0.38890713 -0.041509513 -0.11598147 4283077014
-0.3875224 -0.040343188 -0.11313625 4283208857
-0.38724512 -0.038712997 -0.11167349 4283011734
-0.38588008 -0.03757048 -0.1088734 4283208088
-0.38560799 -0.035957061 -0.10742925 4282815128
-0.38533691 -0.034349386 -0.10599035 4282881179
-0.38506687 -0.032747395 -0.10455669 4283012508
-0.38426256 -0.03140071 -0.10247617 4282882465
-0.38346422 -0.030063698 -0.10041088 4283276967
-0.38162065 -0.029238904 -0.097088255 4287143600
-0.38032132 -0.02817527 -0.094438203 4287359174
-0.38006645 -0.026618045 -0.09305618 4285445328
-0.3798126 -0.025066195 -0.091679037 4284260264
-0.37904635 -0.023777287 -0.089693159 4284640639
-0.37879574 -0.022238409 -0.08832933 4286666342
-0.37854606 -0.020704821 -0.08697024 4288189068
-0.37829733 -0.019176474 -0.085615955 4288851872
-0.37804955 -0.01765334 -0.084266409 4285235326
-0.37830916 -0.015866419 -0.083517544 4282928467
-0.37806189 -0.01435141 -0.082173944 4283065453
-0.37832108 -0.012567168 -0.081426211 4285827994
-0.37807429 -0.011060242 -0.080088533 4289050537
-0.37833312 -0.0092786774 -0.079341896 4290166956
-0.37758344 -0.0080616791 -0.077427104 4289312416
-0.37733933 -0.0065700063 -0.076103322 4285816412
-0.37709618 -0.0050833388 -0.074784108 4283846472
-0.37685394 -0.0036016977 -0.073469497 4283913802
-0.37661257 -0.0021250115 -0.072159402 4284240968
-0.37637207 -0.00065329607 -0.070853792 4285945933
-0.37613246 0.00081350794 -0.069552697 4288173906
-0.37589377 0.0022754178 -0.068256095 4289351762
-0.37664348 0.0043308451 -0.068078637 4289548113
-0.3773959 0.0063938098 -0.067900471 4289943887
-0.37915444 0.0090837404 -0.068846911 4291329607
-0.38093182 0.011802702 -0.069803357 4292780353
-0.38638136 0.016847715 -0.074840397 4293832517
-0.38985369 0.020697467 -0.077643767 4294226771
-0.39175269 0.023576841 -0.078682087 4293699682
-0.39367291 0.026488561 -0.079731882 4292248159
-0.39561465 0.029433148 -0.080793284 4291125844
-0.39701203 0.032039192 -0.081245773 4290796121
-0.39785102 0.034288213 -0.0810799 4290732895
-0.40041441 0.037695829 -0.082787827 4290150506
-0.40243167 0.040761404 -0.08388637 4289111158
-0.40447211 0.043862462 -0.084997416 4288061041
-0.40653616 0.046999574 -0.086121142 4288194663
-0.4080191 0.049755629 -0.086607479 4288658029
-0.40951359 0.05253334 -0.087097429 4289314166
-0.38829044 -0.049282786 -0.12399115 4285764748
-0.38634706 -0.048287958 -0.1203787 4284060051
-0.38552228 -0.046859905 -0.11820057 4283339673
-0.38470373 -0.045442302 -0.1160387 4283208345
-0.38443199 -0.043806229 -0.1145736 4283538850
-0.38470247 -0.041943721 -0.11379316 4287668908
-0.38335407 -0.040785592 -0.11098669 4284784292
-0.38308698 -0.039169509 -0.10954154 4282880663
-0.38282093 -0.03755917 -0.10810164 4282880919
-0.3825559 -0.035954516 -0.10666696 4282684316
-0.38229191 -0.034355547 -0.10523747 4282685601
-0.38202891 -0.032762192 -0.10381313 4282883496
-0.38124013 -0.031422656 -0.10174686 4282884784
-0.38045716 -0.030092703 -0.099695586 4283148471
-0.37916172 -0.02902252 -0.097026616 4285640637
-0.37788042 -0.027963707 -0.094386518 4285185471
-0.3776308 -0.026412282 -0.093009591 4283804089
-0.37738216 -0.02486619 -0.091637529 4283210142
-0.37662733 -0.023582425 -0.089658961 4283600271
-0.3763819 -0.022049218 -0.088300087 4284967279
-0.37613738 -0.02052124 -0.086945966 4286737775
-0.37589377 -0.01899847 -0.085596606 4288455575
-0.37615281 -0.017214812 -0.084849201 4287340952
-0.37641189 -0.01543087 -0.084101692 4284307050
-0.37616831 -0.013919136 -0.082759477 4285231762
-0.37642702 -0.012137873 -0.082013078 4288523948
-0.37668574 -0.010356337 -0.081266567 4289905332
-0.37694448 -0.008574551 -0.080519974 4290495664
-0.37619966 -0.0073598428 -0.07860101 4287274655
-0.37595797 -0.0058692116 -0.07727515 4284243052
-0.37571716 -0.0043835994 -0.075953886 4282994519
-0.37498206 -0.0031915018 -0.074064322 4283322957
-0.37474433 -0.0017179482 -0.072755463 4283518535
-0.37450749 -0.00024931933 -0.07145115 4283977032
-0.37427151 0.0012144194 -0.070151336 4286009677
-0.3740364 0.002673245 -0.068855941 4288303697
-0.37478149 0.0047259931 -0.068679906 4289285971
-0.37602362 0.0070913401 -0.069064185 4289678931
-0.37727466 0.0094737224 -0.069451101 4290339150
-0.37954471 0.012508144 -0.070979543 4291922248
-0.38444406 0.017233228 -0.075447969 4292909897
-0.38735354 0.020737983 -0.07765349 4292577100
-0.38923171 0.023607221 -0.078688085 4291717457
-0.39113075 0.026508566 -0.079734035 4291058517
-0.39360568 0.029806897 -0.081406839 4290665049
-0.39499286 0.032409672 -0.081860773 4290667104
-0.39752492 0.035790276 -0.083568275 4290671719
-0.40009552 0.039222483 -0.085301585 4289697905
-0.40153393 0.041911539 -0.085778631 4288323698
-0.40416497 0.045430832 -0.087548666 4288326247
-0.4062351 0.048589382 -0.08869154 4288788586
-0.4083294 0.051784988 -0.089847602 4289052530
-0.40983376 0.054587092 -0.090353101 4290625920
-0.38433337 -0.051306549 -0.12320009 4285701779
-0.38297403 -0.050086148 -0.1203149 4283471772
-0.38216642 -0.048659448 -0.11814938 4283078302
-0.38083196 -0.047464691 -0.11531904 4282947234
-0.38003984 -0.04606038 -0.11319193 4283144352
-0.37925363 -0.044666231 -0.11108045 4286753972
-0.37952054 -0.042827573 -0.11031012 4286695114
-0.37873921 -0.041449908 -0.10821679 4284913806
-0.37900522 -0.03961749 -0.10744908 4284191622
-0.37927124 -0.037784819 -0.10668126 4283535756
-0.37953731 -0.035951879 -0.10591332 4282815900
-0.37928024 -0.034361504 -0.10449313 4282620582
-0.37902415 -0.032776698 -0.10307801 4282817964
-0.37825057 -0.031444237 -0.10102577 4282752945
-0.37799782 -0.029872905 -0.099624507 4282818222
-0.37723228 -0.028557763 -0.097595774 4283407012
-0.37596369 -0.027503155 -0.094957411 4283340960
-0.37571794 -0.025955148 -0.093581967 4283012251
-0.37547311 -0.024412444 -0.092211373 4282881177
-0.37472638 -0.023132376 -0.090234302 4283143318
-0.37448475 -0.021602524 -0.088876829 4283534478
-0.37474406 -0.019815961 -0.088128336 4285100405
-0.3740041 -0.01855839 -0.086176157 4286939770
-0.3742626 -0.0167777 -0.085430108 4288457365
-0.37452114 -0.014996741 -0.084683947 4286020222
-0.37477967 -0.013215526 -0.083937697 4287933867
-0.3750383 -0.01143405 -0.08319132 4289708982
-0.37529692 -0.0096523017 -0.082444832 4290431671
-0.3755556 -0.0078703063 -0.081698246 4290759601
-0.37481564 -0.00665789 -0.07977511 4289181349
-0.37457633 -0.0051682941 -0.078447193 4288259736
-0.37433788 -0.0036836853 -0.077123858 4287862149
-0.37360761 -0.0024938835 -0.075230174 4287200623
-0.37288243 -0.001312177 -0.073349677 4284898911
-0.37313771 0.00044626676 -0.072612949 4283583820
-0.37290406 0.0019089926 -0.071311109 4284107081
-0.37267128 0.0033668405 -0.070013694 4286271056
-0.37341389 0.0054210084 -0.069839701 4288368725
-0.37465113 0.0077890181 -0.070228085 4289352021
-0.3763949 0.010486788 -0.071186952 4289746002
-0.37815738 0.013213716 -0.072155945 4290667598
-0.38251346 0.017617481 -0.076053567 4291258957
-0.38593051 0.021462053 -0.078860044 4291059536
-0.38726386 0.023985848 -0.079296663 4290794837
-0.3896918 0.02724109 -0.080954008 4290599773
-0.39215595 0.030545099 -0.082635902 4290274146
-0.39353758 0.03315087 -0.083094478 4290079335
-0.39719617 0.037303831 -0.086075708 4289954155
-0.39977393 0.040760867 -0.087834708 4288716912
-0.40121654 0.043466352 -0.08832331 4288195690
-0.40326157 0.046601351 -0.089466393 4288854377
-0.40593147 0.050191622 -0.091282047 4289314675
-0.40742341 0.052981999 -0.091792248 4290494077
-0.38017151 -0.051650096 -0.12094452 4283861381
-0.37937722 -0.050222918 -0.11878486 4283012250
-0.37701735 -0.049457155 -0.11461012 4282816421
-0.37624502 -0.048055947 -0.11250143 4282620072
-0.37496501 -0.046883676 -0.10974868 4282620070
-0.37471738 -0.045283403 -0.10832994 4284715421
-0.37498128 -0.04346472 -0.1075681 4287078020
-0.37473416 -0.041873097 -0.10615569 4289045334
-0.37499765 -0.040057175 -0.105395 4289111122
-0.37628707 -0.037772227 -0.10593189 4287929703
-0.37655163 -0.035949137 -0.10516818 4284388496
-0.37630135 -0.034367278 -0.10375715 4282816166
-0.37656546 -0.032546952 -0.10299463 4282619557
-0.37631565 -0.030973665 -0.10158991 4282619555
-0.37606683 -0.029405795 -0.10019021 4282619297
-0.37480214 -0.028344739 -0.097533077 4282815390
-0.37405363 -0.027044144 -0.095526464 4282815133
-0.37431461 -0.025245512 -0.094773017 4282880410
-0.37357062 -0.023960209 -0.092783302 4283011734
-0.37333047 -0.022426164 -0.091418974 4283143829
-0.37309122 -0.020897351 -0.090059422 4283339925
-0.37285289 -0.019373735 -0.088704623 4283796360
-0.37261546 -0.017855301 -0.087354533 4285166713
-0.37287384 -0.016074387 -0.086608514 4287401086
-0.37313229 -0.014293239 -0.085862391 4287271567
-0.37339076 -0.012511794 -0.085116141 4288920495
-0.3736493 -0.010730099 -0.084369786 4289905331
-0.37390786 -0.0089481389 -0.08362332 4290362797
-0.37416646 -0.007165927 -0.082876757 4289376674
-0.37343138 -0.0059558167 -0.080949433 4287275436
-0.37368912 -0.0041794078 -0.080205299 4287147185
-0.37295836 -0.0029836718 -0.078294061 4288853415
-0.37223288 -0.0017961044 -0.076396257 4289706404
-0.37199983 -0.0003246156 -0.075083338 4288521110
-0.37176764 0.0011420043 -0.073774971 4286021488
-0.37153634 0.0026037162 -0.07247109 4284045138
-0.37179115 0.0043597887 -0.071735471 4284303692
-0.37253341 0.006419545 -0.07156419 4286401108
-0.3737697 0.0087955026 -0.071959421 4288565080
-0.37651116 0.012137217 -0.074079141 4289679702
-0.37828368 0.014887885 -0.075068928 4290204244
-0.38162369 0.018667934 -0.077839404 4290531923
-0.38450724 0.022186233 -0.080066808 4290532183
-0.38636956 0.025063926 -0.081114754 4290404447
-0.38825259 0.027973777 -0.082174189 4289753448
-0.39070591 0.031283434 -0.08386521 4289426281
-0.39319611 0.034643106 -0.085581511 4289558886
-0.39743811 0.039218862 -0.089245401 4288846442
-0.4006176 0.043111689 -0.091692731 4288327017
-0.40207452 0.045847282 -0.092199981 4288723564
-0.40474021 0.049438626 -0.094040491 4289379701
-0.40683782 0.052658137 -0.095234856 4290624897
-0.37897822 -0.052566286 -0.12365884 4284176457
-0.37713277 -0.051561695 -0.12010296 4282864721
-0.37583345 -0.050357517 -0.11727775 4285693047
-0.37352332 -0.049595937 -0.11314747 4284062887
-0.37226278 -0.048419598 -0.11040138 4283015085
-0.37151751 -0.047039475 -0.10833472 4283473839
-0.37127787 -0.045450315 -0.10692888 4283864208
-0.37153977 -0.043644629 -0.10617257 4288979038
-0.37130058 -0.042063978 -0.10477298 4290816070
-0.37206367 -0.040032417 -0.10465963 4291076677
-0.37384287 -0.037525244 -0.10583837 4290685773
-0.37410635 -0.03570858 -0.10507749 4286685039
-0.37436989 -0.033891644 -0.10431648 4283339931
-0.37463343 -0.032074459 -0.10355537 4282684574
-0.37438756 -0.030504644 -0.10215223 4282488483
-0.37414259 -0.028940298 -0.10075405 4282619298
-0.37339365 -0.027632859 -0.098728642 4282619296
-0.37265015 -0.026334599 -0.096717708 4282619294
-0.371912 -0.025045423 -0.094721153 4282881179
-0.37167475 -0.023509473 -0.09335345 4283142550
-0.37143835 -0.021978749 -0.09199056 4283601809
-0.37120286 -0.020453256 -0.090632439 4286553219
-0.37146157 -0.018669469 -0.089885309 4285241988
-0.37122652 -0.017152106 -0.088533148 4284123788
-0.37148485 -0.015370959 -0.087787129 4285692281
-0.3717432 -0.013589598 -0.08704102 4287270284
-0.37200162 -0.011807935 -0.086294793 4288983980
-0.37226006 -0.010026028 -0.08554846 4288853935
-0.37251854 -0.0082438523 -0.084802024 4289379759
-0.37277707 -0.0064614364 -0.084055461 4287010986
-0.37254032 -0.0049667009 -0.082715303 4285439922
-0.37230453 -0.003476995 -0.081379861 4285634214
-0.37157857 -0.0022835389 -0.079464473 4286815125
-0.37134579 -0.00080598792 -0.078141652 4287670691
-0.37062719 0.00037226605 -0.076247595 4289314218
-0.37039736 0.0018378327 -0.074937187 4289114524
-0.3706525 0.0035969669 -0.074200399 4286218099
-0.37090769 0.0053563663 -0.073463492 4283913298
-0.37213811 0.007728538 -0.073865555 4284368718
-0.37387139 0.010430947 -0.074845619 4286728787
-0.37662843 0.013805511 -0.077002659 4289023831
-0.37841108 0.016580293 -0.078013614 4290204505
-0.38073039 0.019722316 -0.079631932 4290467163
-0.38414019 0.023604624 -0.082488112 4290274402
-0.3854717 0.026146062 -0.082939751 4289624684
-0.38735312 0.029067535 -0.084011309 4289101166
-0.39035496 0.032763019 -0.086346023 4289362280
-0.39341345 0.03652852 -0.088724688 4289565799
-0.39826211 0.041553263 -0.09310703 4288655976
-0.40147406 0.045499004 -0.095610611 4288855147
-0.40294549 0.04826536 -0.096137077 4289642104
-0.40563884 0.051903982 -0.098022848 4290559624
-0.37725016 -0.053697463 -0.12567793 4284044872
-0.37594032 -0.052472666 -0.12280067 4282863688
-0.37412757 -0.05147415 -0.11927096 4286408801
-0.37234151 -0.050490011 -0.11579303 4288059524
-0.37007993 -0.049732551 -0.11170638 4285826699
-0.36835229 -0.048776522 -0.10833952 4283604911
-0.36762777 -0.047407344 -0.10629897 4282753980
-0.36739719 -0.045831621 -0.10490941 4283931029
-0.36814761 -0.043821804 -0.10479742 4289502041
-0.36791614 -0.042251978 -0.10341033 4291272767
-0.36916122 -0.0400078 -0.10393243 4291535937
-0.37091485 -0.037513897 -0.10510082 4291143238
-0.37167862 -0.035469625 -0.10498766 4287144812
-0.37194112 -0.033659108 -0.10422946 4283667362
-0.37220362 -0.031848285 -0.10347112 4282685092
-0.37146154 -0.030530643 -0.10143612 4282357925
-0.37122315 -0.0289745 -0.10004682 4282685093
-0.3704887 -0.027673783 -0.098034948 4282684836
-0.36975953 -0.026382158 -0.096037336 4282750623
-0.36952642 -0.024846617 -0.094669886 4282947483
-0.3692942 -0.023316296 -0.093307212 4283143579
-0.36906281 -0.021791181 -0.091949262 4284454283
-0.36932096 -0.020010637 -0.091203608 4286225773
-0.36957914 -0.018229822 -0.090457834 4285111167
-0.36983734 -0.016448759 -0.089711964 4284325009
-0.37009558 -0.014667398 -0.088965967 4284320651
-0.37035388 -0.012885796 -0.088219874 4286152828
-0.3706122 -0.011103947 -0.087473683 4288322713
-0.37087059 -0.0093218349 -0.086727358 4288784807
-0.37112898 -0.0075394423 -0.085980937 4286947224
-0.37138742 -0.005756814 -0.085234396 4284380564
-0.37115309 -0.0042631025 -0.083892137 4284247936
-0.37091964 -0.0027744605 -0.082554631 4284973193
-0.37068704 -0.0012908241 -0.081221722 4285763994
-0.37045532 0.00018778264 -0.079893418 4285830306
-0.36973858 0.0013648304 -0.077989876 4286816919
-0.36999449 0.0031301184 -0.077250615 4289116581
-0.37025046 0.0048956787 -0.076511241 4288521626
-0.37002084 0.0063566035 -0.075197838 4285753705
-0.37125024 0.008736711 -0.075606748 4284240465
-0.37347695 0.011766223 -0.077179395 4286206289
-0.37674674 0.015491996 -0.079957984 4289024601
-0.37853962 0.018291201 -0.080990501 4290205793
-0.38139477 0.021806244 -0.083246857 4290078566
-0.3837702 0.025033567 -0.084927492 4289494384
-0.38564205 0.027948828 -0.086010218 4288905587
-0.3880803 0.031264659 -0.08773315 4288968043
-0.39111149 0.035008892 -0.090120539 4289693033
-0.39420035 0.03882461 -0.092553183 4289441647
-0.39909855 0.043923851 -0.097028524 4289117550
-0.40234363 0.047923699 -0.099589892 4289838712
-0.4038299 0.050721463 -0.10013604 4291084167
-0.37604901 -0.054619294 -0.12840636 4284110664
-0.37474331 -0.053387087 -0.12550859 4282994504
-0.37345222 -0.052168377 -0.12264301 4286541153
-0.37115529 -0.051387414 -0.11844838 4288716939
-0.3689003 -0.050620448 -0.11433017 4288717192
-0.36668611 -0.049867082 -0.11028633 4287064695
-0.36499515 -0.04891672 -0.10695389 4285171337
-0.36428776 -0.047556635 -0.1049329 4283015606
-0.36406472 -0.045991678 -0.10355575 4283407524
-0.36480373 -0.043996304 -0.10344212 4287210119
-0.36506176 -0.042215757 -0.10269656 4290419281
-0.36628976 -0.039983299 -0.10321328 4291273804
-0.36851165 -0.037269827 -0.1050116 4290422359
-0.36926824 -0.035232291 -0.10489874 4286032515
-0.36952966 -0.033428084 -0.1041433 4283144357
-0.36929461 -0.031867038 -0.10274936 4282358185
-0.36856696 -0.030556202 -0.10072798 4282357927
-0.36833492 -0.0290082 -0.099347457 4282619302
-0.36761469 -0.027714144 -0.097348914 4282750886
-0.36738572 -0.026178997 -0.09598168 4282750626
-0.36715761 -0.024649099 -0.094619207 4283012510
-0.36693031 -0.023124391 -0.093261451 4282880923
-0.36718786 -0.021347051 -0.092517249 4283732882
-0.36744547 -0.019569468 -0.091772936 4285767813
-0.36770308 -0.01779161 -0.091028519 4287474817
-0.36796078 -0.016013494 -0.090283975 4287013240
-0.36821848 -0.014235121 -0.089539349 4284651158
-0.36847624 -0.012456488 -0.088794582 4284581774
-0.36873403 -0.010677602 -0.08804974 4286610817
-0.36948085 -0.0086174877 -0.087906457 4288454299
-0.36973917 -0.0068348902 -0.087160043 4287866783
-0.3699975 -0.0050520357 -0.086413547 4284907903
-0.36976555 -0.0035593931 -0.085069217 4284113515
-0.36953452 -0.002071765 -0.083729625 4284248964
-0.3697921 -0.00029445213 -0.082985431 4284514969
-0.36956146 0.001185213 -0.081651643 4284784817
-0.36933169 0.0026599176 -0.080322497 4286485913
-0.37007585 0.0047347937 -0.080165386 4288521367
-0.3708227 0.0068173129 -0.080007583 4289706662
-0.37206578 0.0092202546 -0.080437467 4287530623
-0.3723245 0.011005484 -0.07968995 4286011999
-0.37457889 0.014078778 -0.081306115 4288569702
-0.37789032 0.017863855 -0.084154971 4290667374
-0.37970579 0.020701909 -0.085219987 4290210157
-0.38206866 0.023921028 -0.086915277 4289298034
-0.38446665 0.027188208 -0.088635601 4288643444
-0.38635626 0.030137481 -0.089747198 4288705132
-0.38881814 0.033494975 -0.091511227 4289427559
-0.39187929 0.037289012 -0.093952589 4289766511
-0.39499909 0.041156035 -0.096440606 4288985972
-0.3999477 0.046331447 -0.10101124 4288657783
-0.40262255 0.049961921 -0.10293927 4290820742
-0.37537095 -0.055335831 -0.13186361 4284373841
-0.37406403 -0.054095034 -0.12893562 4283191621
-0.37225491 -0.053078935 -0.12534072 4286278496
-0.37098232 -0.051866222 -0.12248672 4289111691
-0.36821544 -0.051301535 -0.11763505 4289178776
-0.36599928 -0.050539277 -0.11354668 4288719248
-0.36334077 -0.049999516 -0.1088869 4287788412
-0.36168566 -0.049054787 -0.10558819 4286733169
-0.36099496 -0.047703661 -0.10358644 4283799465
-0.36077926 -0.046149332 -0.10222145 4283081397
-0.36150709 -0.044168197 -0.10210629 4284197299
-0.36176321 -0.042400084 -0.10136606 4285898900
-0.36297065 -0.040184002 -0.10187434 4286880889
-0.36515266 -0.037491232 -0.10365019 4285832842
-0.36589766 -0.035468545 -0.1035357 4283407527
-0.36615717 -0.033677112 -0.10278569 4282619816
-0.36641666 -0.031885426 -0.1020356 4282292136
-0.36570317 -0.030581374 -0.10002764 4282489254
-0.36499482 -0.029286359 -0.098033912 4282555304
-0.36477119 -0.027753958 -0.096670419 4282554790
-0.36454841 -0.026226714 -0.095311731 4282751141
-0.36432648 -0.024704676 -0.093957715 4282947745
-0.36458299 -0.022933707 -0.093216285 4282946716
-0.36483955 -0.021162463 -0.092474751 4283209625
-0.36557648 -0.019129729 -0.092340507 4285702535
-0.36631596 -0.017089484 -0.092205651 4287014253
-0.36705822 -0.015041668 -0.092070244 4286685563
-0.36731631 -0.013259906 -0.091324307 4286618515
-0.36757445 -0.011477879 -0.090578243 4284979094
-0.36783263 -0.0096955849 -0.089832067 4284972171
-0.36809084 -0.0079130437 -0.089085788 4286873217
-0.36834908 -0.0061302329 -0.088339396 4288456094
-0.36860737 -0.0043471456 -0.087592892 4287800475
-0.3688657 -0.0025638153 -0.086846292 4285298037
-0.36863571 -0.0010751243 -0.085501097 4283589230
-0.36840665 0.00040856862 -0.084160648 4283658630
-0.36866418 0.0021863298 -0.083416365 4284846000
-0.36892173 0.0039643687 -0.082671985 4288130484
-0.37015787 0.00635678 -0.083111607 4289904560
-0.37140292 0.0087666363 -0.083554246 4290759091
-0.37315691 0.011513767 -0.084601149 4288843153
-0.37341785 0.01331527 -0.083846934 4288963964
-0.37672248 0.017098861 -0.086728863 4290801289
-0.37957647 0.02062224 -0.089050673 4290737281
-0.38195136 0.023858594 -0.090783887 4289427825
-0.3832868 0.026424741 -0.091270819 4288445554
-0.38571629 0.029741494 -0.093039908 4288638314
-0.38763067 0.032733187 -0.094186887 4289487968
-0.3895669 0.035759192 -0.095346749 4290020456
-0.3926585 0.039604124 -0.097843461 4289376883
-0.39580983 0.043523587 -0.10038829 4287602798
-0.40080994 0.04877698 -0.10505676 4287075440
-0.37468764 -0.056057844 -0.13534707 4284831310
-0.37337959 -0.054808326 -0.13238852 4283191111
-0.37208626 -0.053572603 -0.12946308 4285884511
-0.37080738 -0.052350417 -0.12657025 4288849547
-0.36903566 -0.051354218 -0.12301934 4289705116
-0.36580035 -0.051006589 -0.11749954 4289179547
-0.36361399 -0.050249573 -0.11342719 4289179030
-0.36051589 -0.049922645 -0.10814539 4288712844
-0.35888952 -0.048983302 -0.10486951 4287909218
-0.35821229 -0.047639351 -0.10288092 4285234566
-0.35800254 -0.046093151 -0.10152441 4283015352
-0.35825673 -0.044337567 -0.10078954 4282951873
-0.35851097 -0.0425817 -0.10005452 4283214017
-0.35969827 -0.040381737 -0.10055467 4283212472
-0.36184129 -0.037709363 -0.10230839 4282686388
-0.36257502 -0.035701293 -0.10219236 4282291371
-0.36331138 -0.03368577 -0.10207579 4282161067
-0.36309019 -0.032143343 -0.10070302 4282291367
-0.3628698 -0.030606151 -0.099335007 4282423205
-0.3621752 -0.029317735 -0.09735439 4282358697
-0.36195767 -0.027793212 -0.09599939 4282489768
-0.36221361 -0.026025692 -0.095259495 4282751656
-0.3619965 -0.024509164 -0.093910433 4282882983
-0.3617802 -0.022997741 -0.092566006 4282881956
-0.36250764 -0.020979077 -0.092432745 4282948259
-0.36323768 -0.018952992 -0.092298895 4284193690
-0.36397037 -0.016919458 -0.092164494 4284718990
-0.3656683 -0.014337949 -0.093249716 4286292622
-0.3659263 -0.012555955 -0.092503771 4287603580
-0.36618435 -0.010773707 -0.091757745 4285241733
-0.36692768 -0.008709928 -0.091620967 4283994004
-0.36718631 -0.0069239954 -0.090873353 4285298045
-0.36744493 -0.0051377765 -0.090125658 4287202944
-0.36770359 -0.0033512868 -0.089377843 4288916384
-0.36747518 -0.0018585779 -0.08802589 4287403414
-0.36773348 -7.476889e-05 -0.087279186 4284638070
-0.36799181 0.0017093145 -0.086532377 4284445327
-0.36825016 0.0034936364 -0.085785456 4287079086
-0.36948821 0.0058929026 -0.08623793 4289840060
-0.3712317 0.0086241858 -0.087299556 4290956990
-0.37249178 0.011064233 -0.087761387 4290361776
-0.37631214 0.015168242 -0.091320366 4289624978
-0.38129339 0.020070348 -0.096255057 4290670227
-0.37787804 0.019511694 -0.091034822 4290934926
-0.38183275 0.023795417 -0.094695762 4289361781
-0.38371438 0.026736328 -0.095845953 4288509035
-0.3850714 0.029342465 -0.096357435 4288833130
-0.38754192 0.032719236 -0.098185182 4289814113
-0.38892904 0.035378397 -0.098711178 4290471004
-0.39145765 0.038840793 -0.10057774 4289757285
-0.3940253 0.042356957 -0.10247301 4288057445
-0.39840269 0.047173604 -0.10647608 4285493338
-0.40229243 0.05169199 -0.1098769 4285755231
-0.37241796 -0.057405964 -0.136654 4284899417
-0.37216631 -0.055735916 -0.13514027 4283188802
-0.37087724 -0.054492705 -0.13219401 4284834137
-0.37011558 -0.053052004 -0.12998883 4288586119
-0.36834228 -0.052046966 -0.1263995 4289443227
-0.36659515 -0.051056452 -0.12286295 4289573536
-0.36389115 -0.050503261 -0.11803373 4289442718
-0.36124566 -0.049961783 -0.11330883 4289507743
-0.35818794 -0.049639422 -0.10804731 4289374615
-0.35658374 -0.048705164 -0.10478371 4288440687
-0.35591692 -0.047366731 -0.1028024 4286798961
-0.3552548 -0.046037432 -0.10083494 4283470761
-0.35550758 -0.044290889 -0.10010394 4282424245
-0.35576043 -0.042544078 -0.099372819 4282425015
-0.35693166 -0.040355373 -0.099867903 4282161844
-0.3585766 -0.037924264 -0.10098584 4282095279
-0.35929921 -0.03593063 -0.10086826 4282226346
-0.36002445 -0.033929624 -0.10075019 4282161065
-0.3602806 -0.032159798 -0.10000945 4282226342
-0.36006629 -0.030630535 -0.098649979 4282291620
-0.35985282 -0.029106401 -0.097295247 4282357671
-0.35964012 -0.027587429 -0.095945165 4282489512
-0.35989508 -0.025825931 -0.095207922 4282686121
-0.35968274 -0.024314899 -0.093863651 4282751658
-0.35947117 -0.022808926 -0.092524059 4282948520
-0.36066014 -0.020539906 -0.092995517 4282949030
-0.36138552 -0.018516438 -0.092862941 4283210918
-0.36211354 -0.01648554 -0.092729762 4283538852
-0.36475947 -0.013361121 -0.095044874 4284850077
-0.36501789 -0.011575721 -0.094297625 4286357908
-0.36527631 -0.0097900787 -0.093550272 4284982430
-0.36601928 -0.0077206651 -0.093416467 4283669408
-0.36627823 -0.0059312764 -0.09266755 4283992206
-0.36605185 -0.004431583 -0.091307536 4285754993
-0.36679631 -0.0023517469 -0.09116938 4287661696
-0.36705542 -0.00056160608 -0.090420134 4288520087
-0.36731455 0.0012288081 -0.08967077 4286021512
-0.36855352 0.0036282744 -0.090139098 4286815140
-0.36930671 0.0057349191 -0.089997694 4289380791
-0.37055966 0.0081642047 -0.090469502 4290693819
-0.37282959 0.011255599 -0.092185363 4290428595
-0.37462011 0.014061855 -0.093297057 4289631383
-0.38496923 0.022458902 -0.10486642 4290079616
-0.38802224 0.026182014 -0.10746007 4290538111
-0.3866246 0.026987763 -0.10462216 4289492341
-0.38579333 0.028152801 -0.10248331 4288705126
-0.38606811 0.030051323 -0.10168869 4289291878
-0.3874521 0.032705057 -0.10222925 4290206564
-0.38940927 0.035765577 -0.10344901 4290666848
-0.39138913 0.038861748 -0.1046827 4289750367
-0.39281523 0.04159148 -0.10524285 4287587929
-0.39600483 0.045576446 -0.10788991 4285947214
-0.39865878 0.049215395 -0.10987998 4285028687
-0.40196356 0.053348023 -0.11262017 4287661672
-0.37015674 -0.058749065 -0.13795608 4286082912
-0.3699097 -0.057079699 -0.13644286 4283452998
-0.36914864 -0.055624198 -0.13421373 4283125583
-0.36890495 -0.053969488 -0.13271579 4287204982
-0.36764365 -0.052744895 -0.12980494 4289574044
-0.36639646 -0.051533647 -0.12692629 4289377437
-0.36466676 -0.050548535 -0.12339239 4289574047
-0.3619886 -0.050001677 -0.11856618 4289771171
-0.35936829 -0.049466345 -0.11384403 4289771171
-0.35633934 -0.049150512 -0.10858522 4289770915
-0.35475087 -0.04822113 -0.10532362 4288842894
-0.35409161 -0.046886556 -0.10334395 4288106088
-0.35343701 -0.045561053 -0.101378 4285169546
-0.35323733 -0.044031329 -0.10003597 4282817970
-0.35394153 -0.042073362 -0.0999185 4282293682
-0.35464829 -0.040108301 -0.099800557 4282162354
-0.35581559 -0.037910551 -0.10029703 4282227631
-0.35652944 -0.035927217 -0.1001789 4282160810
-0.35678369 -0.034169916 -0.099443503 4282095271
-0.35703793 -0.032412361 -0.098708011 4282095269
-0.35683078 -0.030893179 -0.097360432 4282160291
-0.35662442 -0.029379126 -0.096017495 4282225571
-0.35687789 -0.027626947 -0.095284268 4282291617
