# .PCD v0.7 - Point Cloud Data file format
VERSION 0.7
FIELDS x y z rgba
SIZE 4 4 4 4
TYPE F F F U
COUNT 1 1 1 1
WIDTH 1014
HEIGHT 1
VIEWPOINT 0 0 0 1 0 0 0
POINTS 1014
DATA ascii
-0.37437454 0.046148676 -0.1025826 4286394158
-0.37420496 0.047055949 -0.10293035 4286395696
-0.37427852 0.047910977 -0.10361934 4286329136
-0.37410876 0.048819199 -0.10396749 4286329901
-0.37369612 0.049778193 -0.10397383 4286394157
-0.37304246 0.050785184 -0.10363932 4286395182
-0.3723911 0.051788606 -0.103306 4286525487
-0.37150276 0.052836083 -0.10263552 4286525997
-0.37061918 0.053877994 -0.10196866 4286329389
-0.37021366 0.054823309 -0.10197681 4286264623
-0.36933669 0.055856302 -0.10131413 4286395440
-0.3689338 0.056796603 -0.10132297 4286462003
-0.36876634 0.057692457 -0.10166635 4286330419
-0.36859888 0.058588367 -0.10200977 4286265909
-0.36866629 0.059443031 -0.10268896 4286594102
-0.36873382 0.060299277 -0.10336946 4286730066
-0.36880144 0.061157111 -0.10405113 4288447067
-0.37139192 0.042006403 -0.097080953 4289814879
-0.37170035 0.042790256 -0.098089069 4286919254
-0.3720099 0.043576956 -0.09910091 4286591285
-0.37232056 0.044366572 -0.10011639 4286524978
-0.37263232 0.045159101 -0.10113556 4286525998
-0.37318668 0.045900568 -0.10249767 4286656302
-0.3730174 0.046806242 -0.10284484 4286657841
-0.37284806 0.047711965 -0.10319205 4286591281
-0.37267873 0.04861778 -0.10353928 4286592043
-0.37202799 0.049625002 -0.10320614 4286394154
-0.37137964 0.050628658 -0.10287425 4286395437
-0.37073359 0.05162878 -0.10254359 4286656302
-0.36985284 0.052672971 -0.10187753 4286657323
-0.3689768 0.053711642 -0.1012151 4286525739
-0.36857423 0.054653749 -0.10122403 4286526510
-0.36770472 0.055683535 -0.10056575 4286526511
-0.36730465 0.056620687 -0.10057524 4286527025
-0.36713776 0.05751336 -0.10091745 4286657586
-0.36697087 0.058406122 -0.10125968 4286658611
-0.36703655 0.059257593 -0.10193584 4286658611
-0.36710235 0.060110644 -0.1026132 4286665026
-0.36740181 0.060925324 -0.10362817 4288248647
-0.36998722 0.041825444 -0.096676283 4289880670
-0.37029228 0.042606909 -0.097681023 4286985557
-0.37059844 0.043391213 -0.098689444 4286656816
-0.37090573 0.044178393 -0.099701501 4286591021
-0.37121403 0.044968482 -0.1007172 4286591281
-0.37152347 0.04576147 -0.10173658 4286722098
-0.37135473 0.046663892 -0.10208255 4286723374
-0.37118599 0.047566406 -0.10242853 4286657326
-0.37077856 0.048520457 -0.10243629 4286657840
-0.37037182 0.049472872 -0.10244407 4286460208
-0.36972874 0.050473247 -0.10211477 4286395439
-0.36885223 0.051518615 -0.10145109 4286657071
-0.36751315 0.052653179 -0.10012461 4286723120
-0.36664873 0.053685445 -0.09947101 4286591536
-0.36601961 0.054667071 -0.099150836 4286592050
-0.36539268 0.05564528 -0.098831907 4286526258
-0.36522669 0.056533214 -0.099172309 4286526516
-0.36552066 0.057335515 -0.10017385 4286788916
-0.36535433 0.058225129 -0.1005149 4286854985
-0.36541834 0.059073441 -0.1011881 4286735951
-0.36548242 0.05992334 -0.10186244 4286669182
-0.36577791 0.060734805 -0.10287246 4288121998
-0.36584243 0.061588574 -0.10355019 4288654251
-0.36637193 0.062366635 -0.10490343 4289572022
-0.36690426 0.063148931 -0.10626395 4289968050
-0.36720464 0.063972987 -0.10729018 4290424752
-0.36774155 0.0647633 -0.10866331 4290621880
-0.36851847 0.065521657 -0.11038996 4290229948
-0.36930102 0.066285595 -0.11212916 4290032063
-0.369849 0.06709028 -0.11352931 4289769408
-0.36882412 0.041588385 -0.096602991 4289753693
-0.36889166 0.042424515 -0.097275205 4287903828
-0.36919451 0.043206409 -0.098280229 4287782191
-0.36949837 0.043991182 -0.099288881 4287837739
-0.36956677 0.044833396 -0.099966586 4287844402
-0.37010935 0.045569379 -0.10131708 4287378739
-0.36970398 0.046522561 -0.10132581 4287316526
-0.3695358 0.047421843 -0.1016706 4286919981
-0.36913124 0.048372652 -0.101679 4286921521
-0.3684921 0.049372271 -0.10135198 4286722866
-0.36785516 0.050368365 -0.10102613 4286724144
-0.36722049 0.051360995 -0.10070145 4287116080
-0.3663561 0.05239759 -0.10004575 4287183154
-0.36503634 0.05352132 -0.098733798 4287312690
-0.36464104 0.054454502 -0.098744839 4287379763
-0.36447516 0.055341575 -0.099084951 4287116339
-0.36408073 0.056272462 -0.099095762 4287052341
-0.36391497 0.05715891 -0.099435635 4287510325
-0.3639774 0.058003228 -0.10010543 4287655762
-0.36404002 0.058849126 -0.10077648 4288777819
-0.36410266 0.059696596 -0.10144872 4289107613
-0.36439487 0.060505509 -0.10245537 4289505203
-0.36445796 0.061356846 -0.10313094 4289638580
-0.36498234 0.062132213 -0.1044795 4289768116
-0.36550948 0.062911831 -0.10583529 4289835184
-0.36603945 0.063695714 -0.10719839 4290096046
-0.36704162 0.064409651 -0.10925584 4290227388
-0.36757955 0.065203354 -0.11063806 4290034116
-0.36835793 0.065965481 -0.11237664 4289902536
-0.36866409 0.066803917 -0.1134252 4290098635
-0.36897138 0.067645453 -0.11447761 4290230459
-0.36743239 0.04140928 -0.096201479 4289689758
-0.36773151 0.042186577 -0.097201027 4288253597
-0.36779797 0.043022573 -0.097873278 4288115861
-0.36809853 0.04380494 -0.098878525 4288252565
-0.36816546 0.044644773 -0.099554099 4288243347
-0.36846745 0.045432273 -0.10056511 4287596435
-0.36806491 0.046382189 -0.10057445 4287517586
-0.36766315 0.047330484 -0.10058387 4287070354
-0.36749569 0.04822585 -0.10092718 4286990991
-0.36686164 0.049222205 -0.10060267 4286870927
-0.36622989 0.050215058 -0.10027939 4286858618
-0.36536965 0.051252823 -0.099625997 4287323512
-0.36474326 0.052237827 -0.099305876 4287382363
-0.36389074 0.053265784 -0.098657988 4287644244
-0.36349714 0.054197587 -0.098669112 4287708734
-0.36287737 0.055172376 -0.098352492 4287380281
-0.36271203 0.056056418 -0.098691463 4287315551
-0.36254668 0.056940548 -0.09903045 4287919466
-0.36260772 0.057782482 -0.099698164 4288061841
-0.36266887 0.058625955 -0.10036707 4289833887
-0.36295748 0.059430093 -0.10136828 4290425781
-0.36301911 0.060277421 -0.10204055 4290229184
-0.36330906 0.061086755 -0.10304736 4290163132
-0.36382937 0.061860066 -0.10439334 4289899962
-0.36412206 0.062675968 -0.10540897 4289769144
-0.36441579 0.063494846 -0.10642821 4289964982
-0.36540705 0.064205371 -0.10847481 4290030265
-0.36570492 0.065032274 -0.10950603 4289900987
-0.36623821 0.065826312 -0.11088653 4289836734
-0.36630377 0.066695161 -0.11157967 4290295231
-0.3666048 0.067531236 -0.11262211 4290624954
-0.36690691 0.068370372 -0.11366837 4290426039
-0.36604798 0.041231118 -0.095802188 4290095028
-0.3663438 0.042006031 -0.09679842 4290031541
-0.36640882 0.042839672 -0.09746851 4290030781
-0.36647394 0.043674871 -0.098139845 4290228414
-0.36653921 0.044511609 -0.098812431 4290226362
-0.36683714 0.045296114 -0.099818505 4290097337
-0.36620545 0.046295725 -0.099496551 4289962426
-0.36627048 0.047135726 -0.100171 4289963962
-0.36564028 0.048131324 -0.09984871 4289961140
-0.36524275 0.049073163 -0.099858798 4289895859
-0.36461604 0.050062787 -0.099537954 4289829276
-0.36376309 0.05109733 -0.098888867 4289822872
-0.36314175 0.052079175 -0.098571226 4289825646
-0.3622964 0.053103931 -0.097927608 4289484900
-0.36213118 0.053987104 -0.098266266 4289423429
-0.36151543 0.054959737 -0.097951226 4288694844
-0.36135048 0.055841487 -0.098289341 4288511861
-0.36118552 0.056723293 -0.098627478 4289570693
-0.36124519 0.057562858 -0.09929312 4289770675
-0.36130494 0.058403954 -0.09995994 4290361538
-0.36136481 0.059246581 -0.100628 4290558662
-0.36165053 0.060050495 -0.10162792 4290426567
-0.36171088 0.060896952 -0.10229927 4290426305
-0.36222509 0.061667066 -0.10363852 4290162878
-0.36251387 0.062479738 -0.10464923 4290032061
-0.36280361 0.063295372 -0.10566349 4290162108
-0.36355382 0.06403973 -0.10735954 4290227895
-0.36384696 0.064862654 -0.10838414 4290031540
-0.36414117 0.06568861 -0.10941247 4289901237
-0.36420447 0.066552714 -0.11010057 4290228918
-0.36450011 0.067384027 -0.11113483 4290426809
-0.36479676 0.068218417 -0.1121728 4290360252
-0.36532846 0.069022812 -0.11356311 4290359236
-0.36586303 0.069831632 -0.11496104 4290097867
-0.36687431 0.070581198 -0.11707457 4289836478
-0.36506566 0.040110487 -0.095391266 4290230204
-0.36489987 0.040996682 -0.095731117 4290230985
-0.36496341 0.041826431 -0.096397959 4290755018
-0.36502698 0.042657729 -0.097065985 4290822603
-0.36532098 0.043435335 -0.098064519 4291018188
-0.36538503 0.044270415 -0.098735854 4291019468
-0.36544919 0.045107044 -0.099408381 4291084492
-0.36505181 0.046051383 -0.099418834 4291085262
-0.36488518 0.046941984 -0.099760361 4291280079
-0.36448863 0.047884032 -0.099770539 4291281352
-0.36409274 0.048824437 -0.099780664 4291214535
-0.36346918 0.049812783 -0.099460624 4291215553
-0.36262068 0.0508462 -0.098812893 4291015103
-0.36177671 0.051874187 -0.098168626 4290950064
-0.36116159 0.052850444 -0.097853743 4290420397
-0.3607724 0.053777732 -0.097865589 4290285206
-0.36038387 0.054703463 -0.09787748 4289431436
-0.36021918 0.055583708 -0.098215036 4289179818
-0.36005446 0.056463987 -0.098552614 4290428082
-0.35988978 0.05734434 -0.098890215 4290821574
-0.35994816 0.058183067 -0.099554978 4290690252
-0.36000666 0.059023321 -0.10022096 4290624969
-0.36028919 0.059824727 -0.10121757 4290557896
-0.36012384 0.060708452 -0.10155647 4290557893
-0.36040711 0.061514385 -0.10255726 4290360516
-0.36091688 0.062284872 -0.10389488 4290229440
-0.36097661 0.063135028 -0.10456955 4290294206
-0.36217266 0.063801058 -0.10692969 4290360250
-0.36223382 0.064658001 -0.10761129 4290097591
-0.36252406 0.065480649 -0.10863462 4289966519
-0.36212757 0.066411711 -0.10863739 4290097848
-0.36241788 0.067238361 -0.10966353 4290229179
-0.36270919 0.068068035 -0.11069334 4290294462
-0.36300153 0.068900764 -0.11172683 4290360257
-0.36375839 0.069671795 -0.11345862 4290295237
-0.3645207 0.070448473 -0.11520293 4290230972
-0.364351 0.07135538 -0.11555072 4290557620
-0.36408687 0.038993753 -0.094981782 4290361537
-0.36392131 0.039878372 -0.095321052 4290624451
-0.36398384 0.040705621 -0.095986381 4290691793
-0.36404642 0.041534424 -0.096652858 4291018194
-0.36388057 0.042420805 -0.096992783 4291020498
-0.36417198 0.043196619 -0.09798947 4291085010
-0.36400577 0.044084694 -0.098330073 4291085525
-0.36406851 0.044918951 -0.099000469 4291151573
-0.36413139 0.045754746 -0.099672183 4291152088
-0.3637358 0.046696983 -0.099682376 4291282136
-0.36356941 0.047586065 -0.10002336 4291283409
-0.36294675 0.048576552 -0.099702917 4291414224
-0.36232626 0.049563635 -0.099383578 4291480275
-0.36148229 0.050595906 -0.098737255 4291348692
-0.36086708 0.051575202 -0.09842106 4291282899
-0.36025402 0.052551135 -0.098106019 4291412691
-0.35986593 0.053477909 -0.098117694 4291475905
-0.35925621 0.054448053 -0.097804055 4290359740
-0.35909179 0.055326775 -0.098141052 4290034121
-0.35892734 0.056205578 -0.098478079 4290823117
-0.35876289 0.057084396 -0.098815136 4291085265
-0.35859841 0.057963304 -0.099152207 4290953170
-0.35865554 0.058801197 -0.099816129 4290887371
-0.3587127 0.059640612 -0.1004812 4290755016
-0.35877001 0.060481559 -0.10114747 4290755272
-0.35882741 0.06132406 -0.10181496 4290558152
-0.35933119 0.062091343 -0.10314594 4290492610
-0.35938922 0.06293834 -0.10381758 4290492095
-0.36012131 0.063675568 -0.10549365 4290491836
-0.36018029 0.064527854 -0.10617038 4290294458
-0.36046532 0.065345943 -0.10718574 4290164153
-0.36052471 0.066202126 -0.10786582 4290229945
-0.36081108 0.067025483 -0.10888694 4290360765
-0.36109844 0.067851856 -0.1099117 4290360512
-0.36138687 0.068681233 -0.1109402 4290360767
-0.36213517 0.069448762 -0.11266296 4290294974
-0.36265773 0.07025376 -0.11404978 4290229691
-0.36271977 0.071125515 -0.11474475 4290294456
-0.36278194 0.071998931 -0.115441 4290423484
-0.36330855 0.072814658 -0.11684165 4290228674
-0.36379397 0.037701156 -0.095548972 4290426810
-0.36317319 0.038704909 -0.095237248 4290493383
-0.36300775 0.039588764 -0.095576249 4290822601
-0.36306936 0.040415082 -0.096241198 4290889429
-0.36313108 0.041242901 -0.096907392 4291150550
-0.36273816 0.042184643 -0.096919909 4291152085
-0.36279956 0.043014187 -0.097586773 4291086037
-0.36263382 0.043899909 -0.097926468 4291085784
-0.36246803 0.044785701 -0.098266214 4291217368
-0.36252919 0.045618478 -0.098934866 4291218139
-0.36213642 0.046557497 -0.098945789 4291283420
-0.36197057 0.047443476 -0.09928561 4291284699
-0.36135289 0.048430786 -0.098967567 4291546843
-0.36096215 0.04936504 -0.09897849 4291612635
-0.36012399 0.05039512 -0.098334983 4291481052
-0.35929018 0.051419869 -0.097694881 4291482078
-0.35890362 0.05234598 -0.097706869 4292005599
-0.35873917 0.053224597 -0.098043874 4292136918
-0.35813248 0.054193538 -0.097730964 4290953426
-0.3579683 0.055070728 -0.098067418 4290559434
-0.35780409 0.055948 -0.098403901 4291085767
-0.35763991 0.056825336 -0.098740384 4291282900
-0.35747567 0.057702739 -0.099076927 4291085272
-0.35731146 0.058580209 -0.099413462 4291019218
-0.35736728 0.05941724 -0.10007647 4290952144
-0.35742322 0.060255826 -0.10074067 4290887116
-0.35747921 0.061095919 -0.1014061 4290755018
-0.3577565 0.061899137 -0.1024023 4290689989
-0.35781294 0.062743038 -0.10307097 4290623682
-0.35853684 0.06347698 -0.1047385 4290557633
-0.35859415 0.064326137 -0.1054122 4290425792
-0.35887536 0.065140985 -0.10642266 4290296256
-0.35893312 0.065993957 -0.10709976 4290361536
-0.35921562 0.066814072 -0.1081159 4290426305
-0.35972479 0.067603312 -0.10947573 4290360771
-0.35978362 0.068463229 -0.1101592 4290295233
-0.36052349 0.069227241 -0.11187308 4290294975
-0.36081132 0.070060745 -0.11290701 4290228926
-0.36110014 0.070897289 -0.11394461 4290031548
-0.36139002 0.071736887 -0.11498602 4289833404
-0.36122116 0.072639115 -0.11533207 4289702845
-0.36151177 0.073483489 -0.11637788 4289435574
-0.36249769 0.074245878 -0.11848658 4288575405
-0.3627924 0.075098656 -0.11954477 4287197085
-0.36332181 0.075927585 -0.12096436 4287191934
-0.36408934 0.076734692 -0.12275217 4287264898
-0.36557534 0.077470317 -0.12564732 4287985794
-0.36281824 0.036589622 -0.095139571 4290428351
-0.36242631 0.037533507 -0.0951536 4290689983
-0.36226103 0.038416546 -0.095492311 4290757578
-0.36209571 0.039299637 -0.095831037 4291019979
-0.3619304 0.040182807 -0.0961698 4291020503
-0.36176509 0.041066032 -0.096508585 4291151064
-0.36159974 0.041949309 -0.096847385 4291218134
-0.36143437 0.042832673 -0.097186215 4291152086
-0.361269 0.043716084 -0.097525075 4291152346
-0.36087871 0.044653393 -0.097537138 4291217626
-0.36071345 0.04553616 -0.097875744 4291218141
-0.36077285 0.046366725 -0.098541796 4291611614
-0.36038291 0.047301885 -0.098553032 4291678945
-0.35999373 0.04823545 -0.098564319 4291744225
-0.35938215 0.049217116 -0.098249018 4291743968
-0.35855103 0.050243996 -0.097609699 4291809504
-0.35750425 0.051313121 -0.096650615 4291810021
-0.35756022 0.052141886 -0.097309895 4292138214
-0.35739616 0.053018216 -0.097646043 4292203234
-0.35701257 0.053939845 -0.09765815 4291479265
-0.35662958 0.054859933 -0.097670287 4291215051
-0.35668468 0.055691302 -0.098329984 4291282371
-0.35652074 0.05656714 -0.098665938 4291349462
-0.3563568 0.057443041 -0.099001892 4291283165
-0.35619283 0.05831901 -0.099337898 4291216344
-0.35624754 0.059154391 -0.099999733 4291018198
-0.35608342 0.060031239 -0.10033606 4290953423
-0.35591927 0.060908135 -0.10067242 4290886604
-0.3561928 0.061708242 -0.10166392 4290821576
-0.35624763 0.062549032 -0.10232962 4290624197
-0.35652247 0.063354231 -0.10332669 4290558405
-0.35635754 0.064235248 -0.10366461 4290360773
-0.35619262 0.065116338 -0.10400259 4290296006
-0.35646781 0.065927655 -0.10500441 4290361542
-0.35652307 0.066776171 -0.10567611 4290426566
-0.35702103 0.067559063 -0.10701872 4290426822
-0.35707694 0.068412162 -0.10769459 4290426308
-0.35824892 0.069105059 -0.11006545 4290360513
-0.35853085 0.069933176 -0.11108969 4290294977
-0.35926557 0.070701927 -0.1128055 4290163393
-0.3595508 0.07153745 -0.11384019 4290030781
-0.35983709 0.072376065 -0.11487868 4289898422
-0.3598963 0.073246852 -0.11557204 4289697697
-0.36018392 0.074090891 -0.1166165 4288966271
-0.36024359 0.07496573 -0.11731338 4287513448
-0.36076227 0.075788349 -0.11871674 4287383101
-0.36151493 0.076589152 -0.12048349 4287056190
-0.36273971 0.077344306 -0.12298249 4287520064
-0.36374196 0.078133054 -0.12514465 4288830797
-0.36229786 0.03535812 -0.095380895 4290558663
-0.36190638 0.036303028 -0.095394708 4290560718
-0.36151558 0.037246369 -0.095408477 4290887631
-0.36112547 0.038188115 -0.095422305 4290889680
-0.36096042 0.039069667 -0.095760465 4291086032
-0.36079538 0.039951298 -0.096098661 4291086295
-0.36040619 0.040890027 -0.096111938 4291216600
-0.36024126 0.041771024 -0.096449882 4291218138
-0.36007631 0.042652067 -0.096787855 4291217370
-0.35991135 0.043533191 -0.097125858 4291218397
-0.35952324 0.044468209 -0.097138263 4291217885
-0.35958138 0.045295622 -0.097801946 4291218399
-0.35963961 0.046124533 -0.098466754 4291742432
-0.35925138 0.047058307 -0.098478116 4291876065
-0.35886377 0.047990464 -0.098489434 4291810274
-0.35803401 0.049020555 -0.097849496 4291809763
-0.35698903 0.050093915 -0.096889578 4291940835
-0.35595128 0.051159862 -0.095936365 4292006628
-0.35622379 0.051938806 -0.096915022 4292203236
-0.35584217 0.052858949 -0.096927769 4292268516
-0.35567865 0.053732324 -0.0972628 4291808483
-0.35551512 0.05460576 -0.097597852 4291674066
-0.35556912 0.055435497 -0.098256379 4291477197
-0.35540545 0.056309823 -0.098591775 4291415001
-0.35524172 0.057184231 -0.0989272 4291414751
-0.35507801 0.05805869 -0.099262655 4291413462
-0.35491428 0.058933198 -0.099598125 4291084755
-0.35496777 0.059767745 -0.10025913 4290954447
-0.35480389 0.060643166 -0.10059492 4290953422
-0.35507497 0.061441433 -0.10158456 4290953676
-0.35491076 0.0623185 -0.10192101 4290689995
-0.35496432 0.063158438 -0.10258587 4290493384
-0.35479996 0.064036421 -0.10292266 4290361543
-0.35485345 0.064878732 -0.10358897 4290296262
-0.35512555 0.065687507 -0.1045875 4290361541
-0.35517943 0.066533633 -0.10525706 4290426821
-0.35589263 0.067280039 -0.10692956 4290558150
-0.35594743 0.06813141 -0.10760426 4290622917
-0.35666651 0.068886891 -0.10929247 4290491332
-0.35694462 0.069711685 -0.11031184 4290361283
-0.35767105 0.070476949 -0.11201873 4290361025
-0.35772792 0.071339771 -0.11270466 4290293694
-0.35823479 0.072144352 -0.11408184 4290227128
-0.35851812 0.072982624 -0.11511891 4290094761
-0.35857603 0.073852509 -0.11581138 4289433489
-0.3588607 0.074696228 -0.11685439 4288173688
-0.35937425 0.075515911 -0.11825279 4287774784
-0.35989055 0.076340117 -0.11965875 4286726208
-0.36087078 0.077117138 -0.1217863 4286792767
-0.36209312 0.077875994 -0.12429473 4286859592
-0.36356491 0.078618437 -0.12719724 4287125097
-0.36155179 0.034189641 -0.095297113 4290231757
-0.36071214 0.035258804 -0.094663024 4290757068
-0.36077148 0.036078233 -0.095324844 4290758102
-0.36038235 0.037020113 -0.095338725 4291018967
-0.36021742 0.03790088 -0.095676608 4291021267
-0.36005247 0.038781717 -0.096014537 4291151827
-0.3594414 0.039778505 -0.095703788 4291152599
-0.35927671 0.0406579 -0.096041165 4291413464
-0.35888988 0.041593648 -0.096054517 4291414236
-0.35850364 0.042527806 -0.096067831 4291347933
-0.35833925 0.043405861 -0.096404672 4291349215
-0.35773325 0.044391375 -0.096094511 4291414495
-0.35778952 0.045215137 -0.096754342 4291415521
-0.35718501 0.046196803 -0.096443862 4291742433
-0.35702094 0.047072813 -0.096779943 4291810018
-0.35641882 0.048049636 -0.096470021 4291810274
-0.35560116 0.049072422 -0.095839843 4291810532
-0.35543782 0.049944822 -0.096174516 4292006629
-0.35440898 0.051007628 -0.095227093 4292072163
-0.35467786 0.05178361 -0.096201181 4292006115
-0.35429886 0.052700736 -0.096214548 4292006373
-0.3541359 0.053571101 -0.096548446 4291875045
-0.35397291 0.054441545 -0.096882373 4291871705
-0.35402536 0.05526828 -0.097538009 4291214036
-0.3538622 0.056139603 -0.097872302 4290955741
-0.35391456 0.056968663 -0.098529413 4291414752
-0.35375121 0.057840884 -0.098864026 4291610581
-0.35380358 0.058672264 -0.09952268 4291217104
-0.35385594 0.059505157 -0.10018245 4291085775
-0.35390839 0.060339581 -0.10084341 4290954191
-0.3537446 0.06121432 -0.10117899 4290953936
-0.35379702 0.062051062 -0.10184146 4290755536
-0.35363305 0.062926695 -0.10217739 4290624716
-0.35346907 0.063802391 -0.10251332 4290558922
-0.35352123 0.06464234 -0.10317758 4290558406
-0.35357347 0.065483809 -0.10384303 4290558403
-0.35319293 0.066395588 -0.10385019 4290558405
-0.35367817 0.06717135 -0.10517751 4290558406
-0.35394815 0.067984395 -0.10617894 4290623431
-0.35465634 0.068735383 -0.10785326 4290492360
-0.35514927 0.069523722 -0.1092018 4290427077
-0.35608777 0.070253544 -0.11123767 4290361794
-0.35614297 0.071113124 -0.11192045 4290360767
-0.3566438 0.071914285 -0.11329068 4290294203
-0.35692328 0.072749197 -0.11432276 4290227640
-0.3574284 0.073558442 -0.11570559 4289767090
-0.3574852 0.074428149 -0.11639795 4288906385
-0.3579936 0.075244948 -0.11779138 4288236104
-0.35827774 0.076092839 -0.11883996 4286660421
-0.35901865 0.076891981 -0.12060095 4286726716
-0.3604562 0.077620737 -0.12345103 4286923069
-0.3619121 0.078358866 -0.12633762 4287121471
-0.36267853 0.079179697 -0.12815514 4288043084
-0.36103186 0.032959159 -0.095538214 4290032591
-0.36064178 0.033905305 -0.095551863 4289970641
-0.36002865 0.034912113 -0.09524136 4290823634
-0.35986373 0.035792779 -0.095579244 4290889435
-0.35969877 0.036673509 -0.095917135 4291086300
-0.35931087 0.037614141 -0.095930509 4291087319
-0.35892361 0.038553201 -0.09594392 4291217111
-0.35831556 0.039548669 -0.095633902 4291218394
-0.35793021 0.040483713 -0.095647573 4291480026
-0.3575455 0.041417163 -0.095661275 4291545054
-0.35716146 0.042349052 -0.095674917 4291413983
-0.35699743 0.043224834 -0.096010931 4291414496
-0.35639533 0.044208135 -0.095702305 4291546080
-0.3562316 0.04508251 -0.09603776 4291546851
-0.35519734 0.046164684 -0.095088236 4291742692
-0.35481763 0.047087099 -0.095102459 4291809765
-0.35379276 0.048157778 -0.094160393 4291809765
-0.35298824 0.049172383 -0.093541123 4291810790
-0.35389724 0.049796749 -0.095464438 4292006118
-0.35245097 0.050951026 -0.093888469 4292071908
-0.35314259 0.051629495 -0.095492348 4291875300
-0.35276616 0.052543592 -0.095506273 4291810024
-0.3526037 0.053410988 -0.095839061 4291940842
-0.35244125 0.054278437 -0.096171856 4292003550
-0.35249218 0.055102196 -0.096824713 4290887129
-0.35254321 0.055927452 -0.097478651 4290496989
-0.35259426 0.056754217 -0.098133758 4291349727
-0.3526454 0.057582449 -0.098790072 4291742168
-0.35248232 0.058453225 -0.099124156 4291348437
-0.35274792 0.059243448 -0.10010609 4291151057
-0.35322997 0.059996672 -0.10141771 4291019215
-0.35285076 0.060910493 -0.10142684 4290888145
-0.35333389 0.061669528 -0.10274424 4290821585
-0.35295391 0.062583573 -0.10275231 4290756303
-0.35278991 0.063459307 -0.10308829 4290821582
-0.35262588 0.064335085 -0.1034243 4290820810
-0.35267726 0.0651756 -0.10408942 4290755015
-0.35229781 0.066086866 -0.10409639 4290755527
-0.35213375 0.066962831 -0.10443247 4290689735
-0.35196969 0.067838885 -0.10476858 4290558920
-0.35223565 0.068650335 -0.1057658 4290558921
-0.35293534 0.06940113 -0.10743292 4290492871
-0.35473552 0.070000157 -0.11080122 4290493382
-0.35478935 0.070857257 -0.11148184 4290492612
-0.3552852 0.071655639 -0.11284731 4290492095
-0.35556149 0.072487876 -0.11387587 4290425277
-0.35606161 0.073294312 -0.11525387 4290424760
-0.35611698 0.074161485 -0.11594402 4290417566
-0.35662034 0.074975401 -0.11733251 4289290333
-0.3569012 0.075820565 -0.1183775 4286463827
-0.35763514 0.0766166 -0.12013211 4286595900
-0.35883105 0.077367306 -0.12261354 4286988349
-0.36027128 0.078101173 -0.12548429 4286989631
-0.36149582 0.078869052 -0.12802461 4287188295
-0.36179197 0.079741031 -0.12911321 4287523717
-0.35983992 0.031923722 -0.09480615 4290099660
-0.35967499 0.032804217 -0.095143989 4290163659
-0.35951006 0.03368479 -0.095481858 4290167764
-0.35934511 0.034565393 -0.095819741 4291020757
-0.35918012 0.035446104 -0.096157663 4291152094
-0.35857055 0.036448602 -0.095846668 4291218399
-0.35818431 0.037387814 -0.095860168 4291218906
-0.3577987 0.038325448 -0.095873617 4291348185
-0.35697389 0.039377611 -0.095242091 4291349724
-0.35659066 0.04031036 -0.095256113 4291546332
-0.35620815 0.041241549 -0.095270127 4291546592
-0.3558262 0.042171188 -0.095284119 4291414496
-0.35544494 0.04309928 -0.095298156 4291415777
-0.35484758 0.044079404 -0.094991826 4291480801
-0.35382175 0.045161266 -0.094049267 4291481317
-0.35323027 0.0461329 -0.093746744 4291742950
-0.35306787 0.046999853 -0.094079398 4291809767
-0.35247874 0.047966763 -0.09377744 4291743975
-0.35167962 0.048979253 -0.093160786 4291679463
-0.35236731 0.049649645 -0.094759338 4291940327
-0.35135615 0.050706215 -0.093823403 4292007141
-0.3518301 0.051429562 -0.095106103 4292072420
-0.35145575 0.052341521 -0.095120341 4292072172
-0.3515057 0.05316136 -0.095770583 4292006894
-0.35113159 0.054071918 -0.095784307 4291940322
-0.35139331 0.054849494 -0.096754476 4291085021
-0.35144323 0.055673134 -0.097407289 4290758366
-0.35149327 0.056498256 -0.098061278 4291480798
-0.35154334 0.05732489 -0.098716378 4291808988
-0.35159346 0.058153003 -0.099372648 4291480027
-0.35185727 0.058942031 -0.10035422 4291282644
-0.35233653 0.059693843 -0.10166539 4291216080
-0.35217282 0.060567878 -0.10200075 4291150802
-0.35243875 0.06136477 -0.10299128 4291084499
-0.35205984 0.062278319 -0.10299909 4291019218
-0.35189593 0.063153319 -0.10333484 4290888146
-0.35173205 0.064028352 -0.10367058 4290756048
-0.35178256 0.064867899 -0.10433541 4290755534
-0.35140419 0.065778665 -0.10434216 4290755532
-0.35145441 0.066619828 -0.10500763 4290689737
-0.35150468 0.067462534 -0.10567423 4290624457
-0.35177004 0.068274073 -0.10667397 4290624458
-0.35225233 0.069056399 -0.10801121 4290623947
-0.35339034 0.069748074 -0.11036714 4290558925
-0.35366157 0.070571721 -0.11138491 4290492876
-0.35415351 0.071367942 -0.11274778 4290492873
-0.35442725 0.072198249 -0.11377432 4290557127
-0.354702 0.073031552 -0.1148046 4290491844
-0.3549777 0.073867872 -0.11583855 4290421942
-0.35525432 0.074707262 -0.11687617 4289555859
-0.35553199 0.075549699 -0.11791758 4286922368
-0.35625899 0.076342665 -0.11966582 4286857788
-0.3574442 0.077089876 -0.12213809 4287054140
-0.35887167 0.077820018 -0.12499806 4287054910
-0.36008519 0.078584306 -0.1275288 4287187008
-0.36061081 0.079429373 -0.12898102 4287456588
-0.36113933 0.080279186 -0.13044123 4290023762
-0.36863169 0.022791365 -0.10498961 4289428110
-0.36656693 0.024291396 -0.10260884 4289438331
-0.36110362 0.026828617 -0.095315367 4289032826
-0.36003968 0.027987137 -0.094356366 4289041013
-0.35965121 0.028935719 -0.094371006 4288376181
-0.35948628 0.029816044 -0.0947088 4288385663
-0.35932133 0.030696437 -0.095046639 4289564032
-0.3591564 0.031576894 -0.095384486 4289638337
-0.35876894 0.032521766 -0.095398284 4290230469
-0.35860413 0.033401582 -0.095735885 4290299099
-0.3584393 0.034281455 -0.096073508 4291218397
-0.35805279 0.035223283 -0.096086778 4291283425
-0.35766697 0.03616352 -0.096100092 4291349474
-0.35706156 0.037162255 -0.095790073 4291350236
-0.35645831 0.038157545 -0.095481195 4291479515
-0.35585716 0.039149418 -0.095173433 4291480799
-0.35525808 0.040137898 -0.094866723 4291546080
-0.35466105 0.041123021 -0.094561107 4291547619
-0.35428178 0.042049568 -0.094575748 4291414755
-0.35347319 0.043083206 -0.093953185 4291416545
-0.35266876 0.044111595 -0.09333387 4291415520
-0.35229349 0.045030121 -0.093349561 4291415779
-0.35191879 0.045947161 -0.093365185 4291742947
-0.3515448 0.046862669 -0.093380831 4291809767
-0.35096022 0.04782651 -0.093081102 4291678440
-0.35037768 0.04878708 -0.092782475 4291613671
-0.35084787 0.04950355 -0.094059154 4291875047
-0.35005495 0.050509639 -0.093443468 4291942375
-0.35052431 0.051230669 -0.094721884 4292269031
-0.35036251 0.052094329 -0.095053293 4292334569
-0.35020068 0.052958041 -0.095384724 4292007146
-0.35003886 0.053821806 -0.095716178 4291877349
-0.35029817 0.054597657 -0.09668456 4291283427
-0.35034707 0.055419669 -0.097336262 4291019741
-0.35039598 0.056243185 -0.097989045 4291611098
-0.35065681 0.057026088 -0.09896484 4291875292
-0.3507061 0.057853237 -0.099620789 4291546078
-0.35096812 0.058641106 -0.10060198 4291414487
-0.35165855 0.059351195 -0.1022393 4291478994
-0.35149482 0.060225245 -0.10257469 4291545045
-0.35175955 0.061021544 -0.10356627 4291478486
-0.35138118 0.061935462 -0.10357363 4291412948
-0.35121724 0.062810473 -0.1039094 4291019474
-0.3510533 0.063685551 -0.10424518 4290625744
-0.35110322 0.064524777 -0.10491055 4290690510
-0.35051206 0.065470949 -0.10458759 4290689483
-0.35056138 0.066311166 -0.10525271 4290689224
-0.35061085 0.067152902 -0.10591901 4290689481
-0.35066035 0.067996167 -0.10658646 4290755275
-0.3511388 0.068776421 -0.10792117 4290886092
-0.35248607 0.069433495 -0.11061025 4290755534
-0.35253769 0.070287123 -0.11128841 4290558668
-0.35302576 0.071081236 -0.11264861 4290624457
-0.35307798 0.071939468 -0.113331 4290820039
-0.35356918 0.072740927 -0.1147015 4290755268
-0.35362211 0.073603816 -0.11538824 4290491065
-0.35389555 0.074440517 -0.11642232 4289893789
-0.35417002 0.075280264 -0.11746017 4288170376
-0.3546676 0.076096639 -0.11885162 4287970620
-0.35583994 0.076839887 -0.12131063 4287250237
-0.35725209 0.077565834 -0.12415509 4287251006
-0.35891247 0.078276105 -0.12740009 4287186239
-0.35966572 0.079094529 -0.12921667 4287255115
-0.36019111 0.079942644 -0.13067624 4288121169
-0.36809626 0.021524176 -0.10523787 4287588217
-0.36556694 0.023182038 -0.10217863 4287650169
-0.36377296 0.024593456 -0.10017273 4287652941
-0.36041716 0.026480077 -0.095896125 4287382604
-0.35935563 0.027639868 -0.094935112 4287388733
-0.35874528 0.028656529 -0.094625883 4287643453
-0.35835853 0.029602917 -0.094640322 4287652421
-0.35819384 0.030481821 -0.094977587 4288374854
-0.35802916 0.031360749 -0.095314868 4288459449
-0.35764337 0.032304149 -0.095328793 4290624961
-0.35747883 0.033182442 -0.095665835 4290759391
-0.35731423 0.034060802 -0.096002921 4291546850
-0.35692933 0.035001218 -0.096016236 4291612388
-0.35654512 0.035940066 -0.09602958 4291546084
-0.35594276 0.036937457 -0.095720291 4291547102
-0.35534248 0.037931409 -0.095412135 4291414237
-0.35452762 0.038980085 -0.094784625 4291415778
-0.35393235 0.039966326 -0.094479419 4291546083
-0.35312468 0.041005287 -0.093857095 4291613670
-0.35274801 0.041928731 -0.093872339 4291546086
-0.35215887 0.042904958 -0.093570359 4291547617
-0.3513599 0.043931164 -0.092953674 4291546336
-0.35098666 0.044847522 -0.092969678 4291546849
-0.35061404 0.045762386 -0.09298563 4291743201
-0.35024208 0.046675697 -0.093001619 4291809767
-0.3496612 0.047637422 -0.092703342 4291743976
-0.349291 0.04854691 -0.092719592 4291744230
-0.34933874 0.049358405 -0.093363769 4291940838
-0.34876043 0.050314058 -0.093065515 4291941609
-0.34922519 0.051032756 -0.094339713 4292072170
-0.34927291 0.051847957 -0.094986491 4292072422
-0.34911135 0.052710205 -0.095317379 4292138725
-0.34894979 0.053572528 -0.095648296 4292139497
-0.34920675 0.05434664 -0.096614994 4291677418
-0.34925458 0.055167053 -0.097265467 4291478236
-0.34930244 0.055988967 -0.097917117 4291610837
-0.34956086 0.05677009 -0.098891132 4291678941
-0.34960911 0.057595626 -0.099545926 4291611873
-0.35008037 0.058340687 -0.10084935 4291545562
-0.35076717 0.059049107 -0.10248616 4291545046
-0.35039064 0.059962235 -0.10249441 4291545305
-0.35086641 0.060717557 -0.10381243 4291413211
-0.3502762 0.061669298 -0.10349166 4291347414
-0.35032532 0.062505223 -0.10415515 4291019474
-0.34994882 0.063416399 -0.10416213 4290822352
-0.34978515 0.064290047 -0.10449738 4290821583
-0.34940937 0.06519901 -0.10450404 4290886347
-0.34924582 0.066072039 -0.10483906 4290820295
-0.34929395 0.066911377 -0.10550332 4290754761
-0.34934217 0.067752264 -0.10616871 4290820812
-0.35002917 0.068497375 -0.1078315 4290951629
-0.35136724 0.069151588 -0.11051535 4290821327
-0.35141772 0.070003502 -0.11119226 4290689741
-0.3521193 0.070764676 -0.11289045 4290755529
-0.35217068 0.07162191 -0.11357255 4290820551
-0.35244036 0.072451301 -0.11459887 4290755266
-0.35249212 0.073312432 -0.11528427 4290556866
-0.35276309 0.07414715 -0.11631645 4290094784
-0.35281521 0.075012244 -0.11700525 4288575140
-0.35330784 0.075825736 -0.1183918 4288232766
-0.35424709 0.076591626 -0.12048918 4287183678
-0.35586935 0.077287823 -0.12367564 4287185469
-0.35728675 0.078019336 -0.12654544 4287184957
-0.35849151 0.078784838 -0.12908475 4287253824
-0.35924453 0.079606704 -0.13091092 4288041027
-0.36892593 0.018954618 -0.10686264 4288176500
-0.36708632 0.020411829 -0.10479979 4286404980
-0.36550379 0.021775197 -0.10310182 4286395213
-0.36347613 0.023271773 -0.10075163 4286267469
-0.36147726 0.024747098 -0.098434858 4286264378
-0.35973066 0.026131503 -0.096476935 4286068281
-0.35844913 0.027361486 -0.095189765 4286067252
-0.35784087 0.028377762 -0.09488038 4287051571
-0.35723469 0.029390516 -0.094572127 4287053888
-0.35707027 0.030267894 -0.094908834 4287519297
-0.35668594 0.031210566 -0.094923079 4287542965
-0.35652164 0.032087274 -0.095259547 4290888124
-0.35635734 0.032964073 -0.095596038 4291088608
-0.35597396 0.03390377 -0.095609769 4291808740
-0.35580978 0.03477991 -0.095945999 4291875304
-0.35542718 0.03571732 -0.09595941 4291677416
-0.35482779 0.036713399 -0.095650837 4291678180
-0.35401422 0.037765205 -0.095022731 4291414755
-0.35320491 0.038811602 -0.09439788 4291350759
-0.35282752 0.039738458 -0.094412602 4291612135
-0.35202405 0.040776238 -0.093791567 4291614183
-0.35143667 0.041753586 -0.093490072 4291677415
-0.35085127 0.042727593 -0.093189582 4291678438
-0.35026789 0.043698367 -0.092890151 4291677414
-0.34989622 0.044613361 -0.092906207 4291678182
-0.34931594 0.045578506 -0.092608072 4291809254
-0.34894601 0.046489686 -0.092624411 4291809767
-0.34857669 0.047399346 -0.092640705 4291809768
-0.34800062 0.048356611 -0.092344105 4291809255
-0.34825471 0.049117461 -0.093300082 4291940583
-0.34767917 0.050071921 -0.093002409 4292006378
-0.34814033 0.050788768 -0.094274327 4291874795
-0.34797916 0.051648784 -0.09460438 4291810281
-0.34823379 0.052417487 -0.095566764 4292269545
-0.34807232 0.053279087 -0.095897429 4292467178
-0.34811902 0.054096442 -0.096545652 4292202731
-0.34816575 0.054915287 -0.097194999 4292067804
-0.3482126 0.055735558 -0.097845532 4291609813
-0.34867826 0.056472469 -0.099138923 4291416286
-0.34872562 0.057297088 -0.099793382 4291611875
-0.3491942 0.058040738 -0.10109636 4291742172
-0.34987721 0.058747541 -0.10273259 4291610583
-0.34950179 0.05966017 -0.10274073 4291479513
-0.34997478 0.060414061 -0.10405827 4291282138
-0.34959862 0.061326947 -0.10406528 4291150808
-0.34922302 0.062238321 -0.10407228 4291150550
-0.34863713 0.063185088 -0.10375198 4291150291
-0.34847382 0.064056493 -0.10408641 4291215313
-0.34789023 0.064998604 -0.10376666 4291280076
-0.34751776 0.065903127 -0.10377403 4291083207
-0.34777379 0.066704921 -0.10476185 4290820810
-0.34782049 0.067542747 -0.10542437 4290886862
-0.3484998 0.068284556 -0.1070788 4291017679
-0.35003778 0.068902962 -0.11008447 4291083728
-0.35008693 0.069752462 -0.11075926 4291148494
-0.35099798 0.070479721 -0.11279144 4291017419
-0.35104823 0.071335211 -0.11347223 4290755017
-0.35131544 0.072162658 -0.11449663 4290755012
-0.35158357 0.072993107 -0.11552464 4290754243
-0.35185263 0.073826551 -0.1165563 4290686145
-0.35168552 0.074718118 -0.11689845 4290412458
-0.35195526 0.075556226 -0.1179345 4289807428
-0.35266551 0.076345131 -0.11967358 4286790467
-0.35404757 0.077062801 -0.12248747 4286858045
-0.35567272 0.077764392 -0.12569706 4287250493
-0.35686427 0.078525767 -0.12822255 4287252800
-0.35806885 0.079295523 -0.13077575 4287712834
-0.36838809 0.017681653 -0.10711204 4287458727
-0.36631569 0.019225255 -0.10470513 4287449144
-0.36473873 0.020593794 -0.10300922 4286197560
-0.36340949 0.021872589 -0.10166728 4286198059
-0.36186352 0.023213662 -0.10000428 4286065963
-0.36101326 0.024324019 -0.099350303 4286066986
-0.35904408 0.025782924 -0.097057804 4286262314
-0.35754418 0.027083579 -0.095443979 4286263340
-0.35671788 0.02816743 -0.094811782 4286853676
-0.35611472 0.029178817 -0.09450426 4286856764
-0.35595053 0.030054664 -0.094840422 4287320637
-0.35556784 0.030995924 -0.094854712 4287410096
-0.35518584 0.031935602 -0.09486901 4291347640
-0.35502192 0.032810111 -0.095204659 4291679458
-0.35485798 0.033684697 -0.095540337 4291742950
-0.35469404 0.034559336 -0.095876046 4291810283
-0.35431308 0.035495345 -0.095889553 4291743212
-0.35371658 0.03649009 -0.095581643 4291744745
-0.3529073 0.03754067 -0.094954826 4291546600
-0.35188901 0.038643956 -0.094013214 4291547883
-0.35151368 0.039568584 -0.094028272 4291678443
-0.35071567 0.040604152 -0.093409859 4291679976
-0.35013202 0.04157928 -0.093109824 4291677927
-0.34955037 0.042551149 -0.09281081 4291678187
-0.3491796 0.043466303 -0.092826925 4291677420
-0.34860104 0.044432547 -0.092529207 4291678698
-0.348232 0.045343895 -0.092545599 4291744490
-0.34786358 0.046253745 -0.092561923 4291744744
-0.34749576 0.047162086 -0.092578277 4291810023
-0.34733504 0.048019677 -0.092907421 4291809769
-0.34717429 0.048877325 -0.093236588 4292005865
-0.34680739 0.049782824 -0.093252458 4292006635
-0.34705913 0.050545618 -0.094209194 4291940076
-0.3468982 0.051404178 -0.094538718 4291875821
-0.34694374 0.052217029 -0.095183589 4292137965
-0.34678265 0.053076454 -0.095513441 4292270060
-0.34703493 0.053847101 -0.096476592 4292203756
-0.34687355 0.054708127 -0.096807063 4292199901
-0.34712642 0.05548301 -0.097774222 4291412437
-0.34738019 0.056260657 -0.098744705 4291022559
-0.34763476 0.057041034 -0.099718526 4291415269
-0.34830946 0.057741277 -0.10134298 4291676894
-0.34898877 0.058446467 -0.1029787 4291479513
-0.34861442 0.059358578 -0.10298663 4291347929
-0.34908465 0.060111076 -0.10430371 4291216857
-0.34870949 0.061023466 -0.10431051 4291085532
-0.34854591 0.061896276 -0.1046455 4291150558
-0.34796119 0.06284368 -0.10432424 4291215833
-0.34779784 0.0637151 -0.10465871 4291215828
-0.34721538 0.064657845 -0.10433801 4291280845
-0.34705231 0.065527894 -0.10467193 4291084230
-0.34730774 0.06632977 -0.10566225 4290887628
-0.34735402 0.067168012 -0.10632613 4290953428
-0.34782127 0.067942105 -0.10765328 4290953172
-0.34892794 0.06862317 -0.109991 4291018196
-0.34897602 0.069470949 -0.11066456 4291083219
-0.34988055 0.070195735 -0.1126928 4291017682
-0.34992969 0.071049511 -0.11337233 4290755536
-0.35019442 0.071875021 -0.11439476 4290755532
-0.35024393 0.07273265 -0.11507764 4290755019
-0.35050988 0.073563464 -0.11610585 4290688198
-0.35034323 0.074452698 -0.11644714 4290485173
-0.35082698 0.075261176 -0.11782616 4289874796
-0.35131335 0.076074019 -0.11921253 4286855014
-0.35246235 0.076813951 -0.12166262 4286857785
-0.35384679 0.077536605 -0.12449667 4287250745
-0.35524875 0.078268513 -0.1273666 4287318334
-0.35689741 0.078985438 -0.13064113 4287710526
-0.35741416 0.079831868 -0.13210209 4287722327
-0.3579337 0.080682993 -0.13357109 4290223704
-0.3660174 0.017881954 -0.10529546 4286861477
-0.36420763 0.019336754 -0.1032555 4286853423
-0.36288074 0.020621171 -0.10191247 4286000431
-0.3620232 0.021744339 -0.10124986 4286000940
-0.36094269 0.022935344 -0.10025782 4285934636
-0.36032179 0.023972897 -0.099935301 4285935403
-0.3581346 0.025505101 -0.097311541 4286458411
-0.35664073 0.026806109 -0.095697835 4286459691
-0.3558175 0.027889784 -0.095065564 4286721836
-0.35521638 0.028900795 -0.094757862 4286725176
-0.35483465 0.029842194 -0.094772257 4287253561
-0.35445359 0.030782007 -0.094786644 4287277743
-0.3542898 0.031655714 -0.09512201 4291808183
-0.35412598 0.032529499 -0.095457405 4292139240
-0.35396215 0.033403367 -0.09579283 4291743981
-0.35379833 0.03427726 -0.09612827 4291679727
-0.35341841 0.035212718 -0.096141547 4291743727
-0.352824 0.036207121 -0.095833555 4291746028
-0.35201773 0.037257567 -0.095206648 4291743723
-0.35100335 0.038360905 -0.094264962 4291744749
-0.35062909 0.039284986 -0.094279863 4291743725
-0.349834 0.040320423 -0.09366139 4291745772
-0.34925231 0.041295253 -0.093361177 4291743724
-0.34867266 0.042266782 -0.093062051 4291743468
-0.34809497 0.043235037 -0.092763945 4291743212
-0.34751922 0.044200025 -0.092466883 4291744749
-0.3471517 0.045110043 -0.09248329 4291678957
-0.34678483 0.046018567 -0.092499748 4291679467
-0.3464185 0.046925601 -0.092516147 4291810027
-0.34625804 0.047781747 -0.092844754 4291875561
-0.3460975 0.04863793 -0.093173407 4292006120
-0.34593698 0.049494203 -0.093502067 4292072683
-0.34577644 0.050350547 -0.093830779 4292006124
-0.3458209 0.051160362 -0.094473377 4292007149
-0.34566018 0.05201754 -0.094802409 4292006893
-0.34549949 0.052874804 -0.095131449 4292007405
-0.3457489 0.053643156 -0.096091546 4292269548
-0.34558791 0.054501992 -0.09642119 4292397534
-0.34583792 0.05527458 -0.097385213 4291150295
-0.34629536 0.056007192 -0.098671928 4290366685
-0.34654763 0.056785833 -0.099644013 4291087841
-0.34700888 0.057525627 -0.10094216 4291611867
-0.34789166 0.058187108 -0.10289806 4291348439
-0.34772849 0.059057478 -0.10323214 4291150553
-0.34819597 0.059808578 -0.10454874 4291019483
-0.34782192 0.060720444 -0.10455541 4290953948
-0.34765843 0.061592527 -0.10489016 4291150045
-0.3470757 0.062539652 -0.10456874 4291281369
-0.34691247 0.063410364 -0.10490295 4291281621
-0.34612393 0.064388603 -0.10425546 4291215312
-0.34616905 0.065222174 -0.10491586 4291215305
-0.3464227 0.066022843 -0.10590572 4291150286
-0.34646818 0.066860132 -0.10656931 4291019477
-0.34693268 0.067632765 -0.10789598 4290821844
-0.34782195 0.068344362 -0.10989792 4290886867
-0.34786892 0.06919042 -0.11057029 4290952659
-0.34876698 0.069912717 -0.11259454 4290887123
-0.34881505 0.070764758 -0.11327286 4290821585
-0.34907728 0.07158836 -0.11429332 4290887373
-0.34912571 0.07244426 -0.11497499 4290952139
-0.34960455 0.07324446 -0.11634522 4290952647
-0.34943801 0.074132897 -0.11668624 4290816441
-0.34970272 0.074967094 -0.1177183 4290347889
-0.34996831 0.075804286 -0.11875398 4287247978
-0.35067019 0.076592788 -0.12049306 4287315257
-0.35225797 0.077285394 -0.12366251 4287643705
-0.35364479 0.078013077 -0.12651688 4287644478
-0.35527581 0.078725554 -0.12977341 4287710526
-0.35624272 0.079520486 -0.13196503 4287713623
-0.35675809 0.080369264 -0.13343099 4288912472
-0.36460903 0.01776303 -0.10486362 4286723235
-0.36304405 0.019136932 -0.10316994 4286722086
-0.36218372 0.020267079 -0.10250214 4285934374
-0.36132801 0.021391243 -0.10183798 4285935404
-0.36047685 0.022509435 -0.10117742 4286130988
-0.35985628 0.023548674 -0.10085306 4286132011
-0.35767078 0.025085654 -0.098219678 4286392363
-0.35595822 0.026459623 -0.09627527 4286394155
-0.35491863 0.02761255 -0.095318981 4286589995
-0.35431957 0.028623205 -0.09501113 4286658868
-0.35393894 0.029564045 -0.095025316 4287317301
-0.35355893 0.030503329 -0.095039472 4287340462
-0.35317957 0.031441025 -0.095053658 4291481782
-0.35301602 0.03231331 -0.095388494 4291943150
-0.35285246 0.033185668 -0.095723368 4291810548
-0.35268888 0.034058083 -0.096058257 4291811058
-0.3523106 0.034992136 -0.096071661 4291744242
-0.35171908 0.03598522 -0.095764294 4291745263
-0.35112962 0.036974914 -0.095458031 4291743983
-0.35011914 0.038078301 -0.094516374 4291744752
-0.34974596 0.039001867 -0.094531104 4291743728
-0.34895381 0.040037189 -0.093912534 4291745522
-0.34837413 0.041011654 -0.093612179 4291744242
-0.34779638 0.041982878 -0.093312874 4291744238
-0.34722066 0.042950798 -0.093014672 4291809261
-0.34664685 0.043915521 -0.092717461 4291810031
-0.3462804 0.044825003 -0.092733718 4291678704
-0.34591451 0.04573302 -0.092749916 4291679472
-0.34554926 0.046639543 -0.092766121 4291809776
-0.34538886 0.047494989 -0.093094505 4291875561
-0.34502435 0.048399359 -0.093110487 4292006375
-0.34486407 0.049254179 -0.093438633 4292007147
-0.34490761 0.050061673 -0.094079778 4292072173
-0.34474716 0.05091738 -0.094408266 4292072685
-0.34479061 0.051727068 -0.095050856 4292072173
-0.34463003 0.05258362 -0.095379651 4292073453
-0.34467342 0.053395581 -0.096023709 4292401389
-0.34451267 0.054252993 -0.096352823 4292529889
-0.34476033 0.055023845 -0.097315088 4291280858
-0.34500888 0.055797391 -0.098280706 4290496218
-0.34546414 0.056531448 -0.099569768 4291284698
-0.34592175 0.057269372 -0.10086554 4291874262
-0.34658983 0.057969939 -0.10249261 4291413460
-0.3466354 0.058797516 -0.10315134 4291085018
-0.34688991 0.059586648 -0.10413802 4291019743
-0.34672669 0.060457215 -0.10447219 4290953950
-0.34656343 0.0613278 -0.10480639 4291084252
-0.34598359 0.062273782 -0.10448577 4291281115
-0.3460286 0.06310612 -0.10514688 4291216089
-0.34545013 0.064048357 -0.10482593 4291149782
-0.34528726 0.064916953 -0.10515935 4291084499
-0.34553918 0.065716438 -0.10614888 4291085013
-0.34558377 0.066552751 -0.1068121 4291018967
-0.34625462 0.067290552 -0.10847007 4290886868
-0.34671974 0.068066455 -0.10980524 4290887373
-0.34697628 0.068878695 -0.11081158 4291018960
-0.34786955 0.069598988 -0.11283521 4290952920
-0.34791675 0.070450045 -0.11351316 4290822102
-0.34817716 0.071272373 -0.11453321 4290887633
-0.34822473 0.072127298 -0.11521448 4290951888
-0.34848636 0.072954886 -0.11624029 4290952910
-0.34832007 0.07384181 -0.11658075 4290884552
-0.3485823 0.074674033 -0.11761083 4290413990
-0.34884545 0.075509258 -0.11864458 4287314075
-0.3493256 0.076321453 -0.1200308 4287315250
-0.35046184 0.077061526 -0.12248099 4287642930
-0.35183111 0.077784561 -0.12531514 4287644479
-0.3534416 0.078492202 -0.12854825 4287709759
-0.35507554 0.079210252 -0.13182853 4287713356
-0.3558152 0.080033168 -0.13366322 4288831309
-0.36297634 0.017723966 -0.10409409 4286591375
-0.36188462 0.018937806 -0.10308472 4286590504
-0.36102891 0.020066492 -0.10241842 4285868584
-0.36063278 0.021038111 -0.10242615 4285869865
-0.35978344 0.022157265 -0.10176404 4286261801
-0.35916406 0.023197172 -0.10143868 4286263081
-0.35676235 0.02480837 -0.098472513 4286327081
-0.35505682 0.026182877 -0.096528299 4286328874
-0.35402125 0.027335813 -0.09557195 4286524459
-0.35342428 0.02834608 -0.095264003 4286526771
-0.35304469 0.029286388 -0.09527795 4287381812
-0.35245094 0.030290751 -0.094971381 4287468450
-0.3522875 0.031162236 -0.095305942 4291284137
-0.35212407 0.032033801 -0.095640525 4291681263
-0.3519606 0.032905433 -0.095975161 4292007670
-0.35158321 0.033839628 -0.095988557 4292007668
-0.35120651 0.034772262 -0.09600202 4291810036
-0.35083044 0.035703365 -0.096015483 4291744754
-0.350243 0.036692727 -0.0957091 4291678450
-0.3494468 0.037737481 -0.09508533 4291679216
-0.34886423 0.038719207 -0.094781913 4291744239
-0.34807503 0.03975438 -0.094163261 4291745266
-0.34770513 0.040672686 -0.094178304 4291809779
-0.34692159 0.041699421 -0.093563378 4291810798
-0.34655392 0.042613052 -0.09357892 4291875053
-0.34577596 0.043631434 -0.092967689 4291875567
-0.3454105 0.044540431 -0.092983693 4291678960
-0.34524995 0.045396496 -0.093312338 4291613933
-0.34468141 0.046353955 -0.093015768 4291745004
-0.3447248 0.0471588 -0.093656525 4291810027
-0.34436083 0.048063494 -0.093672059 4291875562
-0.34399742 0.04896671 -0.093687564 4291941357
-0.34383723 0.049820896 -0.094015487 4292072174
-0.34387985 0.050628264 -0.094656684 4292137965
-0.34371948 0.051483307 -0.094984934 4292203245
-0.34355915 0.05233844 -0.095313206 4292270573
-0.3436015 0.053148825 -0.095956095 4292663533
-0.34344095 0.054004777 -0.096284702 4292858850
-0.3436864 0.054773927 -0.097245298 4291476956
-0.34393263 0.055545777 -0.098209128 4290690251
-0.34438431 0.056277938 -0.099495821 4291739840
-0.3446328 0.057055801 -0.10046777 4292462030
-0.34508821 0.057795182 -0.10176591 4291675865
-0.34513229 0.058619775 -0.10242172 4291020763
-0.34538329 0.059405897 -0.10340383 4290889182
-0.3452206 0.06027348 -0.10373688 4290822620
-0.34526485 0.061102562 -0.10439619 4291018458
-0.34489518 0.062008768 -0.10440307 4291281370
-0.34493914 0.062839493 -0.10506299 4291085274
-0.34436354 0.063780554 -0.10474285 4290822103
-0.34440696 0.064612225 -0.10540252 4290756820
-0.34465706 0.065410525 -0.10639168 4290690773
