# .PCD v0.7 - Point Cloud Data file format
VERSION 0.7
FIELDS x y z rgba
SIZE 4 4 4 4
TYPE F F F U
COUNT 1 1 1 1
WIDTH 995
HEIGHT 1
VIEWPOINT 0 0 0 1 0 0 0
POINTS 995
DATA ascii
-0.34719896 0.035764899 -0.074452445 4288506769
-0.34797436 0.037152931 -0.074930497 4288367190
-0.34831601 0.038195398 -0.074849352 4288298057
-0.34865829 0.039239746 -0.074768044 4287905080
-0.34900123 0.040285986 -0.074686624 4287182135
-0.34912494 0.041154943 -0.074324429 4287182902
-0.34946856 0.042203844 -0.074242443 4287187538
-0.34959242 0.043073688 -0.073879868 4287795640
-0.34993675 0.044125289 -0.073797368 4290756795
-0.35455513 -0.0061550559 -0.11845132 4288256431
-0.35444826 -0.0053870482 -0.11773384 4288520386
-0.35410526 -0.0047674049 -0.11668299 4288783818
-0.35376352 -0.0041499482 -0.11563598 4288849873
-0.3531886 -0.0036819896 -0.11426178 4288849872
-0.35238394 -0.003363604 -0.11256684 4289112526
-0.35020608 -0.0039229225 -0.10894347 4289309903
-0.3489688 -0.0038967545 -0.10665167 4289375440
-0.34819347 -0.0035830825 -0.10501382 4289375961
-0.34764716 -0.0031275076 -0.10370064 4289508581
-0.34710377 -0.0026742651 -0.10239439 4289639911
-0.34634191 -0.002367432 -0.10078594 4289705194
-0.34602562 -0.001774771 -0.099802531 4289836010
-0.34549081 -0.0013284844 -0.09851677 4289836267
-0.34495878 -0.00088448485 -0.097237743 4289770473
-0.34442961 -0.00044272779 -0.095965393 4289770980
-0.34411973 0.000141141 -0.094999701 4289835236
-0.3433795 0.00043406384 -0.093440481 4289837026
-0.34264442 0.00072504522 -0.091892041 4289835748
-0.34234029 0.0013020327 -0.090941623 4289836525
-0.34203729 0.0018771315 -0.089994453 4289902573
-0.3417353 0.0024503015 -0.089050569 4289903342
-0.34143436 0.0030215913 -0.088109866 4290100976
-0.34092382 0.0034458509 -0.086883664 4290101247
-0.34062558 0.0040131146 -0.085950613 4290231038
-0.34053776 0.0047240537 -0.085306898 4290228431
-0.34045014 0.0054338919 -0.084664263 4288980943
-0.34057194 0.0062893047 -0.084307715 4288983520
-0.34048435 0.0069972835 -0.083666392 4289902561
-0.34060603 0.007852139 -0.083310097 4289970163
-0.34114727 0.0090052327 -0.083522499 4290493941
-0.34190148 0.01031307 -0.084021404 4290625526
-0.34287229 0.011780219 -0.084810227 4290429430
-0.34579489 0.014658453 -0.088229105 4290364662
-0.34723336 0.016480688 -0.089636594 4290429942
-0.34757859 0.017517013 -0.089568019 4290430203
-0.34814587 0.018716773 -0.089796655 4290495742
-0.3487151 0.019920807 -0.090026028 4290561532
-0.34861803 0.020637371 -0.089361422 4290627323
-0.34852114 0.021352755 -0.088697992 4290693117
-0.3484244 0.02206693 -0.088035628 4290758143
-0.34854943 0.022944996 -0.087669641 4290953983
-0.34867442 0.023823163 -0.087303638 4290888703
-0.34857768 0.024534753 -0.086643025 4290758655
-0.34826002 0.025078379 -0.085690312 4290825215
-0.3481639 0.025787162 -0.085032806 4290955775
-0.34697092 0.025660412 -0.082926154 4291022079
-0.34579033 0.02553503 -0.080841318 4291153407
-0.34483624 0.025575384 -0.079060435 4291153662
-0.34304199 0.024962362 -0.076178566 4291153150
-0.34211102 0.025004808 -0.074438639 4291219967
-0.3418135 0.025532391 -0.073533893 4291875583
-0.34151703 0.026058242 -0.072632216 4291875839
-0.34142965 0.026745141 -0.072005562 4291606015
-0.34175903 0.027758017 -0.071923748 4291602573
-0.3422983 0.028937696 -0.072114572 4291128444
-0.34283945 0.030121453 -0.072306037 4291009911
-0.34380537 0.031645246 -0.073047519 4289951610
-0.34477794 0.033179533 -0.073794082 4289418351
-0.34575719 0.034724444 -0.074545763 4288235879
-0.3467432 0.036280066 -0.075302549 4287447637
-0.34751803 0.037670687 -0.075783201 4287510593
-0.34785959 0.038714547 -0.075702749 4287575101
-0.34820181 0.039760318 -0.075622171 4287378741
-0.34854457 0.040807936 -0.075541355 4286985013
-0.3486684 0.04167771 -0.075178839 4287051062
-0.34901187 0.042728022 -0.075097539 4287185224
-0.34913582 0.043598678 -0.074734651 4287593112
-0.34925979 0.044469386 -0.074371748 4290559388
-0.35360545 -0.005941689 -0.11872029 4288189867
-0.35326394 -0.0053210403 -0.11766769 4288520387
-0.35292372 -0.0047025951 -0.11661891 4288849613
-0.35281879 -0.0039392253 -0.11590631 4288915926
-0.35224694 -0.0034722211 -0.11453265 4288915926
-0.35167822 -0.0030076781 -0.1131664 4289113046
-0.34927884 -0.0037154409 -0.10921567 4289375700
-0.34804761 -0.0036903676 -0.10692447 4289375187
-0.34727627 -0.0033776234 -0.10528716 4289375962
-0.34673285 -0.0029229568 -0.10397443 4289508836
-0.34619233 -0.0024705855 -0.10266863 4289705447
-0.34543431 -0.0021647201 -0.10106058 4289771243
-0.3453396 -0.0014285018 -0.10038526 4289967081
-0.34502563 -0.00083841482 -0.099404246 4289901799
-0.34449437 -0.00039525158 -0.09812177 4289771753
-0.34418327 0.00019057287 -0.097148985 4289838062
-0.34387323 0.00077442813 -0.096179552 4289967853
-0.34313259 0.001065698 -0.09461353 4289969390
-0.34239703 0.0013550053 -0.093058288 4290033646
-0.34187952 0.0017870817 -0.091808759 4290032881
-0.34136471 0.0022169484 -0.090565674 4290230257
-0.34106389 0.002789624 -0.089620799 4290232306
-0.34076408 0.0033603646 -0.08867912 4290230769
-0.34025523 0.0037838195 -0.087451451 4290232816
-0.33974901 0.0042051733 -0.086230032 4290228209
-0.33966202 0.0049154102 -0.085586652 4290225362
-0.33957517 0.0056244689 -0.0849443 4288914641
-0.33969685 0.0064792419 -0.084588036 4288852445
-0.33981851 0.0073340461 -0.084231786 4289837023
-0.33973163 0.0080406582 -0.083591066 4289970417
-0.34048027 0.0093426816 -0.084088877 4290494196
-0.34123275 0.010651448 -0.084589243 4290625780
-0.3422012 0.012119806 -0.08538004 4290494964
-0.34511623 0.015001934 -0.088805333 4290430455
-0.34633166 0.016666554 -0.089918934 4290495736
-0.34667581 0.017702224 -0.089850701 4290494972
-0.34724095 0.018901262 -0.090079591 4290495230
-0.34758684 0.019941751 -0.090011269 4290495997
-0.34749088 0.0206571 -0.089347824 4290692860
-0.34739512 0.021371266 -0.088685527 4290824189
-0.34729955 0.022084247 -0.088024408 4290823679
-0.3474243 0.022960853 -0.087659076 4290823935
-0.34732878 0.023671927 -0.086999312 4290824703
-0.34723344 0.024381865 -0.086340711 4290824191
-0.34691891 0.024924364 -0.085391015 4290825215
-0.34660551 0.025465088 -0.084444635 4290890495
-0.34585819 0.025671633 -0.082923874 4291022591
-0.34468535 0.025546491 -0.080842659 4291612415
-0.34352461 0.025422672 -0.078782819 4291613950
-0.34216511 0.02513735 -0.076465718 4291742974
-0.34144759 0.025341265 -0.075001746 4291745791
-0.34094283 0.02570595 -0.073821589 4292006655
-0.34085581 0.026393687 -0.073193423 4292006655
-0.34076896 0.027080337 -0.072566301 4290753535
-0.34109777 0.028093565 -0.072484978 4290601594
-0.34163591 0.029273842 -0.072676748 4288694881
-0.3421759 0.030458212 -0.072869167 4288239187
-0.34313953 0.031983223 -0.073612578 4288038221
-0.34432283 0.033689339 -0.074638598 4288035905
-0.34530133 0.035237368 -0.075393781 4287772473
-0.34628659 0.036796134 -0.076154158 4287575096
-0.34706092 0.038189329 -0.076637439 4287509558
-0.34740236 0.039234642 -0.076557711 4287509045
-0.34774441 0.040281802 -0.076477751 4287378483
-0.34808707 0.041330833 -0.076397628 4287115828
-0.34821096 0.042201392 -0.076034807 4287182390
-0.34833491 0.043072034 -0.075671948 4287314752
-0.34845883 0.043942731 -0.075309068 4287589492
-0.34858277 0.044813506 -0.074946158 4290492535
-0.3524226 -0.0058747036 -0.1186524 4288255145
-0.35208386 -0.0052552302 -0.11760185 4288520387
-0.35174638 -0.0046379995 -0.11655507 4288784334
-0.35164273 -0.0038759985 -0.11584385 4289047256
-0.35107508 -0.0034099412 -0.11447286 4289309912
-0.35051054 -0.0029463619 -0.11310925 4289375961
-0.34812692 -0.0036533931 -0.10916618 4289441495
-0.34690401 -0.0036286584 -0.10687932 4289506517
-0.346138 -0.0033166574 -0.10524504 4289572059
-0.34559858 -0.00286287 -0.10393473 4289573604
-0.34528244 -0.0022672941 -0.10294236 4289573862
-0.34474766 -0.0018181632 -0.10164386 4289639659
-0.34465352 -0.0010821775 -0.10096804 4289836521
-0.34455958 -0.00034743955 -0.10029336 4289836772
-0.34424722 0.00024031854 -0.099313341 4289837544
-0.34393597 0.0008261145 -0.098336756 4289904117
-0.34362584 0.0014099481 -0.097363561 4290034678
-0.34310058 0.0018455514 -0.096091941 4289969657
-0.34236318 0.0021329504 -0.09452752 4289838584
-0.34184441 0.0025641643 -0.093270935 4289835253
-0.34111589 0.0028474841 -0.091725692 4289705205
-0.34060347 0.0032743828 -0.090483867 4289702646
-0.3400937 0.0036991425 -0.089248434 4289245172
-0.33958659 0.0041217855 -0.088019304 4289305308
-0.33908203 0.0045423098 -0.086796433 4288913628
-0.33878767 0.0051064142 -0.08586593 4289043924
-0.33890933 0.0059611532 -0.085509725 4288389076
-0.33903098 0.0068159704 -0.08515349 4288393946
-0.33873722 0.0073754289 -0.084227301 4289968603
-0.33885866 0.0082289381 -0.083871633 4290167534
-0.33939594 0.0093808062 -0.084084645 4290625266
-0.34014434 0.01068749 -0.084584124 4290691568
-0.3411074 0.01215353 -0.08537358 4290559984
-0.34378928 0.014874253 -0.088499226 4290495739
-0.34521344 0.016692966 -0.08990448 4290495743
-0.34577453 0.017887121 -0.0901329 4290494975
-0.34611818 0.018923972 -0.090064831 4290560767
-0.34668234 0.02012527 -0.090294071 4290561279
-0.34658727 0.020839892 -0.089630984 4290692607
-0.34649235 0.021553321 -0.088969067 4290823679
-0.3461785 0.02210151 -0.088013239 4290824191
-0.34630305 0.022976654 -0.087648541 4290824191
-0.34620866 0.02368656 -0.086989984 4290825215
-0.34611443 0.024395272 -0.086332515 4290825215
-0.3458024 0.024936885 -0.085384518 4290825215
-0.34549144 0.025476666 -0.084439754 4290890751
-0.34453365 0.025517453 -0.082634136 4291022847
-0.34337068 0.025393441 -0.080559775 4291613183
-0.34243104 0.025434358 -0.078787774 4291614463
-0.34108034 0.025149468 -0.076474547 4291810303
-0.3405757 0.025515258 -0.075288691 4291811583
-0.34028101 0.026041638 -0.074383318 4292007423
-0.34019452 0.026729163 -0.073754691 4292006654
-0.34010822 0.027415561 -0.073127091 4290613246
-0.34064415 0.028593661 -0.0733198 4290333292
-0.34118199 0.029775865 -0.073513135 4287970635
-0.34172162 0.030962139 -0.073707148 4287184199
-0.34289584 0.032659501 -0.07473097 4287313733
-0.34386688 0.03420002 -0.075484574 4287379005
-0.34484464 0.035751175 -0.076243319 4287509303
-0.34582916 0.037313133 -0.077007361 4287640117
-0.34638575 0.038532242 -0.077210382 4287574836
-0.3467266 0.039577883 -0.07713116 4287443252
-0.34728619 0.040804196 -0.077334881 4287378484
-0.34741008 0.041674774 -0.076972075 4287246900
-0.34753397 0.042545408 -0.076609261 4287313460
-0.34765786 0.043416087 -0.076246411 4287445051
-0.34778178 0.044286843 -0.075883523 4287650923
-0.3479057 0.04515766 -0.075520635 4290426988
-0.35137361 -0.0048971907 -0.11820532 4288520123
-0.35103735 -0.0042805388 -0.11715746 4288718281
-0.35070235 -0.0036660302 -0.11611339 4289178583
-0.35013777 -0.0032009387 -0.11474288 4289572570
-0.34934697 -0.0028852555 -0.11305233 4289573341
-0.34697902 -0.0035915782 -0.10911687 4289507293
-0.3457644 -0.0035671396 -0.10683437 4289572574
-0.34500381 -0.0032558406 -0.10520315 4289703138
-0.34468839 -0.0026590342 -0.10420769 4289638120
-0.34437409 -0.0020642781 -0.10321572 4289507048
-0.34384215 -0.0016160328 -0.10191765 4289573097
-0.34396741 -0.00073585659 -0.10155086 4289704422
-0.34387401 -1.3512881e-06 -0.10087568 4289771232
-0.34378082 0.00073188951 -0.10020162 4289901791
-0.34368777 0.0014639493 -0.099528745 4289967838
-0.34316045 0.0019009243 -0.098247029 4290094555
-0.34263596 0.0023356611 -0.096971996 4290033096
-0.34189954 0.0026216919 -0.095403209 4289566920
-0.34138149 0.0030520388 -0.094143234 4289504694
-0.3406539 0.0033339756 -0.092593633 4288972730
-0.33993134 0.0036140564 -0.091054685 4288907185
-0.33942333 0.0040379646 -0.08981777 4287857847
-0.33870932 0.0043140999 -0.088297531 4287846052
-0.33841503 0.0048795044 -0.087362871 4286807977
-0.33791476 0.0052971682 -0.086144812 4286746555
-0.33782956 0.0060048047 -0.085503109 4287401919
-0.33795097 0.0068582324 -0.085147478 4287476437
-0.33786577 0.0075640632 -0.084507115 4290165721
-0.33819383 0.0085652182 -0.084436178 4290627309
-0.33852243 0.0095681455 -0.084365055 4290888178
-0.33926791 0.010874243 -0.084864847 4290954226
-0.34022713 0.01233971 -0.085654564 4290822386
-0.34225553 0.014591278 -0.087902628 4290757371
-0.34388271 0.016560623 -0.089594752 4290626559
-0.34443998 0.01775147 -0.089822032 4290561535
-0.34478155 0.018785564 -0.089753889 4290692351
-0.34534189 0.019983549 -0.089981996 4290823935
-0.34546649 0.020859275 -0.089617074 4290889471
-0.34537271 0.021571504 -0.088956304 4290889471
-0.34506133 0.022118773 -0.08800216 4290955263
-0.34518564 0.022992427 -0.087638102 4291086335
-0.34509239 0.023701122 -0.0869807 4291087359
-0.34478232 0.024243448 -0.086032398 4291153151
-0.34447339 0.024783969 -0.085087404 4291219199
-0.34416553 0.025322679 -0.084145628 4291415039
-0.34342983 0.025528956 -0.082632527 4291416575
-0.34206268 0.025241232 -0.080278412 4291547647
-0.34113103 0.025282718 -0.078512162 4291613951
-0.34020725 0.025323909 -0.076760836 4292007167
-0.33991268 0.025851494 -0.07585144 4292008447
-0.3396191 0.026377365 -0.074945107 4291942143
-0.33953318 0.027064638 -0.07431601 4291937789
-0.33965412 0.027914643 -0.073961787 4289627133
-0.34018975 0.029094672 -0.074156106 4289087595
-0.34072724 0.030278791 -0.074351072 4288166722
-0.34147605 0.031634949 -0.07482288 4287773249
-0.34243974 0.033167992 -0.075574882 4287575617
-0.34341007 0.034711607 -0.076332048 4287509818
-0.34438708 0.036265939 -0.077094436 4287509045
-0.34515509 0.037655417 -0.077579372 4287509044
-0.34592712 0.039052177 -0.078066751 4287443506
-0.34626782 0.040099218 -0.077988155 4287377459
-0.34660915 0.04114813 -0.077909365 4287378484
-0.34716952 0.04237945 -0.07811483 4287247155
-0.34729359 0.043251637 -0.077751391 4287313457
-0.34719905 0.043941878 -0.077104181 4287510325
-0.34732306 0.044813462 -0.076740995 4287584348
-0.34744707 0.045685086 -0.076377772 4290294876
-0.34986547 -0.0042167534 -0.1170929 4288783559
-0.34976366 -0.0034564205 -0.11638246 4289113047
-0.3492021 -0.0029922384 -0.11501249 4289442011
-0.34841537 -0.0026775422 -0.11332253 4289442528
-0.34628254 -0.0032402624 -0.10970856 4289442274
-0.34507158 -0.0032176611 -0.1074229 4289704421
-0.34431344 -0.0029075209 -0.10578962 4290032103
-0.34399924 -0.0023112937 -0.10479313 4289836267
-0.34368613 -0.0017171152 -0.10380013 4289503722
-0.34337416 -0.0011249247 -0.10281058 4289173735
-0.34328118 -0.00038947043 -0.10213375 4288389092
-0.34340641 0.00049083238 -0.10176695 4288451291
-0.34331354 0.0012243688 -0.10109153 4288389334
-0.34300333 0.0018095612 -0.10011011 4288513731
-0.34269422 0.0023927633 -0.099132106 4288446136
-0.34217045 0.0028266604 -0.097853646 4288512649
-0.34143499 0.0031112912 -0.096280411 4288240771
-0.34070468 0.0033939914 -0.094718054 4288313945
-0.33997941 0.00367478 -0.093166471 4287970903
-0.33925915 0.0039537312 -0.091625571 4288047935
-0.33875284 0.0043768319 -0.090387188 4287312703
-0.33804113 0.0046518398 -0.088864997 4287385146
-0.33754092 0.0050707571 -0.087641038 4286724922
-0.3372494 0.0056335633 -0.086709857 4286741636
-0.3371647 0.0063409889 -0.086067691 4286736521
-0.33708018 0.0070472616 -0.085426547 4286882249
-0.33699578 0.0077524092 -0.084786505 4289903826
-0.33711699 0.0086045535 -0.084431447 4290496493
-0.3374441 0.0096058445 -0.084360458 4290824179
-0.33818555 0.01090987 -0.084859386 4290954743
-0.33934832 0.012525627 -0.085935168 4290823417
-0.34073231 0.014310301 -0.087310232 4290757885
-0.34234455 0.016271168 -0.088992864 4290627839
-0.34311235 0.017616587 -0.089512832 4290562303
-0.34345186 0.018647909 -0.089444622 4290693119
-0.34400839 0.019842584 -0.089671589 4290824447
-0.34391609 0.020553816 -0.089012519 4290824703
-0.34404022 0.021426626 -0.088648863 4290890239
-0.34351632 0.02180982 -0.087404825 4290955519
-0.34364018 0.022680476 -0.087042041 4291086591
-0.34354854 0.023387054 -0.086387448 4291087359
-0.34324226 0.023928113 -0.085443474 4291153151
-0.34315124 0.024631904 -0.084791899 4291219711
-0.34263286 0.0250048 -0.083565243 4291481855
-0.34211713 0.025375856 -0.08234489 4291482111
-0.3409715 0.025253227 -0.080280915 4291548159
-0.34025484 0.025457628 -0.078797691 4291613695
-0.3395431 0.025660703 -0.077324562 4292072703
-0.33904272 0.026024992 -0.076137573 4292073983
-0.33895716 0.026713109 -0.075506933 4291941119
-0.33907819 0.027563835 -0.075152449 4291936476
-0.33919919 0.028414605 -0.074797958 4289225944
-0.33973452 0.029596543 -0.074993856 4288561517
-0.34048012 0.030949799 -0.075466953 4288232264
-0.34101993 0.032141227 -0.075664774 4288100927
-0.34219408 0.033848107 -0.076699622 4287837499
-0.34316519 0.035396777 -0.077461943 4287640632
-0.34392869 0.036781602 -0.077946998 4287509045
-0.34469613 0.038173653 -0.078434557 4287312180
-0.34546763 0.039573021 -0.078924619 4287312691
-0.34580821 0.040621474 -0.078846693 4287312179
-0.34614941 0.041671827 -0.078768641 4287312947
-0.34649122 0.042724054 -0.078690387 4287312691
-0.34661531 0.043596294 -0.078326933 4287378994
-0.34673938 0.044468593 -0.077963471 4287575348
-0.34686345 0.045340966 -0.07759998 4287582556
-0.34698755 0.046213429 -0.077236451 4290096988
-0.34915763 -0.0038598862 -0.11769428 4288848829
-0.34882659 -0.0032471414 -0.11665115 4289048023
-0.34826806 -0.0027839099 -0.11528169 4289311708
-0.34748536 -0.0024701934 -0.11359224 4289377251
-0.345586 -0.0028889393 -0.11030032 4289442788
-0.34415773 -0.0030126467 -0.10769409 4289771495
-0.34362301 -0.0025591999 -0.10637616 4290362347
-0.34331 -0.0019635195 -0.10537863 4290098162
-0.34299809 -0.0013698938 -0.10438459 4289561815
-0.34268731 -0.00077827496 -0.10339402 4288835229
-0.3428126 0.00010278803 -0.10302693 4286934175
-0.34293792 0.00098393229 -0.10265981 4286798232
-0.34284532 0.0017177346 -0.10198306 4286475674
-0.34253567 0.0023026166 -0.10099921 4286399373
-0.34222713 0.0028855463 -0.10001882 4286012300
-0.34170407 0.003318591 -0.098736905 4286003053
-0.34096959 0.003601775 -0.097159207 4286007147
-0.34024021 0.0038830624 -0.095592462 4286001742
-0.33951595 0.0041624783 -0.094036534 4286068558
-0.33879662 0.0044400012 -0.092491269 4286067262
-0.33808228 0.0047157239 -0.090956651 4286198591
-0.33737287 0.0049896315 -0.0894325 4286200381
-0.33687437 0.0054077222 -0.088207103 4286593596
-0.33637843 0.0058237719 -0.086987905 4286599030
-0.33608961 0.0063839918 -0.086060219 4284899454
-0.33621079 0.0072360472 -0.085705221 4284642743
-0.33592275 0.0077930116 -0.084781229 4288785605
-0.33624831 0.0087919552 -0.08471074 4289775339
-0.33657435 0.0097925905 -0.084640048 4290562293
-0.33710679 0.010945422 -0.084854007 4290824952
-0.33826295 0.012558582 -0.085927911 4290889721
-0.33942902 0.014185707 -0.087011047 4290889725
-0.34102917 0.016140796 -0.088687487 4290890239
-0.34179154 0.017482439 -0.089205325 4290890239
-0.34212899 0.018510995 -0.08913701 4290889727
-0.34268177 0.019702379 -0.089362837 4290889983
-0.34259084 0.020411933 -0.088705793 4290890239
-0.34250006 0.021120336 -0.088049851 4290956287
-0.34219554 0.021665167 -0.087103069 4291022079
-0.34231901 0.022533609 -0.086741254 4291087103
-0.34222877 0.023238538 -0.086088605 4291153919
-0.3419255 0.023778494 -0.085147589 4291284223
-0.34183586 0.024480626 -0.084497981 4291286015
-0.34132215 0.024853026 -0.083275244 4291482367
-0.34081116 0.025223546 -0.08205878 4291548927
-0.33988398 0.025265168 -0.080283374 4291941375
-0.33938015 0.025632273 -0.079082809 4291942399
-0.33867195 0.025834633 -0.077610001 4292269311
-0.33838019 0.026361017 -0.076699913 4292270079
-0.33829516 0.027048921 -0.076068811 4292137215
-0.33841616 0.027899677 -0.075714342 4292125391
-0.33874348 0.028915485 -0.075635612 4288762308
-0.33948588 0.030265855 -0.076109983 4287905134
-0.34002349 0.031455051 -0.076308772 4288035916
-0.34077239 0.032817841 -0.076786831 4288100926
-0.34173611 0.03435896 -0.077547528 4287903030
-0.34270644 0.035910789 -0.078313425 4287771446
-0.34346941 0.037298173 -0.078801118 4287574581
-0.34423634 0.038692832 -0.079291306 4287377717
-0.34479108 0.03991662 -0.079498716 4287378484
-0.34513107 0.040965404 -0.079421289 4287312435
-0.34568882 0.042196449 -0.079629399 4287312946
-0.3460305 0.043250088 -0.079551831 4287247410
-0.34615466 0.044123132 -0.079188079 4287313459
-0.34606099 0.044813327 -0.078539088 4287574836
-0.34618506 0.045685768 -0.078175589 4287582300
-0.34652719 0.046742696 -0.078096651 4290029149
-0.3482202 -0.003650069 -0.11796204 4288586162
-0.34789115 -0.0030382311 -0.11691935 4288917207
-0.34733564 -0.0025759037 -0.11555043 4289311965
-0.34633124 -0.0024100486 -0.11353487 4289442789
-0.34466675 -0.0026831327 -0.11057042 4289639399
-0.34346545 -0.0026634161 -0.10828221 4289838058
-0.34293249 -0.002210818 -0.10696274 4290297840
-0.3426207 -0.0016157203 -0.10596418 4289832698
-0.34231001 -0.0010226414 -0.10496911 4288833727
-0.34221774 -0.00028592575 -0.10428921 4288236349
-0.34234315 0.00059597602 -0.10392179 4286788667
-0.34225097 0.001330721 -0.10324331 4286791990
-0.34237626 0.0022119952 -0.10287618 4286591286
-0.34206715 0.0027966008 -0.10188993 4286527284
-0.34175912 0.0033791896 -0.10090709 4286198069
-0.34123683 0.0038113578 -0.099621728 4286198840
-0.34050331 0.0040931664 -0.09803962 4286197304
-0.33977491 0.0043730298 -0.096468404 4286198326
-0.33884075 0.0045036469 -0.094609983 4286262838
-0.33812374 0.0047800569 -0.093062744 4286198589
-0.3374117 0.0050546448 -0.091526166 4286329917
-0.33649802 0.0051810807 -0.089709416 4286331460
-0.3360022 0.0055984114 -0.088484332 4286658628
-0.33530465 0.0058675883 -0.086978912 4286663756
-0.3352218 0.0065731462 -0.086338177 4285027661
-0.33513904 0.0072774966 -0.085698441 4284772214
-0.33485329 0.007833547 -0.084776036 4288516221
-0.33517733 0.0088308305 -0.084705651 4289445087
-0.33550194 0.0098298918 -0.084635079 4290497535
-0.33623651 0.01113123 -0.085133448 4290825471
-0.33718124 0.01259148 -0.085920759 4290890751
-0.33834061 0.014215991 -0.087001957 4290890239
-0.33993149 0.016167954 -0.088675521 4290890239
-0.34068963 0.017507419 -0.089192435 4290890239
-0.3410255 0.018534254 -0.089124195 4290890495
-0.34136197 0.019562922 -0.089055799 4290890751
-0.34127238 0.020270819 -0.088400722 4290890239
-0.34118301 0.020977551 -0.087746724 4290956031
-0.34109375 0.021683114 -0.087093808 4291022335
-0.34100467 0.022387521 -0.086442038 4291087359
-0.34091574 0.023090802 -0.085791379 4291154175
-0.34082699 0.023792913 -0.085141733 4291284735
-0.34052718 0.024330189 -0.084205605 4291351807
-0.34022841 0.024865652 -0.083272643 4291482879
-0.33993068 0.025399351 -0.082342818 4291549183
-0.33900806 0.025440253 -0.0805678 4292072191
-0.33850685 0.025806634 -0.079367518 4292073727
-0.3378022 0.026008287 -0.077894934 4292400383
-0.33771756 0.026697079 -0.077262327 4292401151
-0.3376331 0.027384724 -0.076630741 4292200447
-0.33775407 0.028235557 -0.07627628 4292186020
-0.33828688 0.029417206 -0.076474726 4288564114
-0.3388215 0.030602966 -0.076673843 4287380830
-0.33956602 0.031961203 -0.077152029 4287838790
-0.34031436 0.033326492 -0.077632666 4288035131
-0.3412773 0.034870733 -0.078396916 4287968564
-0.34224692 0.036425728 -0.07916645 4287902260
-0.34300935 0.037815709 -0.07965678 4287705652
-0.34377569 0.039212961 -0.080149636 4287508788
-0.34433007 0.040438741 -0.080358654 4287444019
-0.34466997 0.041488957 -0.080281951 4287377971
-0.34501043 0.042541057 -0.080205068 4287312690
-0.34535149 0.04359505 -0.080127999 4287181618
-0.3456932 0.044650968 -0.080050819 4287182644
-0.34538254 0.045158114 -0.07911475 4287640372
-0.34550658 0.046030607 -0.078751273 4287647580
-0.346066 0.047272962 -0.078958467 4289963103
-0.34728444 -0.0034406246 -0.1182294 4288255913
-0.34695733 -0.0028296511 -0.11718716 4288719569
-0.34640479 -0.0023682439 -0.11581873 4289376729
-0.34540549 -0.0022034349 -0.11380378 4289573858
-0.34397069 -0.0023320362 -0.11116175 4289836261
-0.34277305 -0.0023141133 -0.10887039 4289968873
-0.34224197 -0.001862418 -0.10754935 4290164971
-0.34193134 -0.0012678594 -0.10654977 4289370864
-0.34162182 -0.00067534688 -0.10555369 4287583421
-0.3415302 6.1112034e-05 -0.10487325 4287312443
-0.34187278 0.0010900445 -0.10481825 4286591033
-0.34178093 0.001825056 -0.10413843 4286657333
-0.34190631 0.0027071452 -0.10377098 4286918709
-0.34159774 0.0032914388 -0.10278226 4286853939
-0.34129021 0.0038737466 -0.10179699 4286656564
-0.34076869 0.0043050568 -0.10050817 4286657080
-0.34003615 0.0045854202 -0.098921582 4286721847
-0.33930874 0.0048638773 -0.097346 4286723382
-0.33837575 0.0049925209 -0.095482104 4286787382
-0.33745077 0.0051201168 -0.093634278 4286789181
-0.33674103 0.0053935959 -0.092095733 4286723133
-0.33583021 0.0055186534 -0.090276554 4286724675
-0.33513144 0.0057888031 -0.088761188 4287051844
-0.33423442 0.0059113214 -0.086970009 4287119180
-0.33435535 0.0067619714 -0.086615629 4285878349
-0.33407089 0.007318865 -0.085691728 4285617777
-0.33398938 0.008020957 -0.085054182 4285957498
-0.33411002 0.0088696238 -0.084700629 4286034909
-0.33463594 0.010016022 -0.084913813 4289644799
-0.33516371 0.011166384 -0.085127741 4291021823
-0.33610308 0.012624297 -0.085913643 4291218175
-0.33704895 0.014092262 -0.08670494 4291350015
-0.33862785 0.016038489 -0.088372365 4291284223
-0.33938068 0.01737419 -0.088887185 4291219199
-0.33992574 0.018557433 -0.089111462 4291219455
-0.34026071 0.01958443 -0.089043222 4291284735
-0.3401722 0.02029112 -0.088389233 4291284479
-0.34008387 0.020996666 -0.087736398 4291218175
-0.33978477 0.021539466 -0.086794257 4291284479
-0.33990771 0.022404294 -0.086433992 4291414527
-0.33981988 0.023106378 -0.085784443 4291415551
-0.339522 0.023644339 -0.084848009 4291284735
-0.3392252 0.024180528 -0.083914816 4291351551
-0.33892941 0.024714934 -0.082984746 4291548415
-0.33863464 0.025247589 -0.082057826 4291613951
-0.33792651 0.025451945 -0.080569871 4292137727
-0.33742893 0.025817709 -0.079371661 4292138239
-0.33693388 0.026181681 -0.078179486 4292269311
-0.33685002 0.026869755 -0.077547163 4292269823
-0.33697098 0.027720569 -0.077192731 4291805951
-0.33709192 0.028571438 -0.076838285 4291721095
-0.33762357 0.02975373 -0.0770377 4288693094
-0.33815709 0.030940112 -0.07723774 4287511116
-0.33910769 0.03246823 -0.077996828 4287772223
-0.33985549 0.033836052 -0.078480035 4287968568
-0.34081769 0.035383426 -0.079247877 4287902770
-0.3417865 0.036941558 -0.080020964 4287902258
-0.34254834 0.038334116 -0.080513939 4287771442
-0.34309965 0.039556272 -0.080723315 4287574578
-0.34386823 0.040961802 -0.081220187 4287509553
-0.34420797 0.042013418 -0.081144132 4287377969
-0.34454831 0.043066952 -0.08106792 4287378227
-0.34467241 0.043940045 -0.080704212 4287246643
-0.34501353 0.044996321 -0.080627538 4287248183
-0.34492067 0.045686442 -0.079976693 4287641399
-0.34504479 0.046559744 -0.079612881 4287648105
-0.34538627 0.047618482 -0.079535186 4289899374
-0.34625182 -0.0024739311 -0.11778656 4288259529
-0.34570119 -0.00201345 -0.11641651 4289375441
-0.34448138 -0.0019971184 -0.11407229 4289573853
-0.34327456 -0.0019809112 -0.11175312 4289836769
-0.34208062 -0.001964818 -0.10945864 4289902055
-0.34155133 -0.0015139768 -0.10813604 4290032100
-0.34124193 -0.00091999827 -0.10713543 4289236701
-0.34093362 -0.00032803253 -0.1061383 4287447470
-0.34105906 0.00055467739 -0.10577062 4287246902
-0.34118453 0.001437459 -0.10540287 4286721846
-0.34130999 0.0023203057 -0.10503513 4286788404
-0.34143546 0.0032032065 -0.10466737 4286984244
-0.34091121 0.0036380945 -0.10336538 4286919218
-0.3406049 0.0042198468 -0.10237908 4286722099
-0.34008515 0.0046502966 -0.10108875 4286722870
-0.33956811 0.0050785672 -0.099805146 4286787894
-0.33862993 0.0052068392 -0.097922519 4286788916
-0.33769983 0.0053340457 -0.096056163 4286787892
-0.33677775 0.0054602283 -0.094205856 4286789179
-0.33586365 0.0055854209 -0.092371427 4286723387
-0.33495733 0.0057095601 -0.090552635 4286724416
-0.33426213 0.005978894 -0.089037627 4287051329
-0.33336952 0.0061005708 -0.087246798 4287118922
-0.33328846 0.0068041789 -0.086607426 4285938252
-0.33320758 0.0075067026 -0.085969143 4285681482
-0.33292577 0.0080610178 -0.085048616 4285944138
-0.33324733 0.0090561053 -0.084978677 4286029730
-0.33377135 0.010201861 -0.085192122 4289445828
-0.33429712 0.011351613 -0.085406311 4291020779
-0.33523279 0.012808979 -0.086192556 4291218687
-0.3355588 0.013815973 -0.08612287 4291350527
-0.3371233 0.015753897 -0.087781079 4291285247
-0.33786964 0.017084332 -0.088292591 4291219967
-0.33841026 0.018263081 -0.088515118 4291284735
-0.33874267 0.019286307 -0.088446587 4291350015
-0.33907574 0.020311391 -0.08837793 4291350527
-0.33898848 0.021015737 -0.087726176 4291284223
-0.33869177 0.021557633 -0.086785711 4291350527
-0.33860508 0.022259241 -0.086136982 4291546623
-0.33872768 0.023121949 -0.085777618 4291481087
-0.33843222 0.023659017 -0.084842846 4291285247
-0.33792987 0.024031693 -0.083625562 4291351295
-0.33763701 0.024565045 -0.082698345 4291613695
-0.33734521 0.025096629 -0.081774309 4291613439
-0.33705437 0.025626482 -0.08085341 4292203519
-0.33655941 0.025991557 -0.079655506 4292203263
-0.33627114 0.02651774 -0.078742005 4292137983
-0.33618784 0.027205596 -0.078109205 4292138495
-0.33630878 0.028056467 -0.077754766 4291406335
-0.33663422 0.029072475 -0.077677824 4291190148
-0.33716556 0.030256696 -0.077878855 4288756827
-0.33790514 0.031612936 -0.078359745 4287642185
-0.33864856 0.032976191 -0.078843117 4287771967
-0.33939576 0.034346525 -0.079328917 4287836984
-0.34035718 0.035897028 -0.080100313 4287836722
-0.34132525 0.037458312 -0.080877006 4287836722
-0.34208652 0.03885347 -0.081372626 4287771443
-0.34263748 0.040077634 -0.081583679 4287705394
-0.34340551 0.041485801 -0.082083233 4287640370
-0.34352946 0.042358067 -0.08171989 4287377970
-0.34386921 0.043411925 -0.08164417 4287378739
-0.34399331 0.044285085 -0.081280455 4287574323
-0.34433377 0.045341711 -0.081204303 4287576631
-0.3442415 0.046031564 -0.080552973 4287641655
-0.34436563 0.046904929 -0.080189154 4287655783
-0.34470645 0.047964014 -0.080111973 4290555758
-0.34554628 -0.002118164 -0.11838599 4287471542
-0.34499753 -0.0016586054 -0.11701432 4289375173
-0.34378144 -0.0016441232 -0.11466692 4289507803
-0.34257835 -0.0016297691 -0.11234458 4289770464
-0.34160665 -0.0014697326 -0.11036646 4289770215
-0.34086066 -0.0011655046 -0.10872278 4289769187
-0.34055245 -0.00057210273 -0.10772114 4288973018
-0.34024534 1.9310219e-05 -0.10672298 4287053745
-0.34037074 0.0009020578 -0.10635529 4287050037
-0.34049618 0.0017849149 -0.10598756 4287049525
-0.34062165 0.0026677959 -0.10561983 4287050036
-0.34053084 0.0034016126 -0.10493929 4287180596
-0.34000942 0.003835659 -0.10363773 4287181362
-0.33970493 0.0044166003 -0.10265183 4286918706
-0.33940154 0.0049955887 -0.10166936 4286919478
-0.33867374 0.005273642 -0.10007872 4287050038
-0.337951 0.0055498146 -0.098499134 4287050548
-0.33702385 0.0056755878 -0.09663026 4286853428
-0.33610469 0.0058003641 -0.094777472 4286854203
-0.33519346 0.0059241462 -0.092940606 4286919995
-0.33408591 0.0059002042 -0.090828307 4286920256
-0.3333942 0.0061686831 -0.089313634 4287116609
-0.33270723 0.0064354017 -0.087809235 4287118154
-0.3326267 0.0071387989 -0.087169394 4287052364
-0.33234566 0.0076942518 -0.086246148 4286986570
-0.33226565 0.0083948979 -0.085609183 4284959306
-0.33258665 0.0093903132 -0.085539691 4284310176
-0.3331095 0.010536708 -0.085754104 4288062402
-0.33363417 0.011687065 -0.085969254 4290037992
-0.33436391 0.012993383 -0.086470991 4290891263
-0.33468887 0.013999738 -0.086401664 4291547903
-0.33604059 0.015781589 -0.087770909 4291547903
-0.33678278 0.017109884 -0.08828152 4291547647
-0.33732054 0.018286673 -0.088503629 4291481343
-0.33765149 0.019308234 -0.088435225 4291480575
-0.33777413 0.020171495 -0.088075668 4291415807
-0.33789679 0.0210348 -0.087716073 4291415807
-0.33760244 0.021575782 -0.086777225 4291416575
-0.33772492 0.022437738 -0.086418197 4291350783
-0.33763921 0.023137482 -0.085770898 4291350783
-0.33734608 0.02367365 -0.084837727 4291351295
-0.33705398 0.024208058 -0.083907686 4291417343
-0.33655682 0.024578176 -0.082696937 4291810047
-0.33647275 0.025271583 -0.082057104 4291810815
-0.33597881 0.025637852 -0.080855116 4292072703
-0.33569127 0.026165109 -0.079938859 4292138751
-0.33560839 0.026853845 -0.079304554 4292137983
-0.33552563 0.027541451 -0.078671277 4292136959
-0.33585039 0.028557032 -0.078595132 4290744319
-0.33617568 0.029574379 -0.07851883 4290401406
-0.33670667 0.030760488 -0.078721441 4288691532
-0.33744571 0.032119244 -0.07920491 4287838788
-0.33839631 0.033655412 -0.079972677 4287771967
-0.33935344 0.035202254 -0.080745682 4287705913
-0.34010634 0.036585532 -0.081238896 4287771442
-0.34107515 0.038151924 -0.082020864 4287902515
-0.34162387 0.039373796 -0.0822329 4287836980
-0.34217444 0.04059992 -0.082445592 4287705140
-0.34272698 0.041830413 -0.082659028 4287640373
-0.34306598 0.042883806 -0.082584165 4287377461
-0.34319001 0.043756951 -0.082220487 4287378995
-0.34331408 0.04463014 -0.08185678 4287575091
-0.34365398 0.045687135 -0.081781127 4287576632
-0.34356225 0.04637675 -0.08112929 4287644472
-0.34368634 0.047250129 -0.080765508 4287655855
-0.34451851 -0.0011553069 -0.11794378 4289178282
-0.34330386 -0.0011434997 -0.11558925 4289441496
-0.34210226 -0.001131748 -0.11325988 4289834973
-0.34113178 -0.00097371737 -0.11127593 4289836007
-0.34038678 -0.00067095197 -0.10962762 4289900512
-0.3400791 -7.7814926e-05 -0.10862346 4289103570
-0.33955699 0.00036668396 -0.10730771 4287052458
-0.3396824 0.0012494966 -0.10694002 4287050289
-0.33980781 0.0021323983 -0.10657232 4287049778
-0.33971772 0.0028666679 -0.10589096 4287115572
-0.33984303 0.0037488914 -0.10552352 4287180340
-0.3393234 0.0041820891 -0.10422042 4287115827
-0.33880651 0.0046130451 -0.10292418 4286918707
-0.33829233 0.0050418074 -0.10163467 4286919476
-0.33756965 0.0053192591 -0.10004688 4287049524
-0.33685198 0.0055948528 -0.098470129 4287050550
-0.33613932 0.0058685998 -0.096904285 4286853174
-0.33543155 0.0061405115 -0.095349163 4286854208
-0.33472869 0.0064106598 -0.093804739 4286919745
-0.33362255 0.0063842596 -0.091686174 4286920258
-0.33293185 0.0066513745 -0.090167336 4287117378
-0.33244714 0.0070634466 -0.088946313 4287118144
-0.3321656 0.0076203975 -0.088017672 4287051328
-0.33188507 0.0081754997 -0.087092184 4287051590
-0.33160546 0.008728819 -0.086169772 4284955975
-0.33192587 0.0097245611 -0.086100779 4284176736
-0.33244759 0.010871558 -0.086316146 4287924334
-0.3329711 0.012022542 -0.08653225 4289903305
-0.33349642 0.013177497 -0.086749069 4290825983
-0.33402354 0.014336456 -0.086966582 4291548159
-0.33475676 0.015654204 -0.087472573 4291613439
-0.33549377 0.016978797 -0.087981112 4291612671
-0.33602789 0.018152397 -0.088202126 4291547135
-0.33635685 0.019171257 -0.088133655 4291481343
-0.33647919 0.020032348 -0.087775014 4291481343
-0.33660153 0.020893469 -0.087416373 4291481343
-0.33651677 0.021593858 -0.086768799 4291416831
-0.33643228 0.022293143 -0.086122341 4291219967
-0.33655441 0.023152998 -0.085764229 4291285503
-0.3362636 0.023688294 -0.084832653 4291416575
-0.33597383 0.024221813 -0.083904259 4291483391
-0.33548027 0.024591299 -0.082695559 4291941887
-0.33539724 0.025283558 -0.082056813 4291942399
-0.33490685 0.02564925 -0.080856867 4292007679
-0.3350279 0.026501466 -0.080501936 4292008703
-0.33474246 0.027026445 -0.079587802 4292204031
-0.33486333 0.027877344 -0.079233423 4292200685
-0.33539113 0.029058468 -0.079436965 4289822698
-0.33571634 0.030077189 -0.079361357 4289023358
-0.33645219 0.03143302 -0.079846054 4288429133
-0.33698544 0.032626446 -0.080051586 4288166211
-0.33793524 0.034165759 -0.080822937 4287771965
-0.3388916 0.035715695 -0.081599504 4287443768
-0.33985454 0.03727638 -0.08238142 4287705907
-0.34061196 0.038671121 -0.082880966 4288033587
-0.34116033 0.039894983 -0.083094671 4287903028
-0.34171057 0.041123178 -0.083309084 4287705396
-0.34226272 0.042355657 -0.083524182 4287706165
-0.34260163 0.04341051 -0.083450057 4287574325
-0.34272578 0.044284455 -0.083086066 4287576627
-0.34263483 0.044975225 -0.082433157 4287640627
-0.3429741 0.046032548 -0.08235801 4287642424
-0.34309828 0.046906706 -0.081993937 4288103224
-0.34403855 -0.00065106677 -0.11887497 4288651681
-0.34282538 -0.000641905 -0.11651329 4289113558
-0.34184557 -0.00048511059 -0.11450242 4289900763
-0.34087449 -0.00032962591 -0.11250944 4290033126
-0.339912 -0.00017548316 -0.11053406 4290293729
-0.33938888 0.0002704472 -0.1092098 4289497298
-0.33908352 0.0008609962 -0.10820813 4287183530
-0.33920902 0.001744634 -0.10784014 4287181618
-0.33911934 0.0024799057 -0.1071571 4287246386
-0.33902985 0.0032139162 -0.10647526 4287247156
-0.33915517 0.0040962016 -0.10610781 4287114804
-0.33863732 0.0045285304 -0.10480318 4287116083
-0.33812222 0.0049586291 -0.10350539 4287115315
-0.3376098 0.0053865598 -0.10221437 4287115572
-0.33710009 0.0058122948 -0.10093008 4287180596
-0.3363834 0.0060864598 -0.099348843 4287182134
-0.33567172 0.0063588121 -0.097778618 4287311926
-0.33496496 0.0066293278 -0.096219189 4287313472
-0.33426306 0.0068980334 -0.094670393 4287247425
-0.33315837 0.0068691815 -0.092545591 4287248194
-0.33267096 0.007282441 -0.091313303 4287182914
-0.33198464 0.0075461566 -0.089798279 4287182400
-0.33190453 0.0082505206 -0.089155167 4287116351
-0.33142364 0.0086576147 -0.087939702 4287117125
-0.33134428 0.0093587758 -0.087300271 4286593863
-0.33146483 0.010207688 -0.086946756 4286336087
-0.33198619 0.011356531 -0.087163776 4287135071
-0.33230799 0.012358054 -0.087095298 4287672766
-0.33283216 0.013513614 -0.087313078 4290104319
-0.33335814 0.014673221 -0.087531567 4291876095
-0.33388588 0.01583679 -0.087750763 4291744767
-0.33441547 0.017004456 -0.087970681 4291547135
-0.33494687 0.018176155 -0.08819136 4291613183
-0.33527428 0.019193353 -0.088122949 4291678463
-0.33560225 0.020212321 -0.088054389 4291678207
-0.33572447 0.021072771 -0.087696053 4291743743
-0.33564058 0.021772493 -0.087048851 4291678975
-0.33576271 0.022632334 -0.086690761 4291547903
-0.33567888 0.023330251 -0.0860449 4291548159
-0.33538976 0.023864808 -0.085113637 4291678463
-0.33510172 0.024397595 -0.084185541 4291680511
-0.33481464 0.024928667 -0.083260588 4292073727
-0.33452854 0.025457997 -0.082338743 4292074495
-0.33424342 0.025985572 -0.081420004 4292270079
-0.3341617 0.026674518 -0.080784477 4292271103
-0.33408016 0.027362328 -0.080149971 4292204543
-0.33420101 0.028213264 -0.079795599 4292195791
-0.33472764 0.029395021 -0.08000011 4289749186
-0.33505225 0.030414071 -0.079924986 4288823671
-0.3357864 0.031770796 -0.080411136 4288428880
-0.33652431 0.033134572 -0.080899797 4288165954
-0.3374733 0.034676988 -0.081674673 4287837751
-0.33842885 0.036230046 -0.08245483 4287444023
-0.33939105 0.037793949 -0.083240427 4287706166
-0.34014794 0.039191272 -0.083742641 4288033844
-0.34069589 0.040417138 -0.083957992 4287903025
-0.34103251 0.041467473 -0.083884478 4287705649
-0.34158346 0.042700619 -0.084100582 4287706419
-0.34192175 0.043755859 -0.08402697 4287575347
-0.3420459 0.044629831 -0.083662987 4287576629
-0.34195554 0.045320358 -0.083009563 4287641653
-0.34229416 0.046378031 -0.082934938 4287642707
-0.34220362 0.047067173 -0.082282089 4288186709
-0.34256834 9.6420335e-06 -0.11776955 4288850635
-0.34136739 1.5343641e-05 -0.11542223 4289834706
-0.34039757 0.00016878826 -0.11342335 4289901537
-0.33943635 0.00032093358 -0.11144226 4290227165
-0.33891401 0.00076600246 -0.1101144 4289497300
-0.33860919 0.0013562447 -0.10911027 4287249329
-0.33873481 0.0022407179 -0.10874194 4287247158
-0.33843085 0.0028274518 -0.10774195 4287246389
-0.33834192 0.0035612194 -0.10705959 4287247154
-0.33846718 0.0044435798 -0.10669216 4287115314
-0.33795115 0.0048750192 -0.10538598 4287116081
-0.33743784 0.0053042546 -0.10408667 4287114801
-0.33713859 0.0058813393 -0.10310254 4287115570
-0.33641928 0.0061562127 -0.10150833 4287180082
-0.33570492 0.0064292266 -0.099925108 4287182128
-0.3349956 0.0067004454 -0.098352864 4287311664
-0.33449748 0.0071189888 -0.097090706 4287313460
-0.33359149 0.0072374237 -0.095240705 4287246644
-0.33269331 0.0073549589 -0.093406588 4287248184
-0.3322067 0.0077673788 -0.092171013 4287182137
-0.33172253 0.0081777507 -0.090941735 4287182136
-0.33144149 0.0087343054 -0.090007365 4287115832
-0.33116144 0.0092890495 -0.089076124 4287116862
-0.33088231 0.0098419972 -0.088148035 4286920769
-0.33100295 0.010691631 -0.087794214 4286793808
-0.33152395 0.011842364 -0.088012874 4286998616
-0.33184567 0.012845215 -0.087945104 4287078815
-0.33216786 0.01384979 -0.087877125 4289710553
-0.33269265 0.015010009 -0.088096596 4292007148
-0.33301643 0.016019134 -0.088028543 4291810815
-0.33354408 0.017186161 -0.088248782 4291547903
-0.33427793 0.018514836 -0.088759303 4291678975
-0.33439988 0.01937375 -0.088401645 4291809535
-0.33472681 0.020392064 -0.088333391 4291810047
-0.33484891 0.021251841 -0.087975353 4291875583
-0.33497098 0.022111667 -0.087617293 4291875839
-0.33509308 0.022971546 -0.087259211 4291810303
-0.33500981 0.023669235 -0.086612865 4291811071
-0.33472186 0.024203252 -0.085680634 4291875583
-0.3344349 0.024735546 -0.084751599 4291877631
-0.33394566 0.025103528 -0.083541766 4292205567
-0.33366129 0.025632165 -0.082620271 4292207103
-0.33337784 0.026159039 -0.081701823 4292598271
-0.33329692 0.026847295 -0.081066571 4292664827
-0.33321613 0.027534435 -0.080432415 4292329211
-0.33353856 0.028549217 -0.08035785 4292183738
-0.33386159 0.029565822 -0.080283143 4289548453
-0.33438814 0.030750981 -0.080488667 4288364912
-0.33512053 0.032108624 -0.080976248 4288232526
-0.33585674 0.033473305 -0.081466369 4288165954
-0.33680344 0.035016913 -0.082243197 4287903287
-0.33775666 0.036571216 -0.083025321 4287640887
-0.33850667 0.037960581 -0.083525285 4287706678
-0.33926055 0.0393572 -0.084027819 4287837236
-0.33980653 0.040582366 -0.084243536 4287772209
-0.34035438 0.041811835 -0.084459931 4287640113
-0.34069097 0.04286439 -0.084386751 4287706675
-0.34102812 0.043918859 -0.084313408 4287903027
-0.34115213 0.044792145 -0.083949752 4287904053
-0.34127614 0.04566551 -0.083586045 4287969333
-0.34161419 0.046723545 -0.083511919 4287984725
-0.34152418 0.047412429 -0.082858592 4290355034
-0.34208778 0.00051369687 -0.11869817 4287405252
-0.34088832 0.00051671971 -0.11634374 4289244109
-0.33991975 0.00066813332 -0.11433904 4289375456
-0.33917633 0.00096628082 -0.11267392 4289637597
-0.33843821 0.0012624152 -0.11102062 4289171156
-0.33813393 0.0018523661 -0.11001399 4287577010
-0.338045 0.0025888444 -0.10932789 4287574838
-0.33774227 0.0031750291 -0.10832686 4287639605
-0.33765393 0.0039085271 -0.10764398 4287574834
-0.33777919 0.0047909529 -0.10727655 4287049522
-0.33726493 0.0052215224 -0.10596886 4287050801
-0.3369652 0.0058002598 -0.10497887 4287049265
-0.33666649 0.0063770083 -0.10399237 4287050546
-0.33594817 0.0066504502 -0.10239364 4287180082
-0.33544365 0.0070723328 -0.10111109 4287181872
-0.33473393 0.0073418324 -0.099532016 4287180592
-0.33402917 0.007609522 -0.097963773 4287182131
-0.3331244 0.0077260425 -0.096108489 4287246643
-0.33222741 0.0078415992 -0.094269037 4287247158
-0.33174151 0.0082531637 -0.093030207 4287378231
-0.33125815 0.0086626979 -0.09179768 4287378998
-0.3311784 0.0093680117 -0.091151223 4287378230
-0.33089826 0.0099226683 -0.09021648 4287378748
-0.3306191 0.010475504 -0.089284867 4286985791
-0.33073992 0.011326654 -0.088930465 4286857037
-0.33106095 0.012329045 -0.088863499 4286536789
-0.33138242 0.0133332 -0.08879634 4286350485
-0.33150348 0.014186 -0.088441253 4288656071
-0.33202714 0.015346823 -0.088661671 4291089121
-0.33235031 0.016356304 -0.088594109 4291352063
-0.33267409 0.017367557 -0.088526405 4291613951
-0.33340505 0.018695632 -0.089037225 4291679487
-0.33373088 0.019712497 -0.088969633 4291875583
-0.33405718 0.020731173 -0.088901885 4291942143
-0.33438411 0.021751639 -0.088833965 4292072959
-0.33430135 0.022450877 -0.088185787 4292007679
-0.33442342 0.023310823 -0.08782772 4291810815
-0.33434069 0.024008228 -0.087180905 4291811583
-0.33405384 0.02454176 -0.08624769 4292072959
-0.33356473 0.024910836 -0.085032031 4292073983
-0.33328047 0.025440665 -0.084106423 4292075519
-0.33279544 0.025806036 -0.082901292 4292074751
-0.33251369 0.026332242 -0.081983179 4292271103
-0.33263448 0.027183171 -0.081628852 4292401396
-0.33235356 0.027706293 -0.080714412 4291788273
-0.33267495 0.028720407 -0.080640145 4291651963
-0.33319855 0.029902112 -0.080845907 4289482061
-0.33372393 0.031087941 -0.081052385 4288364617
-0.3344546 0.032446496 -0.081541441 4288232263
-0.33498439 0.033641797 -0.081749886 4288165696
-0.33592731 0.035184741 -0.082527056 4287968824
-0.33687669 0.036738355 -0.083309494 4287640887
-0.33783263 0.038302705 -0.084097311 4287706678
-0.33858475 0.039700273 -0.084601328 4287837238
-0.33912954 0.040926091 -0.084818028 4287772471
-0.33946443 0.041976035 -0.08474531 4287640630
-0.34001216 0.043209124 -0.084962763 4287641141
-0.34034872 0.044263922 -0.084889926 4287968309
-0.34047273 0.045137279 -0.084526256 4287969596
-0.3403838 0.045826908 -0.083872728 4288043580
-0.34072071 0.046884194 -0.083798856 4288054443
-0.33965912 0.0013175565 -0.11558253 4289374931
-0.33891535 0.0016139845 -0.11391008 4289636566
-0.33817685 0.0019084081 -0.11224945 4289171423
-0.33765781 0.002349416 -0.11091942 4287578303
-0.33756915 0.0030861599 -0.11023186 4287575094
-0.33748072 0.0038216915 -0.10954553 4287640117
-0.33717895 0.0044057956 -0.1085441 4287574833
-0.33730432 0.0052890363 -0.10817635 4287049777
-0.33700341 0.0058696596 -0.10717905 4287050800
-0.3367036 0.0064483401 -0.10618525 4287049008
-0.3364048 0.007025023 -0.10519488 4287050543
-0.33568615 0.0072967429 -0.10358916 4287180847
-0.33518142 0.0077177105 -0.10230127 4287181874
-0.33447134 0.0079854513 -0.10071526 4287180594
-0.33355996 0.0081009623 -0.098838478 4287182130
-0.33286101 0.0083654365 -0.09727668 4287246385
-0.3319636 0.0084785279 -0.095429085 4287246901
-0.33127552 0.0087398356 -0.093890935 4287377718
-0.33099401 0.0092978822 -0.092947602 4287444279
-0.33091432 0.010003873 -0.092299029 4287443767
-0.33063415 0.010558468 -0.091360755 4287444282
-0.33035493 0.011111234 -0.090425625 4287051067
-0.33047596 0.011963892 -0.090070613 4286855746
-0.33079723 0.012968547 -0.090004466 4286335303
-0.33091834 0.013822053 -0.089649104 4285950829
-0.3312403 0.014829305 -0.089582525 4288253837
-0.33136153 0.01568367 -0.089226805 4290493124
-0.33168414 0.016693478 -0.089159735 4290959103
-0.33200732 0.017705079 -0.089092515 4291614463
-0.33253363 0.018876133 -0.089314722 4291745535
-0.33285838 0.019892339 -0.089247435 4291941631
-0.33318371 0.020910347 -0.08918 4292008191
-0.33350956 0.021930162 -0.089112408 4292269567
-0.33342758 0.022628691 -0.088464558 4292205311
-0.33354953 0.023487957 -0.088106774 4291811071
-0.33346757 0.024184667 -0.087460257 4291877375
-0.33318251 0.024717497 -0.086527415 4292465919
-0.33269599 0.02508587 -0.085312054 4292466431
-0.33241343 0.025615007 -0.084386751 4291812095
-0.33213183 0.026142415 -0.083464578 4291743999
-0.33185121 0.0266681 -0.082545482 4291549183
-0.33177161 0.027355447 -0.081910118 4291480054
-0.33169216 0.02804167 -0.081275798 4289823731
-0.33201298 0.029056128 -0.081202015 4289287044
-0.3323344 0.030072378 -0.081128068 4288823633
-0.33285782 0.031257518 -0.081334829 4288495435
-0.33358568 0.03261539 -0.081824221 4288297799
-0.33431727 0.033980295 -0.082316078 4288166208
-0.33525786 0.03552448 -0.0830952 4288035128
-0.33620495 0.03707929 -0.083879597 4287903031
-0.33715853 0.038644873 -0.084669381 4287838006
-0.33769938 0.039865684 -0.084885672 4287640630
-0.33845249 0.041269854 -0.085392587 4287707191
-0.33878678 0.042320166 -0.085320361 4287837495
-0.33933333 0.043553885 -0.085538819 4287838773
-0.33966926 0.044609059 -0.085466497 4287968309
-0.33979324 0.045482446 -0.085102841 4287975229
-0.33970487 0.046171814 -0.084448814 4289553726
-0.3396163 0.0021195915 -0.11715903 4288850899
-0.33865336 0.0022640503 -0.11515068 4289506262
-0.33791441 0.0025566784 -0.11348265 4289240031
-0.33739513 0.0029968198 -0.112147 4288102847
-0.33730662 0.003734373 -0.11145718 4288034102
