# .PCD v0.7 - Point Cloud Data file format
VERSION 0.7
FIELDS x y z rgba
SIZE 4 4 4 4
TYPE F F F U
COUNT 1 1 1 1
WIDTH 1019
HEIGHT 1
VIEWPOINT 0 0 0 1 0 0 0
POINTS 1019
DATA ascii
-0.33615139 0.057749555 -0.099879973 4288427831
-0.33607748 0.058702815 -0.10000053 4288623671
-0.33641452 0.059726611 -0.10082226 4288690230
-0.33634046 0.060681667 -0.10094304 4289090614
-0.33647227 0.061673827 -0.10141551 4289245117
-0.33681089 0.062705815 -0.10224195 4291483378
-0.33715072 0.06374152 -0.10307132 4292532731
-0.33769998 0.064820997 -0.10426004 4292532223
-0.33825222 0.065906331 -0.10545512 4292532223
-0.33901811 0.067039803 -0.10701767 4292531967
-0.33978954 0.068181477 -0.10859152 4292597759
-0.34099492 0.069420941 -0.11091172 4292467199
-0.34286591 0.07081303 -0.11437723 4292335359
-0.34410474 0.072084084 -0.11676103 4292269055
-0.34558019 0.073418602 -0.11955434 4292202488
-0.34775466 0.074923903 -0.12355329 4291739623
-0.35693648 0.0042347834 -0.12275034 4288193216
-0.35495216 0.0053626229 -0.11972512 4288455369
-0.35346377 0.0064490489 -0.11751761 4288455114
-0.35199195 0.0075234696 -0.11533471 4288585418
-0.35099408 0.0085655209 -0.11393495 4288651983
-0.34977624 0.0096092429 -0.11216832 4288520912
-0.34834486 0.010651782 -0.11004479 4288522185
-0.34692913 0.011683032 -0.10794441 4288783816
-0.34552875 0.012703108 -0.10586688 4288850644
-0.34436077 0.01370686 -0.10417329 4288916183
-0.3436349 0.014692723 -0.10321348 4288917719
-0.34291291 0.015673341 -0.10225883 4289311959
-0.34198126 0.016651481 -0.10095336 4289445869
-0.34126821 0.017620904 -0.10001073 4289640435
-0.34055895 0.018585244 -0.099073149 4289705699
-0.34006345 0.019544354 -0.098491192 4290364126
-0.33956972 0.020500153 -0.09791138 4290629366
-0.33907771 0.021452665 -0.097333573 4291418111
-0.3385874 0.022401871 -0.096757822 4291811583
-0.33809885 0.023347795 -0.096184082 4291877119
-0.337612 0.02429048 -0.095612437 4291877375
-0.33774465 0.025244508 -0.096078269 4292140031
-0.33767095 0.026194585 -0.096198447 4292337151
-0.33739108 0.027138175 -0.095972672 4292272127
-0.33793682 0.028109707 -0.097132877 4292272895
-0.33848545 0.029086474 -0.09829925 4292666367
-0.33903697 0.030068513 -0.099471852 4292928255
-0.34022352 0.031086188 -0.1017141 4292994303
-0.34120956 0.032103751 -0.10362142 4293061375
-0.34113458 0.033070445 -0.10374369 4293061375
-0.33978865 0.033960689 -0.10172391 4292995839
-0.33824882 0.034828175 -0.099374399 4293324031
-0.33713949 0.035713192 -0.097748309 4293717759
-0.33502305 0.036516815 -0.09441942 4293784319
-0.33434418 0.037413891 -0.093515374 4293849343
-0.33386925 0.03832252 -0.092954881 4293980159
-0.33359602 0.039245028 -0.092734776 4294111231
-0.33352315 0.040183757 -0.092853546 4293782271
-0.33345035 0.041122548 -0.092972301 4293178332
-0.33337748 0.042061422 -0.093091071 4291974287
-0.33330464 0.043000355 -0.093209848 4289019516
-0.33343181 0.04396043 -0.093668096 4289152330
-0.33375993 0.044944186 -0.094467968 4289544520
-0.33388785 0.045908608 -0.094928548 4289478721
-0.33462185 0.046946041 -0.096420042 4289345856
-0.33475107 0.047916546 -0.09688434 4289281084
-0.33508375 0.048914418 -0.0976955 4288821052
-0.33541757 0.049915884 -0.098509468 4288822333
-0.33575258 0.0509209 -0.099326342 4289148220
-0.33588356 0.051901206 -0.099796101 4289149240
-0.33580962 0.052854057 -0.099916644 4288950584
-0.33573571 0.053806998 -0.10003718 4288952374
-0.33566177 0.054760017 -0.10015774 4288623158
-0.33579278 0.055744834 -0.10062873 4288624182
-0.33571875 0.05669881 -0.10074941 4288492342
-0.33543992 0.057619467 -0.10051946 4288493111
-0.33536598 0.058572751 -0.10064005 4288754744
-0.33549669 0.059561208 -0.10111151 4288821561
-0.33542266 0.060515482 -0.10123221 4289423161
-0.33555353 0.06150664 -0.10170458 4289706684
-0.33589017 0.062537454 -0.10253083 4291680504
-0.33622804 0.063571997 -0.10335998 4292729084
-0.33677435 0.064650111 -0.10454846 4292794623
-0.33732358 0.065734051 -0.10574324 4292794879
-0.33808544 0.066865943 -0.1073055 4292794879
-0.33885276 0.068006016 -0.10887893 4292728831
-0.34005204 0.069243453 -0.11119869 4292597759
-0.3423484 0.070725538 -0.11541332 4292466687
-0.34336552 0.071949527 -0.11742548 4292466431
-0.34461391 0.073233977 -0.11983927 4292399095
-0.34610081 0.074583463 -0.12266804 4292002791
-0.35545832 0.0041369493 -0.12224538 4288193472
-0.35372511 0.0052488637 -0.11962254 4288586441
-0.35247865 0.0063215005 -0.1178064 4288652746
-0.35124376 0.0073842485 -0.11600709 4288454602
-0.35047731 0.0084164394 -0.11498601 4288455375
-0.34926072 0.0094618639 -0.113213 4288651984
-0.34783086 0.010506197 -0.11108176 4288719305
-0.34641659 0.011539203 -0.10897387 4288784072
-0.3450177 0.012561039 -0.10688888 4288785364
-0.34385091 0.013566393 -0.10518914 4288916183
-0.34312576 0.01455354 -0.10422579 4288918487
-0.34218994 0.015539168 -0.10290855 4289574359
-0.34126082 0.016517842 -0.10160079 4289772780
-0.34054968 0.017487675 -0.10065646 4289837043
-0.33984232 0.018452365 -0.099717177 4289902820
-0.33934802 0.019411793 -0.099134125 4290626526
-0.33885556 0.020367851 -0.098553188 4290957814
-0.33836478 0.021320619 -0.097974285 4291483903
-0.33787569 0.02227011 -0.097397424 4291747327
-0.33738837 0.02321632 -0.09682259 4291943167
-0.33690274 0.02415926 -0.096249849 4292009215
-0.33682907 0.025108468 -0.096369952 4292075007
-0.33675539 0.026057737 -0.096490048 4292075007
-0.33647653 0.02700064 -0.096264206 4292206591
-0.33722556 0.027978295 -0.097772084 4292272895
-0.33777225 0.028954761 -0.098940209 4292404223
-0.33811364 0.029927421 -0.099762715 4292536575
-0.33950457 0.030953471 -0.10236023 4292995583
-0.34006324 0.031948581 -0.10355315 4293323519
-0.34020013 0.032925408 -0.10403368 4293389311
-0.33781669 0.033753198 -0.10024678 4293454591
-0.33670822 0.034643695 -0.098615453 4293520639
-0.3356095 0.035526469 -0.096998416 4293586431
-0.33452037 0.036401592 -0.09539552 4293586943
-0.33384219 0.037299767 -0.094488174 4293586943
-0.33336774 0.038209435 -0.093925588 4293718015
-0.33289489 0.039116003 -0.093364909 4293914623
-0.33282202 0.040054753 -0.093483701 4293913599
-0.33274916 0.040993597 -0.093602486 4293839075
-0.33267629 0.041932523 -0.093721278 4292441245
-0.33260342 0.042871509 -0.093840078 4288953736
-0.33272997 0.043831497 -0.094298907 4289085767
-0.33305681 0.044815078 -0.095099919 4289413190
-0.33338481 0.045802154 -0.09590371 4289347138
-0.33411762 0.046840135 -0.09739992 4289214785
-0.33404416 0.047786858 -0.097519703 4289150525
-0.33437559 0.048784558 -0.098332003 4288821309
-0.33491179 0.049812261 -0.099495605 4288822591
-0.33524615 0.050818034 -0.10031492 4289082943
-0.33517221 0.051770877 -0.10043548 4289083449
-0.33509824 0.052723777 -0.10055605 4288950585
-0.3350243 0.053676739 -0.10067662 4288886580
-0.33495033 0.054629788 -0.10079721 4288557876
-0.33508065 0.055614535 -0.10126879 4288558646
-0.33500662 0.056568574 -0.1013895 4288622902
-0.33472836 0.057489362 -0.10115902 4288624184
-0.33465439 0.058442697 -0.10127965 4288623928
-0.33478445 0.059431072 -0.10175169 4288691516
-0.33471039 0.060385387 -0.10187244 4289954109
-0.33463633 0.061339777 -0.10199317 4290430658
-0.33497101 0.062369399 -0.10281917 4291876607
-0.33530691 0.06340275 -0.10364815 4292663551
-0.33585027 0.064479485 -0.10483634 4292729599
-0.33618921 0.065521322 -0.10567262 4292795391
-0.33694565 0.066650473 -0.10723183 4292795903
-0.33791766 0.067830846 -0.10916594 4292730111
-0.33932349 0.069110751 -0.11185355 4292663550
-0.34182987 0.070637904 -0.11645137 4292531710
-0.34262627 0.071814954 -0.11808998 4292465918
-0.34364933 0.07304965 -0.1201237 4292398072
-0.34490499 0.074346252 -0.12256359 4291936744
-0.35446113 0.0040101656 -0.12253267 4288193473
-0.35296991 0.0051082484 -0.12030119 4288585927
-0.3514953 0.0061941799 -0.11809468 4288652489
-0.35072529 0.0072334502 -0.11706401 4288455369
-0.34995955 0.0082670413 -0.11603909 4288455626
-0.34874421 0.0093141738 -0.11425962 4288651466
-0.34709206 0.01036888 -0.11174567 4288719052
-0.34568182 0.01140266 -0.10963418 4288784588
-0.34428692 0.012425294 -0.10754563 4288785363
-0.34290704 0.013436931 -0.10547968 4288916437
-0.34240016 0.014418853 -0.10487786 4288918492
-0.3414669 0.015405018 -0.10355832 4289574878
-0.34075263 0.016381234 -0.10260539 4289772787
-0.34004217 0.017352317 -0.10165758 4289905659
-0.3393355 0.018318279 -0.10071483 4289904113
-0.33884171 0.019278817 -0.10012958 4290692589
-0.33834961 0.02023601 -0.099546351 4290958073
-0.33765176 0.021188587 -0.09861505 4291482623
-0.33716393 0.02213834 -0.098037094 4291746559
-0.33667779 0.023084803 -0.097461171 4291943167
-0.33619341 0.024028026 -0.096887335 4292009215
-0.33591503 0.024972625 -0.096661128 4292074239
-0.33584139 0.025921108 -0.096781164 4292074495
-0.33556354 0.026863359 -0.096555315 4292205567
-0.33630863 0.027839718 -0.09806291 4292272127
-0.3368524 0.02881496 -0.099230751 4292404735
-0.3373991 0.029795488 -0.10040489 4292471295
-0.33899572 0.030830681 -0.10336329 4292930303
-0.33913141 0.031804733 -0.10384288 4293389311
-0.33821717 0.032722477 -0.1025377 4293455103
-0.33710203 0.033621445 -0.10088907 4293520383
-0.33599672 0.03451255 -0.099254914 4293520383
-0.33510467 0.0354097 -0.09798196 4293520639
-0.33381498 0.036271635 -0.096029483 4293521407
-0.33333933 0.037185442 -0.095462754 4293521407
-0.33286527 0.038096119 -0.094897978 4293652223
-0.33239284 0.039003719 -0.094335146 4293848575
-0.33212084 0.039925769 -0.094113916 4293913855
-0.33204794 0.040864665 -0.094232723 4294037747
-0.33197504 0.041803617 -0.094351545 4292773329
-0.33190212 0.042742621 -0.094470389 4288955059
-0.33222723 0.043723423 -0.095271006 4289019720
-0.33255345 0.044707693 -0.09607438 4289347399
-0.33268037 0.045672826 -0.096536845 4289346885
-0.33361247 0.046734065 -0.098381571 4289149765
-0.33353889 0.047681637 -0.098501503 4289150785
-0.3338697 0.048680052 -0.099316239 4288821825
-0.33420166 0.049682066 -0.10013387 4288822593
-0.33453473 0.050687626 -0.10095435 4289083457
-0.33446077 0.051640525 -0.10107493 4289083452
-0.33438677 0.052593451 -0.10119552 4288885564
-0.3343128 0.053546466 -0.10131612 4288886584
-0.3342388 0.05449957 -0.10143673 4288492344
-0.3341648 0.055452723 -0.10155735 4288427575
-0.33409077 0.056405939 -0.10167801 4288688694
-0.33401674 0.057359245 -0.10179864 4288755768
-0.33394274 0.058312606 -0.10191929 4288558648
-0.33386871 0.059266046 -0.10203994 4288496458
-0.33379468 0.060219556 -0.10216062 4290547792
-0.33392397 0.061209694 -0.10263348 4291481026
-0.33425736 0.062239137 -0.10346063 4292073727
-0.33459198 0.063272282 -0.10429077 4292467455
-0.3349278 0.064309187 -0.10512386 4292664319
-0.33567768 0.065430976 -0.106677 4292861183
-0.33622488 0.066519096 -0.1078797 4292861439
-0.33740351 0.067741901 -0.11018162 4292796159
-0.33859485 0.068978027 -0.11250848 4292730110
-0.34152776 0.070596464 -0.11786993 4292662270
-0.3425439 0.071823306 -0.11989893 4292530429
-0.343348 0.073012419 -0.12156079 4292332023
-0.34438097 0.074260756 -0.12362377 4291870182
-0.35346571 0.0038835707 -0.12281952 4287669441
-0.35198146 0.0049814228 -0.12058856 4288848071
-0.35074419 0.0060543539 -0.11876965 4288980425
-0.34997624 0.0070941034 -0.11773714 4288651977
-0.34898478 0.0081388121 -0.11632726 4288588234
-0.34800062 0.0091758994 -0.11492784 4288848330
-0.34613055 0.010240209 -0.11203469 4288914892
-0.3447268 0.01127378 -0.10992353 4288915660
-0.34333828 0.012296238 -0.10783537 4288917715
-0.34218007 0.013301929 -0.10613298 4289113301
-0.34146002 0.014289011 -0.10516799 4289180636
-0.34074381 0.015270817 -0.10420816 4289705950
-0.34003145 0.016247449 -0.10325351 4289904884
-0.33932287 0.01721891 -0.10230401 4290561531
-0.33882773 0.018183935 -0.10171438 4290821618
-0.33833435 0.019145587 -0.10112681 4290758126
-0.33784267 0.020103922 -0.10054132 4290760954
-0.33714554 0.021057716 -0.099606581 4291482111
-0.33665815 0.022008589 -0.099026389 4291811071
-0.33617249 0.02295617 -0.098448299 4292008191
-0.33548403 0.023896782 -0.097524852 4292140287
-0.33520621 0.024841545 -0.09729813 4292074239
-0.33513254 0.025790054 -0.097418196 4292008959
-0.33587679 0.026763458 -0.09893021 4292271103
-0.33641988 0.027736695 -0.10010143 4292469247
-0.33675876 0.028707188 -0.10092606 4292536319
-0.33814123 0.029725652 -0.10353088 4292602367
-0.33848593 0.030707629 -0.10436826 4292799231
-0.33820117 0.031661138 -0.10413206 4293061631
-0.33729103 0.032578595 -0.10282712 4293127679
-0.33659407 0.033501867 -0.10188475 4293258239
-0.33548996 0.034394335 -0.10024481 4293258239
-0.33459893 0.035292719 -0.098967321 4293389567
-0.33331072 0.036156069 -0.097007997 4293390079
-0.33283547 0.03707093 -0.096439049 4293456127
-0.33236185 0.03798262 -0.095872104 4293587199
-0.3318899 0.03889123 -0.095307186 4293782527
-0.33141956 0.03979677 -0.094744191 4293848063
-0.33134663 0.040735688 -0.094863027 4293975033
-0.3312737 0.041674659 -0.094981879 4292780265
-0.33120078 0.042613715 -0.095100753 4289152198
-0.33152464 0.043594345 -0.095902488 4289216072
-0.33184958 0.044578418 -0.096706994 4289544008
-0.33217567 0.045566045 -0.097514339 4289478727
-0.3331064 0.046627767 -0.099365056 4289215559
-0.33303273 0.047576226 -0.099485092 4289216324
-0.33336288 0.048575375 -0.10030229 4289084228
-0.33369419 0.049578115 -0.10112239 4289084995
-0.33402666 0.050584439 -0.10194539 4289083715
-0.33374926 0.05151017 -0.10171442 4289083966
-0.33367524 0.052463148 -0.10183506 4288951614
-0.33360124 0.053416215 -0.10195568 4288952123
-0.33352721 0.054369338 -0.10207631 4288623675
-0.33345315 0.055322513 -0.10219698 4288624696
-0.33337912 0.056275789 -0.10231764 4288754999
-0.33330509 0.057229117 -0.1024383 4288821561
-0.33323103 0.058182519 -0.10255899 4288689977
-0.33315697 0.059135996 -0.10267967 4288631904
-0.33308294 0.060089551 -0.10280036 4290818159
-0.33300886 0.061043162 -0.10292109 4291812041
-0.33334035 0.062071469 -0.1037481 4292205311
-0.33367303 0.06310346 -0.10457804 4292533247
-0.33400688 0.064139172 -0.10541092 4292729855
-0.33475283 0.065259412 -0.10696372 4292926463
-0.33550408 0.066387698 -0.10852761 4292860927
-0.33646953 0.067566961 -0.11046758 4292795135
-0.33786619 0.068845287 -0.11316347 4292729855
-0.34122449 0.07055489 -0.11929375 4292596989
-0.34224105 0.071783818 -0.12133304 4292530167
-0.34304553 0.072975002 -0.12300331 4292331504
-0.34385592 0.07417509 -0.12468591 4291935707
-0.35247213 0.0037572354 -0.12310585 4287669182
-0.35099477 0.0048547918 -0.12087541 4288849860
-0.34999305 0.0059145535 -0.11944467 4288980685
-0.34922713 0.0069547109 -0.11841032 4288652494
-0.3484655 0.0079891523 -0.11738173 4288588499
-0.34748232 0.0090277828 -0.11597709 4288850388
-0.3458367 0.010085369 -0.11344994 4288915154
-0.34465227 0.01111393 -0.11170017 4288915665
-0.34282506 0.01215376 -0.10885932 4288917724
-0.3416681 0.013161055 -0.10715077 4289114591
-0.34073493 0.014154383 -0.10581961 4289180897
-0.34002063 0.015136605 -0.10485806 4289705954
-0.33931017 0.01611365 -0.1039017 4289905140
-0.33881372 0.01708319 -0.10330769 4290628346
-0.33810961 0.01805081 -0.10235973 4290887664
-0.33761749 0.019012757 -0.10177104 4290823147
-0.33712703 0.019971345 -0.10118445 4290760697
-0.33663839 0.020926628 -0.10059999 4291482367
-0.33615145 0.021878596 -0.10001756 4291810815
-0.33546117 0.022824507 -0.099087551 4292007423
-0.33457103 0.023761947 -0.097815126 4292140031
-0.33449736 0.024710424 -0.0979352 4292074751
-0.33422062 0.025653757 -0.097708382 4292009215
-0.33496097 0.026625849 -0.099220075 4292337151
-0.33550107 0.027597914 -0.10039107 4292535039
-0.33583805 0.028567355 -0.10121551 4292601855
-0.33679751 0.029566508 -0.10310718 4292602367
-0.33713883 0.030545637 -0.1039416 4292798975
-0.33706412 0.031507265 -0.10406335 4292930303
-0.33657375 0.032446299 -0.10347176 4292996095
-0.33567256 0.033357844 -0.10217381 4293126655
-0.33477768 0.034263048 -0.10088498 4293192447
-0.3338891 0.035161942 -0.099605262 4293323519
-0.33260462 0.036026005 -0.097642615 4293389567
-0.33193079 0.03692608 -0.096728683 4293455103
-0.33165812 0.037853081 -0.096504584 4293521407
-0.33118737 0.03876197 -0.095938593 4293715967
-0.33071822 0.039667755 -0.095374517 4293782271
-0.33064526 0.040606696 -0.095493391 4293976317
-0.33057234 0.041545723 -0.095612258 4292916982
-0.33049935 0.042484835 -0.095731154 4289222358
-0.33082196 0.04346526 -0.096534029 4289281867
-0.33114564 0.044449162 -0.09733966 4289676107
-0.33147049 0.04543658 -0.098148152 4289610318
-0.33259934 0.046521299 -0.10035025 4289281613
-0.33252555 0.047470611 -0.10047044 4289281862
-0.33285511 0.048470482 -0.10129015 4289346630
-0.33298331 0.049447779 -0.10176132 4289347395
-0.33331451 0.050453927 -0.10258548 4289083971
-0.33303767 0.051379796 -0.10235398 4289084735
-0.33296365 0.052332826 -0.10247463 4289017919
-0.33288959 0.053285915 -0.1025953 4289017915
-0.33281553 0.054239061 -0.10271598 4288820795
-0.33274147 0.055192299 -0.10283665 4288821818
-0.33266741 0.05614562 -0.10295735 4288886585
-0.33259335 0.057098992 -0.10307804 4288887867
-0.33251926 0.058052432 -0.10319876 4288822076
-0.33244517 0.059005953 -0.10331947 4288836473
-0.33237109 0.059959535 -0.1034402 4291280273
-0.332297 0.060913175 -0.10356092 4292533462
-0.33282986 0.061978582 -0.10474373 4292598783
-0.33316192 0.063011341 -0.10557618 4292598783
-0.33349514 0.064047858 -0.10641161 4292860671
-0.33423987 0.065168791 -0.10796939 4293123071
-0.33540463 0.066381112 -0.11026566 4292926207
-0.33637226 0.067563549 -0.11221868 4292663295
-0.33756009 0.068801016 -0.11456081 4292466430
-0.34070235 0.070466623 -0.12034026 4292137980
-0.34171742 0.071696341 -0.12238627 4292136695
-0.34274182 0.072937459 -0.12445117 4292069104
-0.34355259 0.074139662 -0.12614232 4291738586
-0.35148033 0.0036311192 -0.12339175 4287013054
-0.35024077 0.0047143926 -0.121553 4288784580
-0.34924179 0.0057747322 -0.12011977 4288981454
-0.34870613 0.0068033324 -0.11947066 4289045967
-0.34794521 0.0078392103 -0.1184382 4289046484
-0.34673789 0.0088893855 -0.11664606 4289112533
-0.34531918 0.0099389441 -0.11449216 4289178323
-0.34391597 0.010977097 -0.11236186 4289178066
-0.34209406 0.012017975 -0.10951625 4289114845
-0.34094036 0.013025907 -0.10780476 4289376992
-0.34000978 0.014019774 -0.10647128 4289378274
-0.33929738 0.01500241 -0.10550801 4289837282
-0.33858883 0.015979838 -0.10454994 4289971188
-0.33809364 0.016949642 -0.1039548 4290759930
-0.3376002 0.017916087 -0.1033617 4291083503
-0.33710846 0.018879147 -0.10277074 4290691819
-0.33620462 0.019838631 -0.10147402 4290498041
-0.33571795 0.02079333 -0.10088955 4291023359
-0.33502823 0.021742942 -0.09995643 4291351807
-0.33454576 0.022690231 -0.099377222 4291613951
-0.33406505 0.023634249 -0.098800093 4291746047
-0.33399126 0.024583608 -0.098920316 4291943423
-0.33371469 0.025527904 -0.098692432 4292140287
-0.33425009 0.026494469 -0.099858955 4292337151
-0.33478832 0.027466215 -0.10103164 4292470015
-0.33512399 0.028435448 -0.10185724 4292602111
-0.3358734 0.029425427 -0.10339586 4292733183
-0.33621275 0.030403487 -0.10423003 4292864255
-0.33613807 0.031364288 -0.10435169 4292995839
-0.33585641 0.032313991 -0.10411647 4293061631
-0.33516318 0.033238005 -0.10317076 4293191935
-0.33426926 0.034144454 -0.10187729 4293192191
-0.33338168 0.035044611 -0.10059299 4293126399
-0.33209869 0.035910096 -0.098623462 4293191935
-0.33142558 0.036811281 -0.097706199 4293388799
-0.33095434 0.03772353 -0.097137116 4293455103
-0.33048478 0.038632665 -0.096570052 4293650175
-0.33001682 0.039538734 -0.096004911 4293717247
-0.32994384 0.040477719 -0.096123807 4293911807
-0.32987085 0.041416772 -0.096242718 4293117439
-0.32979786 0.042355902 -0.096361637 4290274014
-0.33011922 0.04333616 -0.097165637 4290134093
-0.33044165 0.044319861 -0.097972386 4289611598
-0.33076525 0.045307107 -0.09878201 4289611347
-0.33189034 0.046391167 -0.10098748 4289282130
-0.33221874 0.047389109 -0.10180812 4289217096
-0.33234635 0.04836541 -0.10227977 4289215816
-0.33247417 0.049343497 -0.10275227 4289216323
-0.33280477 0.050350375 -0.10357891 4289149507
-0.33252814 0.051277209 -0.10334641 4289150017
-0.332252 0.052202467 -0.10311428 4288952897
-0.33217791 0.053155605 -0.10323498 4288952891
-0.33210382 0.05410881 -0.10335568 4288886842
-0.33202973 0.055062093 -0.1034764 4288887612
-0.33195564 0.056015413 -0.1035971 4288887357
-0.33188152 0.056968838 -0.10371783 4288888129
-0.3318074 0.057922326 -0.10383858 4288954690
-0.33173332 0.058875874 -0.10395931 4288970415
-0.3316592 0.059829507 -0.10408007 4291216872
-0.33178648 0.060819399 -0.10455472 4292534006
-0.33211604 0.061848257 -0.10538534 4292599295
-0.33244678 0.062880844 -0.10621897 4292599039
-0.33298239 0.063956372 -0.10741413 4292794879
-0.33372599 0.065078042 -0.10897694 4293057023
-0.33530459 0.066374466 -0.11201312 4292925951
-0.33627433 0.067560121 -0.1139793 4292663036
-0.33746484 0.068800956 -0.11633737 4292465912
-0.34039661 0.070424676 -0.12177264 4292136694
-0.3414121 0.071656473 -0.12382904 4292136688
-0.34221569 0.072850578 -0.12551323 4292069349
-0.35049036 0.0035052295 -0.12367716 4286881701
-0.34925655 0.0045881369 -0.12183882 4288783273
-0.34849048 0.0056348969 -0.12079492 4288981453
-0.34795618 0.0066638133 -0.12014459 4289112274
-0.34719732 0.0077001033 -0.11911028 4289112018
-0.34621784 0.0087408386 -0.11769804 4289177554
-0.34480062 0.0097922292 -0.11553641 4289178323
-0.34339893 0.010832191 -0.11339846 4289179603
-0.34157911 0.011875059 -0.11054274 4289180896
-0.34042665 0.012884625 -0.10882516 4289377252
-0.33928454 0.01388515 -0.10712302 4289443814
-0.33857408 0.014868176 -0.10615801 4289837543
-0.33744842 0.015852887 -0.10447997 4289971188
-0.33695605 0.016821247 -0.10388598 4290825721
-0.3366732 0.017784519 -0.10365062 4291149045
-0.33618352 0.018747011 -0.10305972 4290624756
-0.33569559 0.019706154 -0.10247087 4290431482
-0.33520943 0.020661982 -0.1018842 4290957053
-0.3347249 0.021614492 -0.10129957 4291220222
-0.33403838 0.022561181 -0.10036621 4291483903
-0.33376101 0.023509655 -0.10013647 4291615487
-0.33348417 0.024456549 -0.099907197 4291943423
-0.33320782 0.025401814 -0.0996783 4292140287
-0.33374232 0.026368925 -0.10084848 4292337663
-0.33427966 0.027341247 -0.10202487 4292470527
-0.33440986 0.028303554 -0.10249905 4292667135
-0.33515674 0.029293124 -0.10403996 4292798207
-0.33528826 0.03026155 -0.10451806 4292864255
-0.33542004 0.031231819 -0.104997 4292996095
-0.33513898 0.032181632 -0.10476124 4293127679
-0.33444762 0.033106085 -0.10381383 4293257983
-0.33355621 0.034013018 -0.10251813 4293192191
-0.33267114 0.034913663 -0.1012316 4292994815
-0.33159184 0.035793975 -0.099606104 4293126143
-0.33072051 0.036681466 -0.098339871 4293323263
-0.33025053 0.037593968 -0.097769693 4293389055
-0.32978216 0.038503382 -0.097201549 4293650175
-0.32931536 0.039409693 -0.096635357 4293717503
-0.32924235 0.040348705 -0.096754275 4293912575
-0.32916936 0.04128781 -0.096873209 4293384447
-0.32909632 0.042226993 -0.09699218 4291132126
-0.32961348 0.043227509 -0.098141238 4290855245
-0.32993534 0.044211928 -0.098950475 4289611341
-0.33045694 0.045222167 -0.1001097 4289546834
-0.33178341 0.046331134 -0.10267765 4289216849
-0.33211246 0.047331635 -0.10350345 4289217864
-0.33203828 0.048285283 -0.10362425 4289019208
-0.33216605 0.049265075 -0.1040988 4289019972
-0.33249664 0.050273646 -0.10492933 4289215044
-0.3320176 0.051174421 -0.10434061 4289215552
-0.33174166 0.052100644 -0.10410747 4288952896
-0.33146614 0.053025287 -0.10387471 4288887867
-0.33139202 0.053978536 -0.10399544 4288952635
-0.3313179 0.054931846 -0.10411618 4288953405
-0.33124378 0.055885207 -0.10423693 4288887357
-0.33116966 0.056838665 -0.10435769 4288888642
-0.33109552 0.057792202 -0.10447846 4289154884
-0.33102137 0.058745779 -0.10459923 4289308339
-0.33114809 0.059734706 -0.10507435 4291352812
-0.33127502 0.060725413 -0.10555027 4292533751
-0.33160394 0.061755069 -0.10638347 4292599295
-0.33213681 0.062826619 -0.10757803 4292598783
-0.33287668 0.06394323 -0.10914 4292598015
-0.33382779 0.065108381 -0.11107758 4292663295
-0.33520398 0.06636779 -0.11377008 4292597759
-0.33617583 0.067556642 -0.11574952 4292531709
-0.33736902 0.068800882 -0.11812367 4292334328
-0.33987212 0.070336014 -0.12282443 4291939830
-0.34066707 0.071520843 -0.12449873 4292070896
-0.34146783 0.072714493 -0.12618543 4292461799
-0.34896243 0.004419304 -0.12330157 4288388772
-0.34796724 0.0054818098 -0.12186056 4288653517
-0.34743336 0.006511996 -0.12120761 4288915667
-0.34667519 0.0075497217 -0.12016944 4288980945
-0.34592122 0.0085817538 -0.119137 4289242833
-0.34428108 0.0096452348 -0.11658262 4289309651
-0.3431004 0.010678731 -0.11481383 4289180115
-0.33998781 0.011767886 -0.10972392 4289115361
-0.33884662 0.012774328 -0.1080162 4289573861
-0.33792597 0.013766508 -0.10668554 4289705703
-0.33743057 0.014742835 -0.106085 4290033896
-0.33693692 0.015715735 -0.10548657 4290102516
-0.336445 0.016685227 -0.10489027 4290956793
-0.33595487 0.017651353 -0.10429616 4291281655
-0.33567312 0.018613171 -0.10406066 4290297334
-0.33539188 0.019573312 -0.10382563 4289905146
-0.3349053 0.020531096 -0.10323548 4290693628
-0.33442047 0.021485576 -0.1026475 4291154686
-0.33373347 0.02243433 -0.10170892 4291484159
-0.33345589 0.023384614 -0.10147767 4291746815
-0.33317882 0.024333317 -0.1012468 4291943423
-0.33269995 0.025275519 -0.10066593 4292141311
-0.33323357 0.026243171 -0.10183978 4292338943
-0.33356613 0.027209405 -0.10266614 4292536063
-0.33369568 0.028171651 -0.10314091 4292666879
-0.33423474 0.029152382 -0.1043276 4292732415
-0.33457085 0.030129135 -0.10516283 4292798975
-0.33449617 0.031089187 -0.10528444 4292930559
-0.33442152 0.032049295 -0.10540606 4292996863
-0.33373201 0.03297412 -0.10445699 4293061631
-0.3330462 0.033894107 -0.10351295 4293126399
-0.33216205 0.034796014 -0.10222176 4293125887
-0.33088428 0.035663635 -0.10024203 4293191935
-0.33001542 0.036551617 -0.098973572 4293257471
-0.32974413 0.037479877 -0.098747462 4293323263
-0.3292762 0.038390309 -0.098177098 4293387519
-0.32861385 0.039280642 -0.097265854 4293454335
-0.3285408 0.040219709 -0.097384803 4293650943
-0.32846776 0.041158833 -0.097503781 4293320447
-0.32839471 0.042098045 -0.097622752 4291794403
-0.32891002 0.043098267 -0.098773509 4291379276
-0.32942802 0.044103794 -0.099930272 4289217612
-0.32994869 0.045114651 -0.10109313 4289284432
-0.33147433 0.04624733 -0.10402284 4289347920
-0.33180338 0.04724953 -0.10485245 4289348936
-0.33172905 0.048204888 -0.10497349 4289215816
-0.33165476 0.049160339 -0.10509452 4289217093
-0.3317824 0.05014275 -0.10557128 4289280837
-0.33130461 0.051043782 -0.10498146 4289281343
-0.33102924 0.051970169 -0.1047478 4288952638
-0.33075434 0.052894946 -0.1045145 4288887868
-0.33068019 0.053848252 -0.10463525 4288952892
-0.33060604 0.054801587 -0.10475602 4288953662
-0.3305319 0.055755004 -0.10487679 4289018942
-0.33045772 0.056708511 -0.1049976 4289020487
-0.33038354 0.057662044 -0.10511839 4289428298
-0.33030939 0.058615696 -0.10523919 4289641659
-0.33043543 0.059604537 -0.1057149 4291352575
-0.3305617 0.060595173 -0.10619143 4292533503
-0.33088934 0.061624628 -0.10702579 4292598527
-0.33162281 0.062733978 -0.10858166 4292598271
-0.33256575 0.063890621 -0.1105116 4292663295
-0.33331108 0.065017141 -0.11209247 4292662527
-0.33510271 0.066361047 -0.11553657 4292598271
-0.33607674 0.067553155 -0.11752941 4292532479
-0.33705962 0.068756163 -0.11954038 4292334334
-0.33912978 0.070200838 -0.1234917 4291939836
-0.33992192 0.071385197 -0.1251685 4292070389
-0.34071991 0.0725784 -0.12685771 4292460009
-0.3474429 0.0053284252 -0.12292819 4288587972
-0.34668255 0.0063722851 -0.12188231 4288850124
-0.34547657 0.0074332184 -0.12006772 4288915409
-0.34405953 0.0084947301 -0.11788706 4289243091
-0.34265798 0.0095446641 -0.11573039 4289309653
-0.34083852 0.01059979 -0.11284998 4289179606
-0.3394722 0.011625135 -0.11074793 4289115105
-0.33812061 0.01263953 -0.10866863 4289639396
-0.33741263 0.013626775 -0.1076987 4289770985
-0.33670843 0.01460884 -0.10673398 4290100203
-0.33642444 0.015578325 -0.10649502 4290168568
-0.3357254 0.016551787 -0.10553698 4290956541
-0.33544332 0.017516229 -0.10530005 4291281916
-0.33516175 0.018479049 -0.10506351 4290230524
-0.33488065 0.019440215 -0.10482736 4289706997
-0.33460006 0.02039976 -0.10459169 4290561265
-0.33411485 0.021356191 -0.10400022 4291088890
-0.3336314 0.022309326 -0.10341091 4291549695
-0.33314964 0.023259146 -0.10282365 4291812351
-0.33287227 0.024209656 -0.10259118 4292009215
-0.33239311 0.025153765 -0.10200698 4292141823
-0.33272383 0.026117187 -0.10283287 4292404479
-0.33305576 0.027084103 -0.10366175 4292601087
-0.33298141 0.028039727 -0.10378283 4292666879
-0.33351856 0.029020136 -0.10497126 4292667391
-0.3336485 0.02998757 -0.10544989 4292798719
-0.33357388 0.030946793 -0.10557143 4292930047
-0.33370394 0.031916942 -0.10605096 4292930815
-0.33301634 0.032842144 -0.10510019 4292930047
-0.33253518 0.033774968 -0.1045095 4293060863
-0.33165205 0.034678113 -0.10321374 4293257215
-0.33057529 0.035561044 -0.10157676 4293257727
-0.32950792 0.036436349 -0.099954098 4293191679
-0.32903954 0.037350178 -0.099380717 4293191935
-0.32857281 0.038260855 -0.09880928 4293190911
-0.32810768 0.039168477 -0.098239847 4293256447
-0.3278392 0.040090665 -0.098015405 4293387775
-0.32776612 0.041029844 -0.098134391 4293254399
-0.32788825 0.041988451 -0.098597154 4292509667
-0.32840267 0.042989288 -0.099751487 4292034379
-0.32872263 0.043974228 -0.10056428 4288693068
-0.32943955 0.045006938 -0.10207834 4288760150
-0.33076206 0.046116613 -0.10466304 4289611093
-0.33129132 0.047142826 -0.1058498 4289611601
-0.3312169 0.048099082 -0.10597097 4289544784
-0.33114251 0.049055405 -0.10609213 4289546058
-0.33126974 0.050038606 -0.10657017 4289412170
-0.3307924 0.050940707 -0.1059781 4289412930
-0.33031675 0.051839653 -0.10538817 4289018432
-0.33004245 0.052764624 -0.10515435 4288953405
-0.32996827 0.053717926 -0.10527513 4289018428
-0.3298941 0.05467131 -0.10539594 4289019199
-0.32981992 0.055624783 -0.10551674 4289281343
-0.32974571 0.05657832 -0.10563755 4289416274
-0.3296715 0.057531904 -0.10575838 4290676312
-0.32959732 0.058485579 -0.10587921 4291348160
-0.32992268 0.05950943 -0.10671157 4292008959
-0.33004853 0.060500883 -0.10718942 4292533247
-0.33057681 0.061568148 -0.10838515 4292729599
-0.33131042 0.062679321 -0.10994865 4292860159
-0.33225363 0.063837819 -0.11188815 4292728831
-0.33320522 0.06500677 -0.11384499 4292596991
-0.33500084 0.06635426 -0.1173127 4292532479
-0.33597702 0.067549638 -0.11931906 4292401407
-0.3369621 0.068755969 -0.1213437 4292334334
-0.33838734 0.070065662 -0.12415904 4292071676
-0.33917674 0.071249537 -0.12583832 4292007413
-0.33997196 0.072442271 -0.12753004 4291673324
-0.34623614 0.0052153105 -0.12282076 4288456897
-0.34570593 0.0062451106 -0.12216677 4288784585
-0.34495324 0.0072827032 -0.12112691 4288850897
-0.34353772 0.008346078 -0.11893845 4289177811
-0.34235716 0.0093883704 -0.11715399 4289244630
-0.34010461 0.010463401 -0.11350951 4289310679
-0.33874226 0.01148957 -0.11140392 4289311457
-0.3373946 0.012504691 -0.10932109 4289704676
-0.33668852 0.013492384 -0.10834944 4289837802
-0.33619478 0.014470124 -0.10774539 4290166252
-0.33570287 0.015444461 -0.1071435 4290364410
-0.33521268 0.016415404 -0.10654385 4290628607
-0.33493075 0.017380886 -0.10630575 4290754047
-0.33444327 0.018345913 -0.10570917 4289572863
-0.33436847 0.019306898 -0.10583097 4288916211
-0.33388281 0.020266935 -0.10523628 4289969132
-0.33360335 0.021224981 -0.10500049 4290564344
-0.33312029 0.022179207 -0.10440888 4291418367
-0.33263895 0.023130156 -0.10381934 4292009471
-0.33236179 0.02408167 -0.10358588 4292206335
-0.33208507 0.025031563 -0.10335278 4292404223
-0.33221319 0.025990963 -0.10382784 4292600575
-0.33234146 0.026952116 -0.1043037 4292797439
-0.33226708 0.027907765 -0.1044248 4292798463
-0.33259875 0.028879739 -0.10525802 4292798463
-0.3327277 0.029846245 -0.10573643 4292863487
-0.33265311 0.030804669 -0.10585789 4292994815
-0.33298633 0.031784579 -0.1066959 4292996095
-0.33230063 0.032710187 -0.10574344 4293060863
-0.33182067 0.033643264 -0.10515165 4293060863
-0.33114105 0.034559991 -0.1042075 4293191935
-0.3302651 0.035458107 -0.10291626 4293192447
-0.32899946 0.036320906 -0.10093641 4293191679
-0.32872853 0.03725107 -0.10070819 4293192191
-0.32806525 0.038147472 -0.099787205 4293191423
-0.3276006 0.039056107 -0.099215657 4293190655
-0.3271375 0.03996164 -0.098646045 4293123583
-0.32706439 0.040900841 -0.098765075 4293053951
-0.3271859 0.041859359 -0.099228404 4292305896
-0.32769844 0.042859912 -0.10038442 4292041034
-0.32801715 0.043844681 -0.10119834 4289020491
-0.3287316 0.044876959 -0.10271464 4289023583
-0.33004966 0.045985885 -0.10530332 4289547615
-0.33057702 0.047011774 -0.1064918 4289546594
-0.33050257 0.047968086 -0.106613 4289481570
-0.33042815 0.048924457 -0.10673418 4289481046
-0.33055472 0.049907569 -0.10721282 4289412949
-0.3300786 0.05080992 -0.10661965 4289413193
-0.32980403 0.051737376 -0.10638438 4289084487
-0.3293305 0.052634258 -0.10579426 4289019712
-0.32925627 0.053587612 -0.10591508 4289083966
-0.32918209 0.054541055 -0.1060359 4289085763
-0.32910785 0.055494547 -0.10615674 4289347909
-0.32903364 0.056448109 -0.10627757 4289483920
-0.32895941 0.057401747 -0.10639843 4290750904
-0.3288852 0.058355469 -0.10651929 4291484386
-0.32920924 0.059379116 -0.10735282 4292008191
-0.32953447 0.060406439 -0.10818928 4292532479
-0.33006173 0.061474454 -0.10938872 4292664063
-0.33119991 0.062662683 -0.11168452 4292860415
-0.33235025 0.063863732 -0.11400499 4292729087
-0.33330575 0.065037042 -0.11597846 4292597503
-0.33489832 0.06634745 -0.11909854 4292531967
-0.33587667 0.067546055 -0.12111851 4292400127
-0.3366504 0.068710938 -0.12277289 4292334334
-0.33764485 0.069930457 -0.12482645 4292071674
-0.3386485 0.071161285 -0.12689894 4292007146
-0.33922392 0.072306149 -0.12820244 4291536612
-0.34571058 0.0050617903 -0.12388847 4288390588
-0.34518081 0.006092892 -0.12323186 4288718533
-0.34442884 0.0071318932 -0.12218813 4288785618
-0.34345859 0.0081758499 -0.12076335 4289178581
-0.34205517 0.0092314836 -0.11858294 4289245146
-0.33980122 0.010309957 -0.11491882 4289375963
-0.338438 0.011338842 -0.11280181 4289376997
-0.33687881 0.012363274 -0.1103403 4289704935
-0.33617344 0.013352255 -0.10936506 4289838321
-0.33547187 0.014335982 -0.10839506 4290231797
-0.33518875 0.015306655 -0.10815452 4290429430
-0.3344923 0.016281789 -0.10719125 4290491638
-0.33421099 0.017247446 -0.1069526 4290487481
-0.33393019 0.018211434 -0.10671447 4289168802
-0.3336499 0.019173771 -0.10647672 4288515753
-0.33337009 0.020134483 -0.1062394 4289567406
-0.33309078 0.021093544 -0.10600255 4290231757
-0.33260819 0.022048883 -0.10540865 4291352293
-0.33212733 0.023000926 -0.10481691 4292074995
-0.33185032 0.023953445 -0.10458234 4292338175
-0.33157381 0.024904316 -0.10434823 4292601087
-0.33149946 0.025859054 -0.10446926 4292797695
-0.3316271 0.026820119 -0.1049457 4292929279
-0.3313508 0.027768686 -0.1047113 4292930303
-0.33168051 0.028739605 -0.10554431 4292864255
-0.33160603 0.029696299 -0.10566558 4292929023
-0.33153152 0.030653054 -0.10578685 4293060607
-0.33206519 0.031641595 -0.10698178 4293061631
-0.33158481 0.032578181 -0.10638677 4293126143
-0.3311061 0.033511546 -0.10579386 4293126399
-0.33042833 0.034428675 -0.10484805 4293126655
-0.32975414 0.035341013 -0.10390724 4293127423
-0.32868752 0.036219664 -0.10227015 4293126143
-0.32821929 0.037136342 -0.10169127 4293126399
-0.32755676 0.03803388 -0.10076693 4293125631
-0.32709253 0.038943525 -0.10019316 4293059839
-0.3268244 0.039867617 -0.099966675 4292794623
-0.32675114 0.040808506 -0.10008594 4292724223
-0.32667786 0.04174944 -0.10020522 4291988207
-0.32718948 0.042750601 -0.10136481 4291792515
-0.3275075 0.043736089 -0.10218116 4289686398
-0.32822078 0.044768918 -0.1037023 4289682060
-0.32933724 0.045855138 -0.10594366 4289358727
-0.32986265 0.046880707 -0.10713385 4289351811
-0.32978821 0.047837041 -0.10725507 4289355903
-0.32971376 0.048793469 -0.10737628 4289351796
-0.32963926 0.049749956 -0.10749753 4289352047
-0.32936478 0.050679121 -0.10726124 4289349731
-0.3290908 0.051606748 -0.10702544 4289219420
-0.32881728 0.052532792 -0.10679007 4289154643
-0.32874298 0.05348704 -0.10691103 4289481298
-0.32866868 0.054441337 -0.10703199 4289551186
-0.32859439 0.05539573 -0.10715295 4290007375
-0.32852006 0.056350172 -0.10727393 4290223511
-0.32864457 0.057337839 -0.10775189 4291875258
-0.32857016 0.058293272 -0.107873 4292991969
-0.32889423 0.059318673 -0.1087104 4292729343
-0.32941979 0.06038373 -0.10991124 4292532479
-0.32994816 0.061454579 -0.1111185 4292598527
-0.33108872 0.062645912 -0.11342973 4292664063
-0.33244753 0.063889824 -0.11613714 4292664063
-0.33319905 0.065026626 -0.11775265 4292728575
-0.33500597 0.066382967 -0.12127443 4292597759
-0.33577576 0.067542471 -0.1229279 4292268799
-0.33655119 0.068710566 -0.12459347 4292267774
-0.33711711 0.069841221 -0.12588227 4292201466
-0.33790249 0.071025468 -0.12756951 4292000487
-0.33847579 0.072170019 -0.1288749 4290552035
-0.34518394 0.0049079712 -0.12495819 4287076793
-0.34465465 0.0059403442 -0.12429903 4288455619
-0.34390339 0.0069807912 -0.12325137 4288719315
-0.34315634 0.0080155199 -0.12220956 4289047766
-0.34197205 0.0090642124 -0.12040193 4289114332
-0.33949667 0.010155912 -0.11633331 4289310173
-0.33791941 0.011195274 -0.11383157 4289377254
-0.33657247 0.012214842 -0.11173002 4289836265
-0.33565742 0.013211858 -0.1103826 4290034934
-0.33495659 0.014196876 -0.10940897 4290231546
-0.33446637 0.015172674 -0.1088037 4290294004
-0.33397788 0.016145021 -0.10820054 4289044721
-0.33349112 0.017113987 -0.10759953 4288509587
-0.33321095 0.01807812 -0.10736085 4287911778
-0.33293128 0.019040633 -0.10712256 4287587191
-0.33265206 0.020001486 -0.10688468 4287788675
-0.33237335 0.020960717 -0.10664729 4287925937
-0.33189201 0.021916347 -0.10605226 4289051856
-0.3314124 0.022868644 -0.10545942 4289975786
-0.33113596 0.023821304 -0.10522432 4291419903
-0.33086008 0.024772374 -0.10498967 4292601855
-0.33058462 0.025721787 -0.1047554 4292798719
-0.33071133 0.026681958 -0.10523178 4292929791
-0.33043602 0.027629839 -0.1049973 4292930815
-0.33056256 0.028591812 -0.10547391 4292930559
-0.33068934 0.029555578 -0.10595129 4292929535
-0.33061486 0.030511534 -0.1060725 4292995583
-0.33114561 0.031498853 -0.10726713 4292996095
-0.33066726 0.032434914 -0.10667224 4292995327
-0.33059272 0.033391926 -0.10679356 4293061375
-0.32991564 0.034310229 -0.10584425 4293126911
-0.3292422 0.035223741 -0.1049 4293127167
-0.32817689 0.036103699 -0.10325719 4293125887
-0.32790589 0.037036568 -0.10302642 4293125887
-0.32724297 0.037935957 -0.10209699 4292993535
-0.32697377 0.038864125 -0.10186806 4292927743
-0.3265101 0.039773222 -0.10129193 4292662527
-0.32643667 0.040715799 -0.10141142 4292596735
-0.32655802 0.041677579 -0.10187878 4292138239
-0.32687491 0.042661123 -0.10269605 4292061439
-0.32719293 0.043648202 -0.10351621 4290566655
-0.32770902 0.044660706 -0.10469168 4290476543
-0.32862476 0.045724358 -0.10658402 4290429951
-0.32914826 0.046749663 -0.10777595 4290211815
-0.32907376 0.047706015 -0.10789721 4290161638
-0.32899925 0.048662469 -0.10801847 4290014689
-0.32912451 0.049645454 -0.1084983 4289895392
-0.32885024 0.050575595 -0.10826101 4289881297
-0.32857642 0.051504146 -0.10802408 4289566670
-0.3283031 0.052431155 -0.10778765 4289490905
-0.32822871 0.053386264 -0.10790874 4289632732
-0.32815433 0.054341465 -0.10802984 4289691620
-0.32807991 0.055296715 -0.10815095 4290094311
-0.32800549 0.056252055 -0.10827207 4290234614
-0.32812962 0.057240564 -0.10875134 4291876863
-0.32805511 0.058196861 -0.10887258 4292993022
-0.328578 0.059257999 -0.11007287 4292795135
-0.32930443 0.060360916 -0.11164244 4292532223
-0.32983387 0.061434586 -0.11285757 4292598271
-0.33118114 0.062667534 -0.11555409 4292663807
-0.33275262 0.06395603 -0.11865988 4292664319
-0.33350867 0.065098256 -0.12029191 4292728830
-0.3351143 0.066418722 -0.12346629 4292597501
-0.33588728 0.067582659 -0.12513387 4292267773
-0.33645135 0.068710178 -0.12642418 4292267258
-0.33680323 0.069797873 -0.12733044 4292265459
-0.34367877 0.0058134128 -0.12458165 4288257700
-0.34315369 0.0068413424 -0.12392509 4288653253
-0.34218717 0.0078874482 -0.12249261 4288981451
-0.34100842 0.0089358222 -0.12068538 4289048796
-0.33897519 0.010010173 -0.11737389 4289310432
-0.33761272 0.011043576 -0.11523778 4289377510
-0.33605444 0.012072721 -0.1127543 4289968103
-0.33514041 0.013071203 -0.11140199 4290166253
-0.33444029 0.014057529 -0.11042485 4290227695
-0.33395049 0.015034479 -0.10981717 4290224056
-0.33325672 0.016011288 -0.10884864 4287984799
-0.33297622 0.016978094 -0.10860842 4286923880
-0.3326962 0.017943261 -0.10836858 4286856781
-0.33221257 0.018907474 -0.10776845 4286859355
-0.33193398 0.019868502 -0.10753003 4286272867
-0.33165589 0.020827876 -0.10729209 4285883521
-0.33137828 0.021785637 -0.10705458 4287137433
-0.33089909 0.022739064 -0.10645942 4288067512
-0.33042157 0.023689177 -0.10586635 4290496976
-0.33014628 0.024640387 -0.10563117 4292598503
-0.3300719 0.025595179 -0.10575224 4292798975
-0.3301982 0.02655611 -0.10622989 4292995327
-0.32992306 0.027504986 -0.10599443 4292996351
-0.33004922 0.028467754 -0.10647231 4292996095
-0.32997477 0.02942368 -0.1065935 4292995583
-0.32990026 0.030379662 -0.10671473 4292930047
-0.33022764 0.031356346 -0.10755213 4292930303
-0.33015302 0.03231417 -0.10767357 4292864255
-0.32987741 0.033260066 -0.10743646 4292930559
-0.32940206 0.03419153 -0.10684232 4293126399
-0.32892841 0.035119802 -0.10625026 4293126655
-0.32786253 0.036001809 -0.10459864 4293124863
-0.32759133 0.036936436 -0.10436632 4293059839
-0.32712415 0.037853595 -0.1037828 4292796415
-0.32665858 0.038767606 -0.10320135 4292729087
-0.32638961 0.039695967 -0.10297126 4292401151
-0.32612109 0.040622756 -0.10274164 4292402943
-0.32624233 0.041586187 -0.10321096 4292532991
-0.32655919 0.042571351 -0.10403205 4292600319
-0.32687721 0.043560024 -0.10485604 4293189375
-0.32739332 0.044574097 -0.10603712 4293192959
-0.32830921 0.045639291 -0.10793873 4294036479
-0.3286331 0.046642371 -0.10877693 4294044651
-0.3285585 0.047599621 -0.10889832 4293639145
-0.32848391 0.048556972 -0.10901971 4293583844
-0.32860884 0.049540766 -0.10950094 4293571811
-0.32833469 0.050471839 -0.10926254 4293578964
-0.3280611 0.051401358 -0.10902461 4292916689
-0.32798654 0.052358124 -0.10914593 4292725722
-0.32771346 0.053285304 -0.10890827 4292787420
-0.32783744 0.054271877 -0.10938861 4292791524
-0.32776287 0.05522887 -0.10950996 4292594407
-0.32768831 0.056185931 -0.10963131 4292532213
-0.3280113 0.057209343 -0.11047335 4292927999
-0.32793659 0.05816824 -0.11059494 4293255423
-0.32846051 0.059232142 -0.11180298 4292926207
-0.32918841 0.060337961 -0.11338296 4292663295
-0.32971892 0.061414473 -0.11460602 4292532479
-0.33106908 0.062650666 -0.11732087 4292466687
-0.33264396 0.063942567 -0.12044789 4292401407
-0.33382097 0.065170474 -0.12285431 4292400638
-0.33501089 0.06641195 -0.12528719 4292333821
-0.335572 0.067535199 -0.12657672 4292136444
-0.33613619 0.068664715 -0.12787339 4292005112
-0.33670351 0.069800533 -0.12917724 4291216112
-0.34240395 0.006701882 -0.12459885 4287997113
-0.34144017 0.0077485312 -0.1231639 4288587715
-0.34026483 0.0087975953 -0.12135362 4288720092
-0.33823767 0.0098731397 -0.11803667 4289244643
-0.33687919 0.010907311 -0.11589698 4289377253
-0.33553541 0.01193036 -0.11378051 4289771750
-0.33462235 0.012930277 -0.11242329 4289900262
-0.3341305 0.013912726 -0.11180989 4288781030
-0.33343366 0.01489602 -0.11083251 4288378756
-0.33294612 0.015870705 -0.11022477 4287382871
-0.33246028 0.016841969 -0.10961914 4286854210
-0.33197618 0.017809834 -0.10901566 4286920247
-0.33169729 0.018773511 -0.10877578 4286922047
-0.33141887 0.019735539 -0.1085363 4286660419
-0.33093834 0.020695051 -0.10793694 4286532433
-0.33045948 0.021651223 -0.10733969 4286929243
-0.32998234 0.022604071 -0.10674462 4287199868
-0.32970712 0.023557041 -0.10650845 4288520346
-0.3294324 0.024508417 -0.10627275 4289640141
-0.32935798 0.025463231 -0.10639384 4290893311
-0.32928354 0.026418157 -0.10651496 4292405247
-0.32920912 0.027373118 -0.10663608 4292668415
-0.32933465 0.028335797 -0.10711452 4292930303
-0.32926011 0.029291773 -0.10723577 4292929535
-0.32918561 0.030247806 -0.10735703 4292929791
-0.32951167 0.031224282 -0.10819559 4292929535
-0.32963774 0.032193221 -0.10867675 4292863487
-0.32936233 0.033140086 -0.10843857 4292929535
-0.32888746 0.034072641 -0.10784215 4293059839
-0.32861343 0.035015482 -0.10760536 4293060095
-0.32774472 0.035913788 -0.10629994 4292991999
-0.32747287 0.036851007 -0.10606556 4292928511
-0.32700464 0.037770785 -0.10547754 4292731135
-0.32673413 0.038704026 -0.1052445 4292664063
-0.3262684 0.039618287 -0.10465949 4292467967
-0.32619455 0.040565863 -0.10477965 4292468735
-0.32631627 0.041532643 -0.10525249 4292598783
-0.32663435 0.04252122 -0.10608006 4292600575
-0.32675675 0.043492414 -0.10655527 4293190655
-0.32707644 0.044487167 -0.10738732 4293192703
-0.32799253 0.045553923 -0.10929831 4293979903
-0.32831642 0.046558645 -0.11014046 4294045439
-0.3280423 0.047493033 -0.10990132 4293651199
-0.3281669 0.048476715 -0.11038373 4293585663
-0.32809213 0.049435865 -0.11050539 4293585151
-0.32781821 0.050367922 -0.11026594 4293582335
-0.32754475 0.051298372 -0.1100269 4292927743
-0.32747012 0.052256033 -0.11014835 4292729598
-0.32739547 0.053213757 -0.11026983 4292795646
-0.32732081 0.054171562 -0.1103913 4292794877
-0.32724613 0.055129424 -0.1105128 4292663037
-0.3273699 0.056119584 -0.11099543 4292599806
-0.32769287 0.057144713 -0.11184135 4292927743
-0.32781732 0.05813941 -0.1123265 4293254655
-0.32834226 0.059206132 -0.11354239 4292991999
-0.32907173 0.060314883 -0.11513282 4292663551
-0.32980636 0.061431602 -0.11673467 4292598015
-0.33116192 0.062672414 -0.11947277 4292400895
-0.33253467 0.063929021 -0.12224568 4292334847
-0.33392498 0.065201789 -0.12505403 4292267518
-0.33469427 0.066362351 -0.12672904 4292201978
-0.33546916 0.067531511 -0.12841633 4292069874
-0.33603463 0.068664171 -0.1297217 4291938772
-0.34143272 0.006574594 -0.12488057 4287405998
-0.34069309 0.0076096263 -0.12383527 4288259512
-0.33952117 0.00865936 -0.12202191 4288457167
-0.3375001 0.009736089 -0.11869952 4289112534
-0.33635756 0.010762919 -0.11693256 4289311196
-0.33522534 0.011780569 -0.11518164 4289572063
-0.33431172 0.012782884 -0.11381695 4289632953
-0.33381951 0.013767391 -0.11319999 4287526570
-0.33312225 0.014752865 -0.11221717 4286531433
-0.33263433 0.015729578 -0.11160582 4286657355
-0.33214819 0.016702887 -0.11099671 4286723645
-0.33166373 0.017672775 -0.11038975 4286920502
-0.33118099 0.018639266 -0.10978493 4287051325
-0.33070001 0.01960241 -0.10918234 4287182913
-0.3302207 0.020562179 -0.10858187 4287314504
-0.32974309 0.021518644 -0.1079835 4286662222
-0.3292672 0.022471778 -0.10738733 4286140516
-0.32879296 0.0234216 -0.10679322 4285687672
-0.32851923 0.024372278 -0.10655744 4285237153
-0.32844484 0.025326302 -0.10667846 4288194247
-0.32856956 0.026286224 -0.10715662 4291482075
-0.32829604 0.027234582 -0.10692053 4292077302
-0.32842064 0.028196335 -0.10739892 4292797946
-0.32834613 0.02915149 -0.1075201 4292863231
-0.32827166 0.030106703 -0.10764128 4292994303
-0.32859579 0.031082118 -0.10847961 4292928255
-0.32872093 0.032050095 -0.10896063 4292797183
-0.32884628 0.033019882 -0.1094425 4292862719
-0.32837191 0.033953503 -0.10884386 4292927743
-0.32829726 0.034910783 -0.10896529 4292861439
-0.32762617 0.035825312 -0.10801032 4292532991
-0.32735372 0.036765113 -0.10777385 4292534527
-0.32688442 0.037687495 -0.10718129 4292469247
-0.32661328 0.038623352 -0.10694619 4292469503
-0.32634264 0.039557599 -0.10671148 4292664575
-0.32626846 0.040508583 -0.10683212 4292665855
-0.32619432 0.041459594 -0.10695277 4292730111
-0.32651299 0.042450681 -0.10778553 4292732159
-0.3264387 0.043403547 -0.10790639 4293190655
-0.32675838 0.044399954 -0.10874237 4293192447
-0.3272773 0.045422666 -0.10994115 4293717759
