# .PCD v0.7 - Point Cloud Data file format
VERSION 0.7
FIELDS x y z rgba
SIZE 4 4 4 4
TYPE F F F U
COUNT 1 1 1 1
WIDTH 1004
HEIGHT 1
VIEWPOINT 0 0 0 1 0 0 0
POINTS 1004
DATA ascii
-0.3591978 0.0067204298 -0.10385417 4289706465
-0.35798758 0.0075501017 -0.10199193 4289902564
-0.35678846 0.0083722621 -0.1001467 4289903583
-0.35606527 0.0092606414 -0.099042922 4290032606
-0.35534599 0.010144251 -0.097945198 4290032596
-0.35486123 0.011061438 -0.097212777 4289770194
-0.35414851 0.011936259 -0.096125036 4289634494
-0.35412621 0.012925966 -0.096113294 4288313785
-0.35387465 0.013874914 -0.095744185 4287909210
-0.35362357 0.014822202 -0.095375814 4286918714
-0.35337293 0.015767867 -0.095008038 4286590253
-0.35289523 0.016668685 -0.094286241 4286589480
-0.35196707 0.017478725 -0.092862025 4286590251
-0.35082176 0.018238723 -0.091099024 4286655532
-0.34968668 0.01899207 -0.089351825 4286721581
-0.34856164 0.019738747 -0.087620065 4286853166
-0.34788272 0.020570293 -0.086583793 4286985267
-0.34720737 0.021397524 -0.085553013 4287248182
-0.3467519 0.022267431 -0.084865034 4287450704
-0.34651393 0.023182154 -0.084516272 4288183903
-0.34627634 0.024095351 -0.084168084 4288649135
-0.34625468 0.025056399 -0.084156677 4290297573
-0.34644887 0.026067842 -0.084482044 4291485940
-0.34664339 0.027081145 -0.084807932 4292471807
-0.34662169 0.028044093 -0.084796511 4293390591
-0.34703347 0.029113311 -0.08546149 4293389311
-0.347229 0.030132201 -0.085789107 4293387007
-0.34742492 0.031152964 -0.08611735 4293058303
-0.34740314 0.032119583 -0.086105891 4292667391
-0.34738135 0.033086292 -0.086094424 4292996351
-0.34714192 0.033995442 -0.085743293 4293454591
-0.34668612 0.034844816 -0.08505436 4293521151
-0.346448 0.035750166 -0.084705107 4293651199
-0.34577939 0.036534786 -0.083683811 4293717247
-0.34532839 0.037375428 -0.083002143 4293849343
-0.34509268 0.038273994 -0.082656525 4293915647
-0.34507108 0.03923269 -0.082645141 4294046719
-0.34504947 0.040191472 -0.082633771 4293981695
-0.34502786 0.041150309 -0.082622401 4293849343
-0.34522024 0.042173516 -0.082945235 4293849855
-0.345413 0.043198586 -0.083268642 4293717759
-0.34560606 0.04422551 -0.083592601 4293783295
-0.34579945 0.045254331 -0.083917111 4294044927
-0.34577775 0.046216898 -0.083905697 4294046463
-0.34597149 0.047248505 -0.084230825 4293913087
-0.34594977 0.04821207 -0.084219389 4293912575
-0.34592804 0.049175691 -0.084207967 4293308415
-0.34633818 0.050282806 -0.08487124 4293309794
-0.34653294 0.05132103 -0.085198097 4289613922
-0.34694526 0.052435014 -0.085864924 4289366877
-0.347359 0.053553022 -0.086534068 4292446562
-0.34799337 0.054751325 -0.087548099 4292922337
-0.34863111 0.055956114 -0.088567525 4292137976
-0.34927228 0.057167433 -0.089592434 4291941101
-0.35013995 0.058465589 -0.09097147 4291940073
-0.35078922 0.059691411 -0.092009284 4291940843
-0.35166782 0.061007023 -0.093405716 4291742955
-0.35232535 0.062247697 -0.094456732 4291611881
-0.35367364 0.063753419 -0.096587785 4291544808
-0.35503674 0.065275751 -0.098742254 4291478755
-0.35664985 0.066905104 -0.10128788 4291281888
-0.35972112 0.069112979 -0.10611397 4291019488
-0.36336228 0.071568832 -0.11183175 4290887903
-0.36685354 0.073994592 -0.11731578 4290749117
-0.36167166 0.0030931523 -0.1094832 4288655031
-0.360677 0.0039822306 -0.10795054 4289507523
-0.36017099 0.0049317782 -0.10718248 4289639125
-0.35942695 0.0058435174 -0.10604171 4289836760
-0.35868701 0.0067502838 -0.1049073 4289904099
-0.35747799 0.007580644 -0.1030385 4289903333
-0.35604635 0.0083672339 -0.10082087 4289903071
-0.35509309 0.009218825 -0.099352024 4290032861
-0.35414681 0.010064281 -0.097893849 4290032855
-0.35366508 0.010979977 -0.097162917 4289901269
-0.35295689 0.011853492 -0.096077271 4289900485
-0.35270679 0.012801663 -0.095708907 4289433280
-0.3524572 0.013748209 -0.095341206 4289293176
-0.35220805 0.014693106 -0.094974205 4287512669
-0.35173327 0.015594203 -0.094253734 4286918969
-0.35148543 0.016535036 -0.093888722 4286655275
-0.35056484 0.0173434 -0.092469797 4286590508
-0.3496508 0.018146044 -0.091061071 4286787116
-0.3485229 0.018898482 -0.089317106 4286853426
-0.34784225 0.019734455 -0.088273562 4287313204
-0.34716517 0.020566072 -0.0872356 4287512391
-0.34649172 0.02139331 -0.086203113 4287582800
-0.34603748 0.022263313 -0.085514009 4287598449
-0.3458001 0.023178071 -0.085164689 4289964679
-0.34577838 0.024139939 -0.085153319 4291545539
-0.34575668 0.025101887 -0.085141927 4292600043
-0.34573498 0.026063871 -0.085130535 4293390070
-0.34592885 0.027077204 -0.085457027 4293457407
-0.34612304 0.028092409 -0.085784078 4293521407
-0.34631759 0.029109476 -0.086111784 4293520383
-0.34672955 0.030182585 -0.086780272 4293454591
-0.34670773 0.031149209 -0.086768836 4293453567
-0.34668592 0.032115884 -0.086757392 4293386751
-0.3466641 0.033082623 -0.086745948 4292862975
-0.34620872 0.033934332 -0.086054668 4292076799
-0.34532449 0.03466709 -0.084690779 4292470271
-0.34508815 0.035570234 -0.0843428 4293061887
-0.34442484 0.036353316 -0.083325155 4293522175
-0.34397736 0.037192103 -0.082645923 4294374143
-0.34353146 0.038028046 -0.08196909 4294178303
-0.34350991 0.038983446 -0.08195778 4293718783
-0.34348837 0.039938901 -0.081946455 4293850111
-0.34346679 0.040894449 -0.081935152 4294177279
-0.34365711 0.041913874 -0.08225625 4294112767
-0.34384778 0.042935152 -0.082577936 4293980159
-0.34403878 0.04395831 -0.082900219 4293981439
-0.34423009 0.044983342 -0.083223008 4294044671
-0.34442177 0.046010207 -0.08354637 4294045951
-0.34461376 0.047038965 -0.083870344 4293649663
-0.3448061 0.048069589 -0.084194846 4293498623
-0.34499878 0.049102113 -0.0845199 4289571839
-0.34540689 0.050208163 -0.085183226 4289547095
-0.34581646 0.051318213 -0.085848898 4288429394
-0.3462275 0.052432247 -0.086516894 4288365901
-0.3466399 0.053550281 -0.087187231 4289164876
-0.34705386 0.054672386 -0.087860018 4289240026
-0.34768853 0.055875923 -0.088879399 4291807739
-0.34832656 0.057085972 -0.089904249 4292465902
-0.34896803 0.058302607 -0.090934575 4292202474
-0.34961295 0.059525855 -0.091970488 4292071404
-0.35026139 0.060755771 -0.093011975 4291939053
-0.3522726 0.062499326 -0.096193999 4291873259
-0.35316458 0.063837357 -0.097618416 4291675626
-0.35499084 0.065538563 -0.10051047 4291544551
-0.35566837 0.066812538 -0.10159853 4291413477
-0.35682124 0.068277016 -0.10343336 4291347685
-0.3603909 0.070700437 -0.10906529 4291281636
-0.36381274 0.073093966 -0.11446565 4291079369
-0.36067075 0.0030557523 -0.10978995 4288852934
-0.35992178 0.0039768973 -0.10863659 4289574100
-0.35941717 0.0049264855 -0.10786728 4289705183
-0.35867518 0.0058382996 -0.10672464 4289837025
-0.35793731 0.0067451112 -0.10558836 4289903845
-0.35696742 0.0076112072 -0.10408702 4290034918
-0.35553721 0.0083984109 -0.10186163 4290034398
-0.35412264 0.0091770543 -0.099660598 4289968092
-0.35318071 0.010021953 -0.098202676 4289967580
-0.35247317 0.010898836 -0.097113259 4289835740
-0.35176948 0.011771021 -0.096029729 4289769936
-0.35129502 0.012678063 -0.095306791 4289637837
-0.35127279 0.013662554 -0.095295161 4289562547
-0.3508001 0.014564672 -0.094574831 4288108202
-0.3503291 0.015463631 -0.09385708 4287576402
-0.35008317 0.016402073 -0.093493387 4287049520
-0.34939218 0.017252093 -0.09242928 4286787885
-0.34848395 0.01805369 -0.091023244 4286984492
-0.3473632 0.01880523 -0.089282557 4287051836
-0.34690461 0.019685056 -0.088583805 4287578949
-0.34644759 0.020561822 -0.087887451 4287846518
-0.34599218 0.021435542 -0.087193571 4288321428
-0.34553838 0.022306263 -0.086502127 4288526804
-0.34530121 0.023221852 -0.086151674 4290498303
-0.34527948 0.02418462 -0.086140297 4291879167
-0.34525773 0.025147423 -0.086128913 4292733951
-0.3454513 0.026160834 -0.086456597 4293391871
-0.34564525 0.027176078 -0.086784899 4293456895
-0.34583953 0.028193196 -0.087113731 4293521151
-0.34603414 0.02921221 -0.087443203 4293455103
-0.34622911 0.030233053 -0.087773204 4293454847
-0.34642437 0.031255819 -0.088103771 4293454591
-0.34640253 0.032224242 -0.088092327 4293387775
-0.34616351 0.033135805 -0.087738916 4292929023
-0.34570858 0.0339882 -0.087045282 4292208127
-0.34482533 0.034721479 -0.085676774 4292534527
-0.34437519 0.035566732 -0.084990427 4293124863
-0.34371373 0.036349852 -0.083971098 4293457663
-0.34326744 0.037188701 -0.083290771 4294311167
-0.34282279 0.038024679 -0.082612835 4294178303
-0.34280118 0.038980111 -0.082601547 4293718783
-0.34256867 0.03987357 -0.0822578 4293850111
-0.34233654 0.040765569 -0.081914686 4294177279
-0.34273642 0.041846856 -0.082567684 4294113023
-0.34271485 0.042802576 -0.082556397 4293980415
-0.34311607 0.043889489 -0.083211616 4293981439
-0.34309444 0.044846993 -0.083200306 4294044926
-0.34349704 0.045939524 -0.083857834 4294043894
-0.34347537 0.04689889 -0.083846502 4293620465
-0.3438794 0.047997095 -0.084506318 4293627990
-0.34407106 0.049028672 -0.084831402 4289284187
-0.34469163 0.050205316 -0.085832916 4289150522
-0.3450999 0.051315386 -0.086499751 4288296249
-0.34550962 0.052429441 -0.087168947 4288231993
-0.34592077 0.053547531 -0.08784046 4288496441
-0.34633341 0.054669663 -0.088514403 4288580200
-0.34674752 0.055795871 -0.089190751 4291733362
-0.34738246 0.057004683 -0.090215549 4292594648
-0.34802079 0.05822004 -0.091245823 4292269304
-0.34888464 0.059523284 -0.092632025 4292137201
-0.34975475 0.060836032 -0.094028249 4292004846
-0.35085681 0.062242713 -0.095790617 4291938795
-0.35196888 0.063662276 -0.097569041 4291741417
-0.35401446 0.065447569 -0.10082077 4291545062
-0.3546887 0.066720173 -0.1019087 4291544803
-0.3560712 0.068274662 -0.10411463 4291544544
-0.35770747 0.069940463 -0.10672127 4291479005
-0.36082345 0.072208613 -0.11166392 4291343561
-0.36015558 0.0030823208 -0.11086047 4289247176
-0.35940734 0.0040042852 -0.10970308 4289705430
-0.3589032 0.0049547683 -0.10893109 4289771486
-0.3581619 0.0058673825 -0.10778444 4289837024
-0.35742477 0.0067750141 -0.10664418 4289838051
-0.35622036 0.0076061138 -0.10476564 4290231268
-0.35502708 0.0084296456 -0.1029044 4290297055
-0.35338375 0.0091721062 -0.10033183 4289902814
-0.35221633 0.0099797007 -0.098510996 4289837021
-0.35151201 0.010855964 -0.09742175 4289639389
-0.35081154 0.01172754 -0.096338406 4289574612
-0.3503392 0.012633864 -0.095615543 4289966290
-0.35009259 0.013577211 -0.09524934 4290097087
-0.34962282 0.014477916 -0.094530396 4289493944
-0.34937751 0.015417242 -0.094166115 4289283941
-0.34913263 0.016354907 -0.093802489 4287968326
-0.34844476 0.017204328 -0.092738546 4287379256
-0.34776059 0.018049287 -0.091680326 4287577139
-0.34664306 0.018800873 -0.089936741 4287713104
-0.34640321 0.019725868 -0.089580774 4288372320
-0.34594664 0.020603364 -0.088882059 4288716431
-0.34549174 0.021477852 -0.088185869 4290560171
-0.34503841 0.022349296 -0.087492108 4291679196
-0.34501657 0.02331374 -0.087480746 4292468735
-0.34499478 0.02427824 -0.087469362 4293060351
-0.34497294 0.025242802 -0.087458007 4293259263
-0.34516659 0.02625812 -0.087787442 4293456127
-0.34536061 0.027275303 -0.08811754 4293455871
-0.34555495 0.028294371 -0.088448152 4293455871
-0.34574959 0.029315302 -0.08877936 4293455615
-0.34594467 0.030338114 -0.089111209 4293455615
-0.34592274 0.031307392 -0.089099795 4293455615
-0.3459008 0.032276735 -0.089088358 4293454591
-0.34566197 0.033189077 -0.088733703 4293585919
-0.34520754 0.034042194 -0.088037759 4293782527
-0.34432524 0.034775954 -0.08666452 4293716991
-0.34366214 0.035563197 -0.085638136 4293517311
-0.34300253 0.036346387 -0.084617123 4293390079
-0.34255749 0.037185296 -0.083935663 4293066239
-0.34211403 0.038021311 -0.08325664 4293262079
-0.34188205 0.038915586 -0.082912341 4293915647
-0.34165052 0.039808389 -0.082568675 4294047487
-0.3414194 0.040699665 -0.082225613 4294439679
-0.34160739 0.041716341 -0.082546175 4294376191
-0.34158579 0.042670451 -0.082534939 4294307839
-0.34198433 0.043755267 -0.08318904 4294110975
-0.34217331 0.044777494 -0.083511271 4292535294
-0.34236261 0.045801595 -0.083834097 4292305141
-0.3427639 0.04689591 -0.084492758 4289619183
-0.34295425 0.04792469 -0.08481729 4289611588
-0.34357074 0.049096312 -0.085817017 4288821316
-0.34397629 0.050202437 -0.086482674 4288756021
-0.3443833 0.051312558 -0.087150678 4288558132
-0.34479171 0.052426673 -0.087821037 4288559413
-0.34520155 0.053544786 -0.088493727 4288362549
-0.34561291 0.054666966 -0.089168869 4288367687
-0.34602568 0.055793203 -0.089846402 4289104972
-0.34687778 0.057080697 -0.091220208 4289510347
-0.34729505 0.058217447 -0.09190505 4291547644
-0.34771377 0.05935831 -0.092592292 4292465907
-0.34835589 0.060585689 -0.093633652 4292071151
-0.34944859 0.061987489 -0.095389508 4291807468
-0.35032544 0.063316457 -0.09680333 4291807209
-0.35235 0.065092444 -0.10003689 4291742438
-0.35347909 0.066538274 -0.10185112 4291676386
-0.35485235 0.068088926 -0.10405264 4291675358
-0.35600457 0.069563545 -0.10590401 4291544792
-0.3588464 0.071722157 -0.11043496 4291410122
-0.35939744 0.0030769024 -0.1115492 4289377996
-0.35865128 0.0039989427 -0.11038992 4289770969
-0.35814852 0.0049494677 -0.10961667 4289837277
-0.35764757 0.0058965432 -0.10884626 4289836510
-0.35667422 0.0067698332 -0.10732599 4289838048
-0.35570803 0.007636759 -0.1058169 4290099680
-0.35451594 0.0084609687 -0.10394916 4290165729
-0.35264477 0.0091671534 -0.10100314 4289903073
-0.35148066 0.0099748019 -0.099179283 4289837279
-0.35077834 0.010851108 -0.098088242 4289705183
-0.34985521 0.011684098 -0.096646555 4289640159
-0.34938505 0.012589719 -0.095923841 4289901535
-0.34891653 0.013492202 -0.095203713 4290032349
-0.34867182 0.014432351 -0.094838865 4289638620
-0.34820586 0.015329218 -0.094122633 4289491870
-0.34796241 0.016265342 -0.093759686 4288300166
-0.34749898 0.017156674 -0.093047328 4287774554
-0.3470372 0.018044876 -0.092337474 4287911494
-0.34614053 0.018840944 -0.090936795 4288048022
-0.3456836 0.019721571 -0.090234451 4288717248
-0.34522828 0.020599136 -0.089534603 4289184999
-0.34499031 0.021520229 -0.089179963 4290762238
-0.34475273 0.022439778 -0.088825934 4291813631
-0.34451556 0.023357751 -0.088472486 4292535551
-0.34449369 0.024323132 -0.088461131 4293061119
-0.34447184 0.025288604 -0.088449761 4293258495
-0.34466523 0.026304929 -0.088780463 4293455615
-0.34485888 0.027323077 -0.089111708 4293456639
-0.34526929 0.028395873 -0.089787371 4293456895
-0.34546402 0.029418766 -0.090120383 4293456127
-0.34544203 0.030388879 -0.090108976 4293456127
-0.34563711 0.031414572 -0.090442546 4293456383
-0.3453981 0.032329276 -0.090086147 4293455871
-0.34515953 0.033242453 -0.089730352 4293586431
-0.34470552 0.034096252 -0.089032024 4293783039
-0.34361026 0.034772381 -0.08731398 4293719039
-0.34294903 0.035559691 -0.086285882 4293521407
-0.34229127 0.036342919 -0.0852632 4293388287
-0.34163696 0.037122123 -0.084245875 4293062143
-0.34140521 0.038017944 -0.083900481 4293262079
-0.3409645 0.038851179 -0.08322268 4293915391
-0.34073395 0.039743293 -0.082879066 4294048255
-0.34050372 0.040633898 -0.082536034 4294441983
-0.34069076 0.041649699 -0.08285664 4294441215
-0.34087807 0.042667322 -0.083177775 4294304501
-0.34127536 0.04375216 -0.083833031 4294107313
-0.34146369 0.044774435 -0.08415585 4292369579
-0.34165233 0.045798562 -0.084479257 4292235355
-0.34205234 0.046892937 -0.085139096 4289019227
-0.34245381 0.047991212 -0.085801236 4289019193
-0.34285665 0.049093403 -0.086465664 4288689464
-0.34326091 0.050199587 -0.087132484 4288690227
-0.34366661 0.051309738 -0.08780165 4288623666
-0.34407374 0.052423872 -0.088473208 4288624692
-0.34491432 0.053692393 -0.089834832 4288362036
-0.34532583 0.054816857 -0.090513565 4288297274
-0.3457388 0.055945419 -0.091194682 4288237372
-0.34615329 0.057078078 -0.09187828 4288258184
-0.34634995 0.058135021 -0.09221521 4291086766
-0.34654704 0.059193946 -0.092552796 4292596445
-0.34718481 0.060418703 -0.093592197 4292071929
-0.347826 0.061650123 -0.09463717 4291742192
-0.34869376 0.062973134 -0.096043184 4291807722
-0.35069758 0.064739868 -0.099258766 4291874280
-0.35204422 0.066267878 -0.101428 4291808229
-0.35317397 0.067721903 -0.10325199 4291741665
-0.35408065 0.069096878 -0.1047209 4291676123
-0.3568877 0.071240261 -0.10921749 4291476428
-0.35863918 0.0030714839 -0.11223801 4289573836
-0.35813498 0.0040264032 -0.11145915 4289967066
-0.3576327 0.0049778228 -0.1106832 4290033627
-0.35713223 0.0059257611 -0.10991015 4289836508
-0.35615984 0.0067997798 -0.10838451 4289837793
-0.35542956 0.0077032959 -0.10724472 4289837538
-0.35400379 0.0084923124 -0.10499584 4289837794
-0.35190573 0.0091622025 -0.1016745 4289903074
-0.35074496 0.009969932 -0.099847607 4289903329
-0.34981942 0.010808314 -0.098395675 4289902049
-0.34890059 0.011640737 -0.096954204 4289902304
-0.34821025 0.012506424 -0.095877051 4289836256
-0.34796613 0.01344746 -0.095511615 4289771743
-0.34750143 0.014346067 -0.094794199 4290033118
-0.34703836 0.015241508 -0.094079308 4290165170
-0.34679636 0.016176095 -0.09371715 4289557915
-0.3463358 0.017066021 -0.093006119 4289288048
-0.34587687 0.017952831 -0.092297614 4289161565
-0.34520254 0.018792186 -0.091245301 4289111718
-0.34496394 0.019717248 -0.090888217 4290364362
-0.34450987 0.020594874 -0.090187229 4291154666
-0.34427249 0.021516027 -0.08983203 4292075006
-0.34403554 0.022435609 -0.089477435 4292666367
-0.34401363 0.023401847 -0.089466095 4292929023
-0.34420672 0.024417276 -0.089797966 4293126399
-0.34418479 0.025384486 -0.089786611 4293257983
-0.34437817 0.026402717 -0.090119049 4293324799
-0.34457198 0.027422825 -0.09045215 4293457151
-0.3449825 0.028497756 -0.091131352 4293522687
-0.34496048 0.0294687 -0.09111996 4293587455
-0.3451553 0.030494463 -0.091454811 4293718527
-0.34513324 0.031466417 -0.091443405 4293718783
-0.34489444 0.032381944 -0.091085769 4293719039
-0.34465608 0.033295907 -0.090728797 4293784319
-0.34398735 0.034092635 -0.089684375 4293849087
-0.34289524 0.034768809 -0.087963484 4293916927
-0.34223586 0.035556186 -0.086933687 4293981951
-0.34157994 0.03633948 -0.085909322 4294047743
-0.34113735 0.037178461 -0.085225657 4294175487
-0.34069633 0.038014598 -0.084544398 4293980927
-0.34046555 0.038908966 -0.084199034 4293260031
-0.34002683 0.039740011 -0.083521359 4293589247
-0.34000525 0.040693227 -0.08351016 4294899967
-0.33998361 0.041646507 -0.083498977 4294436095
-0.34017029 0.042664181 -0.083820686 4291286007
-0.3403573 0.043683689 -0.084142983 4291190694
-0.34054464 0.044705052 -0.084465854 4289349795
-0.340942 0.045795556 -0.085124493 4289477950
-0.34113035 0.046821598 -0.085449085 4288886334
-0.34152976 0.047918804 -0.086111188 4288886837
-0.34214246 0.049090501 -0.087114371 4288623669
-0.34275842 0.050268464 -0.088122867 4288625202
-0.34359211 0.051525895 -0.089479722 4288558386
-0.34400016 0.052643441 -0.090156049 4288558644
-0.34440964 0.053765006 -0.090834722 4288427316
-0.34482062 0.054890659 -0.091515899 4288362294
-0.34501556 0.055942737 -0.091851622 4288362806
-0.34521091 0.056996763 -0.092188001 4288372588
-0.34540656 0.058052745 -0.092524931 4289964933
-0.34560254 0.059110675 -0.092862472 4290761421
-0.34601784 0.060252309 -0.093550906 4291613695
-0.34643465 0.0613981 -0.094241828 4292202484
-0.34707379 0.062632278 -0.095288575 4292136938
-0.34905708 0.064389892 -0.098486356 4292071401
-0.35038981 0.065910444 -0.10064346 4291940072
-0.35196698 0.067538224 -0.10319208 4291873508
-0.35240504 0.068726204 -0.10391787 4291742173
-0.35613042 0.071237974 -0.10990533 4291542733
-0.35812142 0.003098089 -0.11331204 4289639631
-0.35761771 0.0040538842 -0.11253046 4289900507
-0.35711586 0.0050062011 -0.11175182 4289968087
-0.3566159 0.0059550325 -0.11097609 4289902294
-0.35564446 0.0068298136 -0.10944509 4289837541
-0.3549149 0.0077341129 -0.10830133 4289837544
-0.35349065 0.0085237157 -0.10604457 4289837797
-0.35139486 0.0091939894 -0.10271157 4289903332
-0.35000917 0.0099650295 -0.10051601 4289969126
-0.34908628 0.010803491 -0.09906166 4289901798
-0.34794763 0.011597455 -0.097261399 4289902308
-0.34726042 0.012462541 -0.096184388 4289902563
-0.34679696 0.013362881 -0.095465787 4289903334
-0.34633511 0.014260084 -0.094749734 4290166759
-0.34609374 0.015195521 -0.09438698 4290298353
-0.34585279 0.016129337 -0.094024807 4289775093
-0.34539431 0.017018585 -0.093313955 4289562835
-0.34515461 0.017948432 -0.092953704 4289437377
-0.34448218 0.018787853 -0.091899671 4289380839
-0.34424418 0.019712947 -0.09154202 4290564862
-0.34379137 0.020590613 -0.090839908 4291288063
-0.34355462 0.021511827 -0.09048415 4292075263
-0.34353265 0.022478892 -0.090472817 4292600831
-0.34351072 0.02344601 -0.090461485 4292929279
-0.34370348 0.024462435 -0.090794533 4293126399
-0.34368151 0.02543053 -0.090783194 4293192447
-0.34409013 0.026500888 -0.091462493 4293324543
-0.34428391 0.027522918 -0.091797329 4293390847
-0.3444781 0.02854689 -0.092132807 4293521919
-0.34467262 0.02957271 -0.09246885 4293588223
-0.34465054 0.030545499 -0.092457458 4293719295
-0.34462845 0.031518351 -0.092446059 4293718783
-0.34438986 0.03243468 -0.092087261 4293719039
-0.34415168 0.033349458 -0.091729067 4293785087
-0.34348366 0.034146808 -0.090681076 4293850367
-0.34239277 0.034823366 -0.088954292 4293917439
-0.34173414 0.035611324 -0.087921016 4293982719
-0.34107894 0.036395218 -0.086893186 4294049279
-0.34063682 0.037234899 -0.086207248 4294244351
-0.34019625 0.038071696 -0.085523635 4294045951
-0.3397572 0.038905624 -0.084842466 4293192703
-0.33952743 0.03979855 -0.084497191 4293455359
-0.33950576 0.040752657 -0.084486015 4294950378
-0.33948413 0.041706793 -0.084474824 4294430588
-0.33967051 0.042725466 -0.08479771 4290794104
-0.33985722 0.043745957 -0.085121199 4290659667
-0.34004423 0.044768315 -0.085445181 4288821842
-0.3402316 0.045792516 -0.08576978 4288821561
-0.34062907 0.046886966 -0.086431913 4288886073
-0.34166175 0.048194375 -0.088114366 4288886579
-0.34249002 0.049442124 -0.089468762 4288557875
-0.34268156 0.050481644 -0.089800373 4288559922
-0.34330219 0.051669694 -0.090821438 4288492594
-0.34349507 0.052714992 -0.091155395 4288492851
-0.34390402 0.053837758 -0.09183652 4288426803
-0.3443144 0.054964565 -0.092520028 4288427830
-0.34450909 0.056017715 -0.092857055 4288427319
-0.34448692 0.05699414 -0.092845604 4288429899
-0.34468189 0.058050148 -0.09318316 4289161303
-0.34465972 0.05902759 -0.093171701 4289640110
-0.34485501 0.060086507 -0.093509838 4291286505
-0.34526893 0.061230008 -0.094199456 4292531180
-0.34590378 0.062461585 -0.095244266 4292399854
-0.34765092 0.064128473 -0.098077454 4292202220
-0.34897232 0.065643504 -0.10022647 4292136680
-0.3509931 0.067445479 -0.1035002 4291939302
-0.35074162 0.068358213 -0.10312072 4291807969
-0.35466388 0.070950083 -0.10945284 4291608279
-0.35760263 0.0031247747 -0.11438815 4289705680
-0.35686001 0.0040485272 -0.11321878 4289704156
-0.35635957 0.0050008851 -0.11243885 4289706969
-0.35609847 0.0059843212 -0.11204404 4289902296
-0.35489231 0.0068246168 -0.11012834 4289967845
-0.35416484 0.0077289934 -0.10898271 4289968359
-0.3527447 0.0085186558 -0.10672221 4289969125
-0.35065499 0.0091890274 -0.10338368 4290099940
-0.34904829 0.0099228593 -0.10082217 4290099941
-0.34812966 0.010760772 -0.099368073 4290033126
-0.34677532 0.011515911 -0.09721227 4290034404
-0.34631225 0.01241873 -0.096491218 4290296291
-0.34585083 0.013318399 -0.095772706 4290363112
-0.34539112 0.014214913 -0.095056817 4290626282
-0.344933 0.015108279 -0.094343454 4290760434
-0.34469351 0.016040573 -0.093982041 4290956022
-0.34445441 0.01697126 -0.093621239 4291018199
-0.34421578 0.017900351 -0.093261123 4290952391
-0.34376177 0.018783493 -0.092554092 4290957033
-0.34352437 0.019708646 -0.092195891 4291811838
-0.3430728 0.020586379 -0.091492623 4292272383
-0.34305081 0.021554269 -0.091481321 4292272639
-0.34281468 0.022474715 -0.091125019 4292273407
-0.34279272 0.023441894 -0.091113701 4292601599
-0.34298483 0.024458349 -0.091447353 4292930303
-0.3429628 0.025426527 -0.091436051 4293061887
-0.34337011 0.026496878 -0.092116535 4293127167
-0.34377885 0.027571155 -0.09279941 4293259007
-0.34397271 0.028596073 -0.093136072 4293391103
-0.34416687 0.029622909 -0.093473323 4293588223
-0.34414476 0.030596593 -0.093461938 4293785343
-0.34412265 0.031570371 -0.093450546 4293785343
-0.3436684 0.032430954 -0.0927426 4293849599
-0.34343085 0.033345796 -0.092383839 4293849855
-0.34276474 0.034143154 -0.091334127 4293915647
-0.34188941 0.03487806 -0.089946963 4294047999
-0.34123147 0.035666596 -0.08891017 4294310143
-0.3407875 0.036510475 -0.088218257 4294310399
-0.34013534 0.03729143 -0.087190546 4294441983
-0.33990422 0.038189571 -0.08684174 4294244607
-0.33946487 0.039024811 -0.086157054 4293645055
-0.33923495 0.039919253 -0.085810065 4292968959
-0.33921322 0.040875059 -0.085798897 4289569516
-0.3391915 0.041830912 -0.085787714 4289749348
-0.33937791 0.042851482 -0.086112328 4289673826
-0.33956465 0.043873921 -0.086437523 4289675584
-0.33996093 0.044964913 -0.087100849 4289017664
-0.34014869 0.04599205 -0.087427765 4289018167
-0.3407577 0.047158599 -0.088434473 4288689207
-0.34136993 0.048331376 -0.089446522 4288690226
-0.34198543 0.04951049 -0.090463996 4288820018
-0.34239018 0.050623398 -0.09114147 4288821298
-0.34301114 0.051813997 -0.092167929 4288492338
-0.34320411 0.052861359 -0.092503741 4288427570
-0.34361321 0.053986397 -0.093188487 4288361266
-0.34380725 0.055038638 -0.09352611 4288362038
-0.34400159 0.056092817 -0.093864284 4288361272
-0.34397939 0.05707017 -0.09385287 4288362808
-0.34395719 0.058047581 -0.093841434 4288627768
-0.34393495 0.059025045 -0.093830012 4288838289
-0.34412959 0.060084019 -0.094168745 4290755799
-0.34432459 0.061144959 -0.094508156 4292466149
-0.34495631 0.062375236 -0.095552877 4292334066
-0.34647346 0.063954167 -0.098027952 4292201710
-0.34756252 0.065377988 -0.09981177 4292070889
-0.35002086 0.067352884 -0.10380781 4291939304
-0.3493166 0.068083443 -0.10269513 4291807718
-0.35227403 0.070287563 -0.10749816 4291608036
-0.36039412 0.074622385 -0.12064293 4291210715
-0.35684279 0.0031193399 -0.11507842 4289640150
-0.35610229 0.0040431707 -0.11390714 4289639137
-0.35536593 0.0049618906 -0.11274239 4289641184
-0.355106 0.0059445086 -0.11234771 4289902048
-0.35390556 0.0067842384 -0.11043237 4289967844
-0.35294861 0.0076520978 -0.10891055 4289967845
-0.35153776 0.0084407916 -0.10665461 4289968870
-0.3494617 0.00911061 -0.10332273 4290033894
-0.34786546 0.0098436717 -0.1007663 4290099941
-0.34695274 0.010680386 -0.099315047 4290099941
-0.34582669 0.011472854 -0.097518519 4290034917
-0.34536573 0.012374997 -0.096797578 4290232037
-0.34490639 0.013273967 -0.096079178 4290298354
-0.34444872 0.014169814 -0.095363349 4290627063
-0.3442094 0.01510372 -0.095000759 4290760701
-0.34397054 0.016036076 -0.094638802 4290889727
-0.34373206 0.016966794 -0.094277412 4290952436
-0.34370992 0.017939622 -0.094266072 4291021294
-0.34325641 0.018823542 -0.09355671 4291024633
-0.34301922 0.019749507 -0.093197256 4291812607
-0.34256816 0.020628009 -0.092491694 4292338431
-0.34254611 0.021596787 -0.092480384 4292339455
-0.34231013 0.022518067 -0.092122838 4292274431
-0.34250203 0.023534577 -0.092457779 4292601599
-0.34247997 0.024503589 -0.092446484 4292930303
-0.34267214 0.025522904 -0.092781931 4293061887
-0.3428646 0.026544094 -0.093117997 4293126911
-0.34305748 0.027567195 -0.093454696 4293258751
-0.34325069 0.028592169 -0.093791954 4293390847
-0.34344417 0.029619031 -0.094129816 4293522431
-0.34342203 0.030592775 -0.094118446 4293784831
-0.34339985 0.031566579 -0.094107099 4293785599
-0.34316212 0.032483801 -0.093746565 4293849855
-0.34270996 0.033342101 -0.093038678 4293849599
-0.34247345 0.034255419 -0.092680052 4293915391
-0.34159756 0.034991257 -0.091285691 4294047743
-0.34093919 0.035780933 -0.090243489 4294309375
-0.34049493 0.036626168 -0.089548066 4294375679
-0.33984241 0.037408188 -0.088515081 4294441727
-0.33961108 0.038307887 -0.088164471 4294310399
-0.33917147 0.039144412 -0.087476365 4293709036
-0.33894134 0.04004034 -0.087127574 4293025928
-0.33891955 0.040997874 -0.087116398 4288565893
-0.33889776 0.041955438 -0.087105229 4288628566
-0.33908424 0.042977966 -0.087431625 4289412693
-0.33927104 0.044002369 -0.087758556 4289413184
-0.33945814 0.045028623 -0.088086069 4289082944
-0.33985528 0.046124619 -0.088754073 4289083704
-0.34046456 0.047293626 -0.089766093 4288623160
-0.34107706 0.048468906 -0.090783484 4288624692
-0.34190619 0.04972215 -0.09215226 4288885299
-0.34209779 0.050765689 -0.09248744 4288951860
-0.34271902 0.051958825 -0.093519352 4288492341
-0.34291202 0.053008225 -0.093856923 4288362035
-0.34332135 0.054135576 -0.094545372 4288361010
-0.34329912 0.055112839 -0.09453398 4288362037
-0.34349313 0.056168046 -0.094873376 4288361526
-0.34325463 0.057067506 -0.094511181 4288362038
-0.34323239 0.058044977 -0.094499782 4288232502
-0.34321016 0.059022509 -0.09448836 4288108908
-0.34340408 0.060081508 -0.094827719 4290223002
-0.34359843 0.0611425 -0.095167741 4292333510
-0.34401041 0.062289029 -0.095860928 4292268792
-0.3453002 0.063780509 -0.097978696 4292136179
-0.3463819 0.065201014 -0.099759094 4292070637
-0.34882388 0.06717056 -0.10374729 4291873771
-0.34812412 0.0679003 -0.10263684 4291808488
-0.35152352 0.070285305 -0.10817984 4291610086
-0.3651593 0.076887108 -0.13033961 4291477217
-0.35584402 0.0030818325 -0.11538091 4289443796
-0.35510698 0.0040049646 -0.11420988 4289508066
-0.3546102 0.0049566068 -0.1134289 4289509343
-0.35411528 0.0059047686 -0.11265083 4289705183
-0.35268748 0.0067089186 -0.11035742 4289771747
-0.35173675 0.0075754821 -0.10883866 4289902564
-0.35056388 0.0083994251 -0.10695887 4289968613
-0.34849772 0.0090690348 -0.10362758 4289968101
-0.34668684 0.0097647347 -0.10071065 4289969382
-0.34600049 0.010637893 -0.099620491 4290165734
-0.34487969 0.011429901 -0.097824246 4290231782
-0.34442079 0.01233134 -0.097103395 4290100966
-0.34396356 0.013229647 -0.096385173 4290036722
-0.34372443 0.01416522 -0.096021302 4290562039
-0.34348574 0.015099189 -0.095658138 4290826749
-0.3432475 0.01603158 -0.095295615 4290365695
-0.34300965 0.016962361 -0.094933666 4290168565
-0.34298748 0.017935216 -0.094922341 4291350511
-0.34253523 0.018819174 -0.094211832 4292010233
-0.34229863 0.019745229 -0.093851842 4292600575
-0.3420625 0.020669678 -0.093492508 4292994815
-0.34182677 0.021592576 -0.093133837 4292864511
-0.34159139 0.022513915 -0.092775732 4292798719
-0.34178263 0.02353045 -0.093111269 4292798207
-0.34176055 0.024499493 -0.093099996 4292798463
-0.34173846 0.025468621 -0.093088724 4292864511
-0.34192994 0.026488913 -0.09342476 4292865535
-0.34212172 0.027511079 -0.093761414 4293193983
-0.34231389 0.028535154 -0.094098724 4293652479
-0.34250641 0.02956111 -0.094436578 4293521663
-0.34248424 0.030534016 -0.094425261 4293456639
-0.34246209 0.031507015 -0.094413921 4293522687
-0.34222531 0.032423496 -0.094053455 4293588479
-0.34198898 0.033338405 -0.093693569 4293719807
-0.3417531 0.034251783 -0.093334377 4293915391
-0.34130457 0.035104845 -0.09262915 4293981951
-0.34064582 0.035895683 -0.091581613 4294244095
-0.34020126 0.036742225 -0.090882599 4294245119
-0.33975828 0.037585855 -0.090186067 4294310399
-0.33931684 0.038426585 -0.089491948 4294244351
-0.33887693 0.039264429 -0.088800289 4293840360
-0.33864665 0.040161885 -0.088449776 4293225324
-0.33862481 0.041121133 -0.0884386 4288822378
-0.33860293 0.042080428 -0.088427454 4288824914
-0.33858109 0.043039791 -0.088416271 4289544017
-0.33876759 0.04406517 -0.088744387 4289544000
-0.33916348 0.04515947 -0.089413568 4288951872
-0.33935097 0.046189576 -0.089743406 4288952633
-0.34017029 0.047429144 -0.091102488 4288819768
-0.34078306 0.048606884 -0.092125259 4288821301
-0.34161258 0.049862903 -0.093501195 4288885300
-0.34180427 0.050908491 -0.093838237 4288886070
-0.34242579 0.052104164 -0.094875634 4288426806
-0.34240356 0.053080436 -0.094864272 4288296243
-0.34259659 0.054132827 -0.09520369 4288426546
-0.34278998 0.055187158 -0.095543705 4288492851
-0.34276769 0.056165382 -0.095532313 4288427060
-0.3425298 0.057064876 -0.095169552 4288427316
-0.34250754 0.058042377 -0.095158175 4288230708
-0.34248528 0.05901996 -0.09514679 4288039237
-0.34246299 0.059997581 -0.095135413 4289825876
-0.34265625 0.061057571 -0.095475368 4291610527
-0.34328282 0.062286619 -0.096521802 4291875583
-0.34413105 0.063607462 -0.097929657 4292136954
-0.34498534 0.06493789 -0.099347666 4292136690
-0.34785619 0.067078479 -0.10405396 4292004848
-0.34715968 0.067807868 -0.10294372 4291940587
-0.34871459 0.069446638 -0.10550485 4291743979
-0.36411154 0.076779626 -0.13064075 4291610093
-0.35508475 0.0030763985 -0.11607067 4289444057
-0.35411352 0.0039668307 -0.11451216 4289508837
-0.35361901 0.0049176873 -0.1137314 4289574876
-0.35312632 0.005865097 -0.11295348 4289705434
-0.35193723 0.0067037335 -0.11103898 4289771740
-0.35075909 0.0075347307 -0.10914212 4289968349
-0.3495917 0.0083581619 -0.10726263 4289968864
-0.34753534 0.0090275304 -0.10393191 4289967841
-0.34595412 0.0097598797 -0.10137628 4289969386
-0.34483045 0.010557942 -0.099567287 4290165741
-0.34415215 0.011425137 -0.098485127 4290231789
-0.34369454 0.012326644 -0.097763114 4290100461
-0.34323859 0.013224988 -0.097043738 4290102007
-0.34278426 0.014120211 -0.096326888 4290627836
-0.34276202 0.015094657 -0.096315563 4290826750
-0.34252441 0.016027082 -0.095952474 4290430975
-0.34228715 0.016957894 -0.095589973 4290168319
-0.34226495 0.017930809 -0.095578671 4291352063
-0.34181398 0.018814832 -0.094867021 4292011007
-0.34179181 0.019786164 -0.094855733 4292602367
-0.34134245 0.020665431 -0.094146587 4292996095
-0.34110734 0.021588363 -0.093787357 4292864511
-0.34087259 0.022509733 -0.093428694 4292798719
-0.3408505 0.023477886 -0.093417451 4292798207
-0.34082845 0.024446128 -0.093406186 4292798463
-0.34080634 0.025414426 -0.093394943 4292798975
-0.34078425 0.026382783 -0.093383692 4292865535
-0.34097472 0.027403105 -0.093719803 4293194239
-0.34116548 0.028425291 -0.094056442 4293652735
-0.34157023 0.029503262 -0.094742835 4293521407
-0.34176201 0.030530198 -0.095081307 4293390847
-0.34152585 0.031447519 -0.094720259 4293457151
-0.34150371 0.032419767 -0.094708949 4293588479
-0.34126797 0.03333474 -0.094348527 4293720575
-0.34103268 0.034248151 -0.093988791 4293915903
-0.34058544 0.035101276 -0.093282394 4293982463
-0.34013978 0.035951447 -0.09257859 4294245119
-0.33969572 0.036798667 -0.091877192 4294245119
-0.33883414 0.037521947 -0.090493016 4294310399
-0.33860329 0.038423218 -0.090140134 4294244863
-0.3383728 0.039322928 -0.089787878 4293908721
-0.33835089 0.040283833 -0.089776695 4293423504
-0.33832896 0.041244812 -0.089765549 4288888202
-0.33830705 0.042205833 -0.089754373 4288955985
-0.33828512 0.043166965 -0.089743212 4289609809
-0.33847165 0.044194292 -0.090073086 4289609280
-0.33865851 0.045223519 -0.090403527 4288886336
-0.33905521 0.046322837 -0.091077447 4288887354
-0.33987492 0.047565129 -0.092443645 4288951609
-0.34027588 0.048674591 -0.093124695 4288952374
-0.3411043 0.049931999 -0.094505496 4288820022
-0.34150958 0.051051758 -0.09519387 4288820277
-0.34191635 0.052175589 -0.095884755 4288426805
-0.34189406 0.053152788 -0.095873415 4288296242
-0.34208679 0.054206219 -0.096214049 4288492082
-0.34227991 0.055261597 -0.09655536 4288558130
-0.34225759 0.05624076 -0.096543975 4288492594
-0.34180492 0.057062246 -0.095827982 4288492596
-0.34178263 0.058039799 -0.09581662 4288230454
-0.34176034 0.05901742 -0.095805258 4287970628
-0.34173802 0.059995089 -0.095793918 4289231954
-0.3419306 0.061055109 -0.096134484 4290626715
-0.34233919 0.062200576 -0.096828893 4291219962
-0.34274924 0.063350245 -0.097525805 4292203000
-0.34381455 0.06476251 -0.099296197 4292203251
-0.34689018 0.066986561 -0.10436013 4292267249
-0.34619692 0.06771557 -0.10325006 4292268525
-0.34797013 0.069444381 -0.10618103 4292136941
-0.3628113 0.076567613 -0.1305245 4292070127
-0.35408843 0.0030389933 -0.11637206 4289509592
-0.35335696 0.0039614765 -0.11519944 4289770725
-0.35286385 0.0049123759 -0.11441739 4289837021
-0.35237256 0.0058598556 -0.11363823 4289705435
-0.35118693 0.0066985763 -0.11172058 4289641437
-0.35001221 0.0075296275 -0.1098206 4290034142
-0.34884822 0.0083531141 -0.10793804 4290166241
-0.34679794 0.0090225823 -0.10460179 4290033633
-0.34500095 0.0097180801 -0.10168054 4289969386
-0.34410092 0.010553137 -0.10022999 4290231277
-0.34320739 0.011382262 -0.098789871 4290364397
-0.34275186 0.01228307 -0.098067969 4290494445
-0.34229794 0.013180744 -0.09734866 4290560759
-0.34206048 0.014115618 -0.096984372 4291152380
-0.34203824 0.015090093 -0.096973069 4291417854
-0.34180123 0.01602258 -0.096609414 4290824959
-0.3415646 0.016953457 -0.096246347 4290563071
-0.34154236 0.017926428 -0.096235059 4291549439
-0.34130621 0.018854937 -0.095872737 4292273919
-0.34107047 0.019781848 -0.095511012 4292602879
-0.34062237 0.020661153 -0.094800726 4292864767
-0.34038785 0.021584144 -0.094440937 4292864255
-0.34015372 0.022505581 -0.094081707 4292865023
-0.34013161 0.02347379 -0.094070487 4292995327
-0.3401095 0.02444206 -0.094059259 4293125887
-0.33987585 0.025360331 -0.093700767 4292929791
-0.33985376 0.026327891 -0.093689553 4292799743
-0.34004316 0.02734728 -0.094025575 4293063167
-0.34044516 0.028421393 -0.094710752 4293390847
-0.3406356 0.02944551 -0.095048599 4293456127
-0.34082639 0.030471543 -0.095387064 4293653503
-0.34101751 0.031499427 -0.095726125 4293719807
-0.34099528 0.032472569 -0.095714845 4293785087
-0.34075978 0.033388369 -0.095353261 4293917439
-0.3405247 0.034302596 -0.09499228 4294112767
-0.34007794 0.035156421 -0.094283588 4294113791
-0.33921123 0.035888616 -0.092884764 4293983231
-0.33876911 0.036735255 -0.092183486 4294048511
-0.33853766 0.037639547 -0.09182822 4294244863
-0.33809793 0.038481016 -0.091130637 4294244863
-0.33807597 0.039443575 -0.091119476 4293975283
-0.33805397 0.04040622 -0.091108322 4293493150
-0.33803201 0.041368932 -0.091097154 4288953753
-0.33801001 0.042331692 -0.091085993 4289021521
-0.33798802 0.043294545 -0.091074839 4289741137
-0.33817461 0.044323862 -0.091406524 4289740609
-0.3383615 0.045355044 -0.091738768 4289083200
-0.33854872 0.046388138 -0.09207157 4289018427
-0.33957842 0.04770159 -0.093789592 4288821050
-0.33997959 0.048813332 -0.094474323 4288756023
-0.34080836 0.050073523 -0.095862366 4288689207
-0.34099981 0.051122162 -0.09620247 4288689461
-0.34162077 0.052321732 -0.097249046 4288427060
-0.34159842 0.053300705 -0.097237684 4288362034
-0.34157607 0.054279748 -0.097226322 4288492337
-0.34155372 0.05525887 -0.097214989 4288558128
-0.34153137 0.056238059 -0.097203627 4288492336
-0.34129426 0.057138395 -0.096839018 4288492597
-0.34105763 0.058037195 -0.096475147 4288230712
-0.34103531 0.059014846 -0.096463807 4288036676
-0.34101298 0.059992574 -0.096452467 4289230927
-0.34120488 0.061052654 -0.096793659 4290822033
-0.34161213 0.062198173 -0.097489268 4291285745
-0.34202087 0.063347869 -0.098187387 4292137458
-0.3430829 0.064760149 -0.099960774 4292203764
-0.3459259 0.066894799 -0.10466577 4292267764
-0.34523585 0.067623459 -0.10355593 4292268531
-0.34700036 0.069350049 -0.10648645 4292135667
-0.35511407 0.073713027 -0.1198696 4292136436
-0.35309392 0.0030016284 -0.11667299 4289509335
-0.35260037 0.0039560916 -0.11588676 4289770213
-0.35210863 0.0049070921 -0.11510347 4289837029
-0.35161871 0.0058546127 -0.11432303 4289705701
-0.35043654 0.0066933874 -0.11240226 4289641447
-0.34926525 0.0075245248 -0.11049916 4290035175
-0.34810469 0.0083480924 -0.10861349 4290166502
-0.34606045 0.0090176323 -0.10527174 4290034662
-0.34404942 0.0096763847 -0.10198431 4289969640
-0.34337136 0.010548328 -0.10089274 4290231273
-0.34248039 0.011377503 -0.099450283 4290364404
-0.34202614 0.012278375 -0.098727219 4290496248
-0.34157348 0.013176085 -0.09800677 4290561533
-0.34133667 0.014111023 -0.097641893 4291153407
-0.34131438 0.015085558 -0.097630613 4291418623
-0.34107798 0.016018074 -0.097266406 4290891007
-0.34084198 0.016949015 -0.09690278 4290563327
-0.34081972 0.017922018 -0.096891537 4291549439
-0.34058419 0.018850558 -0.09652862 4292273919
-0.34034905 0.019777531 -0.096166342 4292601599
-0.33990222 0.020656904 -0.095454901 4292863743
-0.3396683 0.021579957 -0.095094569 4292864255
-0.33943477 0.022501424 -0.094734788 4292865023
-0.33941266 0.023469664 -0.094723582 4292996351
-0.33939052 0.024437992 -0.094712377 4293126655
-0.33936837 0.025406377 -0.094701171 4292995327
-0.33913538 0.026323915 -0.094342127 4292799743
-0.33932409 0.027343357 -0.094678767 4292997887
-0.33972478 0.02841749 -0.095365129 4293325567
-0.3401269 0.029495534 -0.096053913 4293456383
-0.34031737 0.030522522 -0.096393585 4293719551
-0.34050816 0.031551454 -0.096733838 4293785599
-0.3404859 0.032525491 -0.096722573 4293850623
-0.340038 0.033384666 -0.096008912 4293917439
-0.33959168 0.034240872 -0.095297754 4294177791
-0.33914691 0.035094097 -0.094589099 4294113535
-0.33849379 0.035885081 -0.093536444 4293916927
-0.33805296 0.036731757 -0.092834033 4293982975
-0.33782211 0.037636109 -0.092478208 4294243839
-0.3373836 0.038477637 -0.0917795 4294244863
-0.3373616 0.039440226 -0.091768362 4294041592
-0.33733958 0.0404029 -0.09175723 4293692596
-0.33731759 0.041365664 -0.091746092 4289019565
-0.33750355 0.042393196 -0.092078403 4289021520
-0.3374815 0.043356925 -0.092067264 4289806160
-0.33766779 0.044387229 -0.092400089 4289806402
-0.33806339 0.045487039 -0.09307877 4289149250
-0.33825064 0.046522129 -0.093413383 4289084221
-0.33906966 0.047768496 -0.094791569 4288689980
-0.33947018 0.048881397 -0.095478654 4288624953
-0.34029788 0.050142992 -0.096871607 4288558392
-0.340489 0.051192675 -0.097212873 4288558644
-0.34089458 0.052318852 -0.097908653 4288492596
-0.3408722 0.053297888 -0.097897336 4288427571
-0.34084982 0.054276988 -0.097885996 4288492594
-0.34082744 0.055256139 -0.097874679 4288558130
-0.34080505 0.056235388 -0.097863339 4288492337
-0.34056857 0.057135761 -0.097498178 4288493109
-0.34033257 0.058034621 -0.097133718 4288296759
-0.34031022 0.059012294 -0.097122416 4288103243
-0.34028789 0.059990089 -0.097111091 4289429857
-0.34047911 0.061050188 -0.097452894 4291150743
-0.34088504 0.062195767 -0.098149702 4291416820
-0.34129244 0.063345484 -0.098849028 4291941109
-0.34256852 0.064844251 -0.10098489 4292007414
-0.345631 0.067071468 -0.10607512 4292268021
-0.34494048 0.067801028 -0.10495941 4292269043
-0.34670603 0.069532149 -0.10790563 4292266995
-0.35434553 0.073710755 -0.12056767 4292268531
-0.35233587 0.002996231 -0.11736163 4289509847
-0.35160992 0.0039180326 -0.11618735 4289966821
-0.35135335 0.0049017756 -0.11578959 4290034149
-0.35063282 0.005815025 -0.11462406 4289902309
-0.34968606 0.0066882274 -0.11308399 4289904615
-0.3487463 0.0075550489 -0.11155525 4290035431
-0.34736106 0.0083430409 -0.10928902 4290100966
-0.34532288 0.0090126805 -0.10594177 4290231270
-0.34375554 0.0097452421 -0.10337348 4290298600
-0.34264171 0.01054352 -0.10155558 4290756073
-0.34175333 0.011372768 -0.10011076 4290954228
-0.34130034 0.012273678 -0.099386528 4290889464
-0.34084898 0.013171457 -0.098664917 4290891261
-0.34061274 0.014106427 -0.098299503 4291154687
-0.34059045 0.015080991 -0.098288231 4291288319
-0.34056816 0.01605564 -0.098276988 4291153663
-0.34033239 0.016987411 -0.097912215 4291088127
-0.3403101 0.017961342 -0.097900979 4291746303
-0.34007475 0.018890725 -0.097536795 4292207103
-0.34005246 0.019863907 -0.097525574 4292403967
-0.33960533 0.020744752 -0.096810512 4292601343
-0.33937123 0.021669392 -0.096448287 4292667647
-0.33913758 0.02259245 -0.09608677 4292667903
-0.33890435 0.023513965 -0.095725872 4292799487
-0.33867145 0.024433894 -0.095365569 4292931071
-0.33864927 0.025402339 -0.095354386 4292996351
-0.33862713 0.02637084 -0.095343195 4293193215
-0.33860496 0.027339403 -0.095332026 4293326079
-0.33900434 0.028413588 -0.096019566 4293456895
-0.33940515 0.029491656 -0.096709527 4293522431
-0.34002021 0.030628644 -0.097754717 4293588223
-0.33999789 0.031603552 -0.097743459 4293653759
-0.33976275 0.032521751 -0.097379439 4293719039
-0.33974048 0.033495937 -0.097368181 4293785343
-0.33908227 0.034295309 -0.096302524 4293981183
-0.33863804 0.035149235 -0.095591545 4293982463
-0.33798566 0.03594083 -0.094535306 4293850879
-0.33754531 0.03678821 -0.093830533 4293916927
-0.3371065 0.037632667 -0.093128242 4294243327
-0.33687663 0.038535539 -0.092772499 4294244351
-0.33664715 0.039436877 -0.09241733 4294172921
-0.33662513 0.040399611 -0.092406213 4293827520
-0.33681047 0.04142626 -0.092739128 4288823229
-0.33699611 0.042454768 -0.093072586 4288824400
-0.33697405 0.043419406 -0.093061432 4289347152
-0.3373684 0.04451748 -0.093741298 4289347396
-0.33776414 0.045619532 -0.094423562 4289018691
-0.33816129 0.046725508 -0.095108196 4289018431
-0.33877078 0.04790571 -0.096145391 4288821054
-0.3391715 0.049020834 -0.096836202 4288821818
-0.33978641 0.050212573 -0.097882643 4288689721
-0.33997717 0.051263317 -0.098225154 4288624437
-0.34038222 0.052390657 -0.09892337 4288558131
-0.34014592 0.053295076 -0.098557025 4288558644
-0.3401235 0.054274198 -0.098545723 4288492596
-0.34010109 0.055253416 -0.098534428 4288492595
-0.34007871 0.056232687 -0.098523103 4288427059
-0.33984286 0.05713312 -0.098157376 4288427573
-0.33960745 0.05803201 -0.097792365 4288297014
-0.3395851 0.059009776 -0.09778107 4288171355
-0.33956271 0.059987564 -0.097769782 4289499530
-0.33975324 0.061047751 -0.098112196 4291482038
-0.34015787 0.062193327 -0.098810203 4291613694
-0.34077874 0.06342788 -0.099867605 4292071933
-0.34248865 0.065102138 -0.10273438 4292072955
-0.3448891 0.067069128 -0.10674896 4292202233
-0.3450889 0.068160355 -0.10710741 4292203506
-0.34573641 0.069437645 -0.10820992 4292267506
-0.35215268 0.073116876 -0.11889903 4292202735
-0.35157773 0.0029908016 -0.11805037 4289509069
-0.35085386 0.0039126794 -0.11687417 4289968353
-0.35059798 0.004896489 -0.11647579 4290034401
-0.3501108 0.0058441213 -0.11569287 4289902817
-0.34916511 0.00671806 -0.11414744 4289904865
-0.34799853 0.0075499355 -0.11223456 4290035169
-0.34661737 0.0083380155 -0.10996459 4290100970
-0.34436405 0.008971259 -0.10624398 4290232813
-0.34280416 0.0097034816 -0.10367614 4290299379
-0.34169555 0.010501254 -0.10185852 4290758134
-0.34102622 0.011368002 -0.10077129 4290954999
-0.3405745 0.012268979 -0.1000459 4290889208
-0.3401244 0.013166825 -0.099323131 4290891261
-0.33988881 0.014101829 -0.098957144 4291155199
-0.33986646 0.015076452 -0.098945916 4291288319
-0.33984414 0.01605113 -0.09893468 4291217919
-0.33982179 0.017025899 -0.098923452 4291152895
-0.33979946 0.018000729 -0.098912224 4291811327
-0.33956435 0.018930972 -0.098546892 4292206591
-0.33954203 0.019905079 -0.098535679 4292404223
-0.33930731 0.020832906 -0.098170981 4292536063
-0.3388615 0.021712117 -0.097454786 4292601855
-0.33883923 0.022683829 -0.097443603 4292667391
-0.33860579 0.023606952 -0.097080827 4292733695
-0.33837277 0.024528466 -0.096718773 4292865279
-0.33835056 0.02549866 -0.096707582 4293062143
-0.33811796 0.026417859 -0.096346177 4293259007
-0.33851677 0.02749132 -0.097036079 4293391871
-0.33891705 0.028568676 -0.097728528 4293522687
-0.33910656 0.029595779 -0.098070011 4293522431
-0.33950892 0.030679923 -0.098766156 4293587967
-0.33948657 0.031655759 -0.098754905 4293587967
-0.33925173 0.032574769 -0.09838973 4293653503
-0.33901727 0.033492222 -0.098025128 4293719551
-0.33857194 0.034349855 -0.097309187 4293915647
-0.33812815 0.035204485 -0.096595787 4293916927
-0.33747652 0.035996664 -0.095535964 4293850367
-0.33682838 0.036784735 -0.094481774 4293916671
-0.33639079 0.037629221 -0.093778349 4294243327
-0.33595473 0.038470853 -0.093077421 4294244351
-0.33593267 0.039433554 -0.093066335 4294239740
-0.33591062 0.040396318 -0.093055233 4294027472
-0.33588856 0.041359141 -0.093044139 4288692428
-0.33628029 0.042451557 -0.09372279 4288692814
-0.3364656 0.043481991 -0.094057426 4289019726
-0.33685935 0.044581205 -0.09473969 4289019716
-0.33725455 0.045684371 -0.095424362 4288952643
-0.33765113 0.046791516 -0.096111462 4288952381
-0.33847082 0.048043389 -0.097504161 4289017660
