# .PCD v0.7 - Point Cloud Data file format
VERSION 0.7
FIELDS x y z rgba
SIZE 4 4 4 4
TYPE F F F U
COUNT 1 1 1 1
WIDTH 995
HEIGHT 1
VIEWPOINT 0 0 0 1 0 0 0
POINTS 995
DATA ascii
-0.34880292 0.031713862 -0.075023524 4291546622
-0.34888265 0.032627538 -0.074766688 4291743738
-0.34896234 0.033541266 -0.074509837 4291810038
-0.34904203 0.03445508 -0.074252978 4291809783
-0.34912175 0.035368949 -0.073996089 4291677688
-0.34920147 0.036282878 -0.073739178 4291480054
-0.34906223 0.037054755 -0.073181562 4291348467
-0.3489233 0.037825394 -0.072624922 4291151599
-0.34922156 0.038881402 -0.07266809 4291152102
-0.34952042 0.039939322 -0.072711378 4291019493
-0.35026005 0.041291021 -0.073356867 4290954209
-0.35122555 0.042797737 -0.074308924 4290689761
-0.35197425 0.044165358 -0.074962541 4290687710
-0.35295177 0.045691617 -0.075926095 4289900510
-0.35393623 0.047228746 -0.076896474 4289903307
-0.35630533 0.049713511 -0.079747811 4289900234
-0.3589524 0.052403815 -0.082970209 4289901260
-0.36069459 0.054490291 -0.084956855 4289572300
-0.36613509 0.059140231 -0.091953509 4289507272
-0.36746839 0.060978387 -0.093371302 4289572038
-0.36856109 0.062657461 -0.094459951 4289572033
-0.36966199 0.064349152 -0.095556699 4290096574
-0.3705146 0.065873109 -0.096315287 4290429127
-0.36062089 -0.0061191916 -0.11256541 4286858065
-0.35973176 -0.0055961758 -0.1108696 4286790976
-0.3590903 -0.0049651642 -0.10953809 4286803334
-0.35845235 -0.0043375362 -0.10821393 4288652450
-0.35757929 -0.003825641 -0.10654949 4289377226
-0.35718694 -0.0030924443 -0.10558731 4289835740
-0.356796 -0.0023618357 -0.10462862 4289967583
-0.35640651 -0.0016337971 -0.10367339 4289968352
-0.35554886 -0.0011360992 -0.10204048 4289902304
-0.35493037 -0.00052810146 -0.10075689 4289769952
-0.35385215 -0.00015120242 -0.098809898 4289639136
-0.35301295 0.00033603125 -0.097211957 4289573344
-0.35217974 0.00081985304 -0.095625468 4289507550
-0.35135248 0.0013002874 -0.094050214 4289573852
-0.35075623 0.001891294 -0.092810676 4289574109
-0.34993917 0.0023651198 -0.091255188 4289639133
-0.34912786 0.0028356311 -0.089710601 4289638623
-0.34854326 0.0034170598 -0.088494487 4289573088
-0.34818202 0.0041100937 -0.087601021 4289508065
-0.34760249 0.0046857614 -0.086395733 4289508067
-0.34702599 0.0052584931 -0.085196741 4289507811
-0.34688774 0.0060592117 -0.084626861 4289574371
-0.34674972 0.0068586026 -0.084057994 4289640169
-0.34661195 0.0076566897 -0.083490118 4289904114
-0.34647441 0.0084534204 -0.082923159 4290297837
-0.34633714 0.0092488602 -0.082357198 4289902051
-0.34641674 0.010161703 -0.082100622 4289045472
-0.34627965 0.010955079 -0.081535853 4289179353
-0.34635919 0.011867267 -0.081279457 4289511391
-0.34622225 0.012658623 -0.080715783 4289707766
-0.34608561 0.013448643 -0.080153137 4290365688
-0.34594917 0.01423738 -0.079591438 4290431487
-0.34602854 0.01514747 -0.079335645 4290891007
-0.3461079 0.016057616 -0.079079837 4290957055
-0.3464033 0.017092252 -0.079129048 4291153663
-0.34648275 0.018003328 -0.078872971 4291155455
-0.34677875 0.019040687 -0.078921996 4291546623
-0.34664166 0.019825671 -0.078360774 4291548159
-0.34693781 0.020864751 -0.078409314 4291547391
-0.34701732 0.021776868 -0.078152955 4291547903
-0.34731412 0.022818711 -0.078201383 4291284223
-0.3471764 0.023601314 -0.077640153 4291286015
-0.34725598 0.024513651 -0.077383727 4291481343
-0.34733552 0.025426045 -0.077127293 4291481083
-0.34741509 0.026338525 -0.076870829 4291218427
-0.34771225 0.027384628 -0.076918036 4291153147
-0.34757423 0.028163636 -0.076357841 4291152122
-0.34743649 0.028941367 -0.075798653 4291149561
-0.34729901 0.029717797 -0.075240403 4291215352
-0.34737846 0.030628998 -0.074984297 4291284476
-0.34767506 0.031677358 -0.075029664 4291482367
-0.3477546 0.032589506 -0.074773274 4291613179
-0.34761685 0.033363055 -0.074215852 4291678711
-0.34769633 0.034274522 -0.073959656 4291743734
-0.34755874 0.035046034 -0.073403358 4291677430
-0.34763819 0.035956882 -0.073147342 4291479285
-0.34771758 0.036867764 -0.072891332 4291348211
-0.34779704 0.037778713 -0.072635278 4290954993
-0.34787646 0.038689733 -0.072379239 4290889707
-0.34839109 0.039888997 -0.072721623 4290756841
-0.34912649 0.041238245 -0.073366039 4290756576
-0.35008633 0.042742208 -0.074316479 4290685661
-0.35105294 0.044256791 -0.075273603 4290617522
-0.35180247 0.045630794 -0.075930908 4289172918
-0.35255599 0.047012132 -0.076591648 4289117131
-0.3539938 0.048865288 -0.078185506 4289835212
-0.35660154 0.051530477 -0.081372365 4289901004
-0.35808316 0.05343648 -0.083016329 4289768908
-0.36416548 0.058540031 -0.090922959 4289702600
-0.3657316 0.060539752 -0.092667043 4289636807
-0.36706424 0.062386278 -0.094089523 4289572290
-0.36790404 0.063894786 -0.094839089 4289637823
-0.36849505 0.065232739 -0.095249034 4289706950
-0.35963994 -0.0059791948 -0.11285887 4286726993
-0.35899693 -0.005345393 -0.11151819 4286725696
-0.35835743 -0.0047150007 -0.11018492 4286742665
-0.35772148 -0.0040880288 -0.10885898 4288850854
-0.35708901 -0.0034644161 -0.10754031 4289771724
-0.35669717 -0.0027311421 -0.10657543 4290032861
-0.35630676 -0.0020004914 -0.10561406 4290164959
-0.35568222 -0.0013863506 -0.10431261 4290099681
-0.35506108 -0.00077550544 -0.10301823 4290033889
-0.35421064 -0.00028212185 -0.10139208 4290098145
-0.35336632 0.00020776938 -0.099777669 4290098657
-0.35207027 0.00046626793 -0.097509839 4289967073
-0.35124114 0.00094923237 -0.095923632 4289835742
-0.35019276 0.0013151312 -0.094022349 4289705181
-0.34915367 0.0016778545 -0.092137828 4289575133
-0.3483451 0.0021507747 -0.090590164 4289705693
-0.34776255 0.0027340204 -0.089371748 4289835999
-0.34718305 0.0033142252 -0.088159755 4289836000
-0.34660664 0.0038914864 -0.086954065 4289835745
-0.34625065 0.0045801476 -0.086067975 4289835747
-0.34589592 0.005266489 -0.085184895 4289835747
-0.3455424 0.0059504788 -0.084304899 4289902563
-0.34562203 0.0068639 -0.084048182 4289968873
-0.34548548 0.0076606278 -0.083481312 4290102258
-0.34534916 0.0084560448 -0.082915388 4290296813
-0.34542868 0.009368076 -0.082659066 4290030307
-0.34529248 0.010161446 -0.082094274 4289374946
-0.34537193 0.011072819 -0.081838138 4289707742
-0.34545138 0.011984251 -0.081581987 4290692580
-0.34531537 0.01277487 -0.081018604 4290760186
-0.34517959 0.013564172 -0.080456197 4291021563
-0.34525892 0.014474245 -0.080200426 4291088383
-0.34533826 0.015384369 -0.079944648 4291219199
-0.34541759 0.01629458 -0.079688832 4291220479
-0.34571239 0.017329453 -0.079738587 4291415807
-0.34579182 0.018240588 -0.079482518 4291418111
-0.34630352 0.019404868 -0.079838343 4291677439
-0.34595063 0.020063037 -0.07897035 4291679743
-0.3464627 0.021230619 -0.079325229 4291481855
-0.34654227 0.022143591 -0.079068646 4291483647
-0.34662184 0.023056615 -0.078812048 4291546623
-0.34648472 0.023839086 -0.078250304 4291548415
-0.34678105 0.024882896 -0.078298792 4291481343
-0.34686065 0.025796141 -0.078042135 4291416316
-0.34672335 0.026576426 -0.077481009 4291350267
-0.34680289 0.027488993 -0.077224545 4291350270
-0.3466658 0.028267287 -0.076664619 4291415551
-0.34652895 0.029044284 -0.076105654 4291480056
-0.34639233 0.029820004 -0.075547606 4291346932
-0.34647167 0.030730471 -0.07529173 4291282426
-0.34655106 0.031641029 -0.075035833 4291416319
-0.34641457 0.032414038 -0.074479185 4291613435
-0.34627834 0.033185761 -0.073923461 4291612151
-0.34635758 0.034094933 -0.073667951 4291612149
-0.34643683 0.035004161 -0.073412426 4291545843
-0.34651607 0.035913471 -0.073156878 4291478515
-0.34659535 0.036822829 -0.072901301 4291413491
-0.34667462 0.037732251 -0.072645724 4291151091
-0.3467539 0.038641755 -0.072390124 4291020275
-0.34748247 0.039983049 -0.073031425 4290558704
-0.34821483 0.041331433 -0.073676094 4290486238
-0.34917063 0.042834442 -0.074626796 4289759194
-0.35013312 0.044348065 -0.075584151 4289824592
-0.35087958 0.045721162 -0.076241694 4288631632
-0.35140628 0.046948995 -0.076595329 4288587977
-0.35260969 0.048643861 -0.077876538 4289770709
-0.35359633 0.050197124 -0.078857198 4289966797
-0.35620248 0.052877922 -0.082053512 4289768907
-0.35791788 0.05495628 -0.084023654 4289702603
-0.36376199 0.059932642 -0.091632381 4289637067
-0.3653273 0.061942086 -0.093382023 4289572552
-0.36615908 0.063443817 -0.094126813 4289637062
-0.36674464 0.064775988 -0.094533928 4289705414
-0.36783665 0.066472724 -0.095628917 4290891461
-0.35890299 -0.0057277596 -0.11350932 4286860114
-0.35826197 -0.0050945822 -0.11216686 4286858048
-0.35786465 -0.0043523866 -0.11118548 4286873752
-0.35722944 -0.0037257723 -0.10985557 4288850618
-0.35659775 -0.0031025456 -0.10853297 4289771733
-0.35620642 -0.0023691899 -0.10756542 4290033633
-0.35605305 -0.0015243331 -0.10694831 4290165220
-0.35542804 -0.00091034279 -0.10564083 4290099174
-0.35457236 -0.00041423892 -0.10399781 4290033640
-0.35372287 7.8333411e-05 -0.10236669 4290099433
-0.35264906 0.00045291858 -0.10041064 4290099432
-0.35090196 0.00048259474 -0.097475566 4289967592
-0.34985316 0.00085121643 -0.095563956 4289836007
-0.34881371 0.001216645 -0.093669347 4289705447
-0.34778345 0.0015788795 -0.091791399 4289575143
-0.34698182 0.0020509309 -0.090249039 4289705703
-0.34640434 0.0026329421 -0.089034759 4289836008
-0.34582993 0.0032119809 -0.087826818 4289836778
-0.34547532 0.0039018267 -0.086939201 4289836519
-0.34490582 0.0044751316 -0.085741982 4289836772
-0.34476972 0.0052744593 -0.085173167 4289837284
-0.34441879 0.0059573422 -0.084294744 4289903589
-0.34449825 0.0068692155 -0.084038503 4289970155
-0.34436285 0.007664592 -0.083472557 4290102263
-0.34422773 0.0084586674 -0.082907654 4290296304
-0.34430707 0.0093691843 -0.082651801 4290031839
-0.3443864 0.010279745 -0.082395911 4289444582
-0.34446576 0.01119037 -0.082140021 4289774587
-0.34454513 0.012101073 -0.081884101 4290825979
-0.34462449 0.013011856 -0.081628144 4290892286
-0.34427506 0.013679502 -0.080758736 4291154174
-0.3443543 0.014588847 -0.080503196 4291154175
-0.34443352 0.015498226 -0.080247663 4291285503
-0.34472722 0.016531531 -0.080297902 4291286527
-0.34480655 0.017441858 -0.080042087 4291482111
-0.34510079 0.018477853 -0.080092147 4291483903
-0.3456113 0.019642629 -0.080449007 4291679487
-0.34525961 0.020300386 -0.079579979 4291679999
-0.34577042 0.021468451 -0.079935938 4291481855
-0.34606627 0.022510953 -0.079985932 4291484159
-0.34614593 0.02342484 -0.07972911 4291678975
-0.34600911 0.024207719 -0.079166152 4291679743
-0.34608871 0.025120949 -0.078909524 4291482111
-0.34616828 0.026034236 -0.078652874 4291417086
-0.34603152 0.026814347 -0.078091249 4291481597
-0.34611106 0.027726978 -0.077834785 4291481598
-0.34554356 0.028236693 -0.076667979 4291612671
-0.3454079 0.029012408 -0.076110005 4291678716
-0.34527248 0.029786896 -0.075552955 4291415290
-0.3453517 0.030695824 -0.075297534 4291282171
-0.34543088 0.031604838 -0.075042091 4291414525
-0.34508139 0.032239497 -0.074186638 4291546876
-0.34516048 0.033147074 -0.073931597 4291480315
-0.34523955 0.034054708 -0.073676541 4291415032
-0.34531868 0.034962427 -0.073421456 4291414772
-0.34539777 0.035870198 -0.073166363 4291478515
-0.34569135 0.036919042 -0.073209867 4291477746
-0.34577057 0.037827738 -0.072954498 4291409639
-0.34606481 0.038879365 -0.072997853 4291214023
-0.34679154 0.040221348 -0.073640756 4290089416
-0.34752208 0.041570388 -0.074287027 4289878965
-0.34825644 0.042926535 -0.074936643 4287328433
-0.34921485 0.044439226 -0.075894244 4287315278
-0.34973681 0.045660477 -0.076246053 4286859595
-0.35048285 0.047038361 -0.076905914 4286806453
-0.35145673 0.048577733 -0.077878021 4289637060
-0.35221198 0.049972013 -0.078546233 4290294219
-0.35365304 0.051847793 -0.08015617 4289768652
-0.35603449 0.054389976 -0.083054692 4289572299
-0.35798717 0.056646936 -0.085357718 4289572043
-0.36311263 0.061155189 -0.092007123 4289572552
-0.36467433 0.063171536 -0.093758814 4289571526
-0.36525548 0.064499564 -0.094164133 4289571526
-0.36633888 0.066190556 -0.09525466 4290953157
-0.35816601 -0.005476275 -0.11415982 4287721564
-0.35752699 -0.0048437524 -0.1128156 4287715148
-0.35713097 -0.0041019539 -0.11183302 4287724441
-0.35673648 -0.0033628121 -0.11085412 4289111997
-0.35634342 -0.0026263057 -0.10987876 4289705942
-0.35618934 -0.0017781323 -0.10925728 4290033633
-0.35556164 -0.0011612184 -0.1079387 4290164964
-0.35470229 -0.00066240446 -0.10628134 4290164454
-0.35384923 -0.00016713563 -0.10463599 4290165224
-0.35300234 0.00032457648 -0.10300257 4290099689
-0.35170236 0.00058364554 -0.1007071 4290098921
-0.34996358 0.00061242381 -0.097772531 4290032872
-0.34891987 0.00098017626 -0.095861308 4290033127
-0.34766349 0.0012315968 -0.093642354 4289902311
-0.34664005 0.0015931881 -0.09176784 4289771495
-0.34606245 0.0021774122 -0.090547435 4289836263
-0.34548789 0.0027586122 -0.089333422 4289967848
-0.34469995 0.0032234557 -0.087810457 4289968874
-0.34434786 0.0039121322 -0.086924411 4290033895
-0.343997 0.0045984392 -0.086041436 4290034404
-0.34386179 0.0053970409 -0.085472897 4290099940
-0.34372681 0.0061943368 -0.084905334 4290100965
-0.34359205 0.0069902847 -0.08433868 4290167532
-0.34345758 0.0077849217 -0.083773032 4290234360
-0.34353688 0.0086954143 -0.083517201 4290362608
-0.34361622 0.0096059609 -0.083261356 4290361055
-0.34369555 0.010516588 -0.083005473 4290429415
-0.34377486 0.011427274 -0.08274959 4290630143
-0.34385419 0.012338013 -0.082493693 4291416319
-0.34393355 0.013248832 -0.08223775 4291416831
-0.34358528 0.013916158 -0.081367284 4291482367
-0.3434512 0.014703265 -0.080805555 4291482879
-0.34374374 0.015734952 -0.080856226 4291416575
-0.34382296 0.016644478 -0.080600671 4291417087
-0.3439022 0.017554047 -0.080345079 4291482111
-0.3444097 0.018715153 -0.080701806 4291483391
-0.34470385 0.019753288 -0.08075244 4291483647
-0.34478331 0.02066543 -0.080496147 4291482879
-0.34507808 0.021706326 -0.08054667 4291481855
-0.3455894 0.022878971 -0.080904879 4291483135
-0.34566909 0.023793688 -0.080647841 4291679487
-0.34553254 0.024577003 -0.080083609 4291680255
-0.34561217 0.025491063 -0.079826765 4291482623
-0.34590819 0.026538286 -0.079876646 4291416831
-0.34555539 0.02718576 -0.079007044 4291416063
-0.34520382 0.027831012 -0.078140378 4291416575
-0.34485346 0.028474115 -0.077276699 4291678719
-0.34450433 0.029115068 -0.07641606 4291809791
-0.34436974 0.029888809 -0.075859196 4291678975
-0.34444886 0.030797021 -0.075603999 4291611900
-0.34431449 0.031568795 -0.07504832 4291414522
-0.34418038 0.032339301 -0.074493609 4291284220
-0.34425935 0.033246141 -0.074238814 4291349503
-0.34433836 0.034153052 -0.073983982 4291545851
-0.34463075 0.03519943 -0.074028172 4291414773
-0.34470984 0.036107264 -0.073773079 4291149043
-0.34478894 0.037015159 -0.073517978 4290946031
-0.34508198 0.038065132 -0.073561758 4290352597
-0.34559038 0.039260283 -0.073905371 4290285670
-0.34631652 0.040604457 -0.074551217 4289347682
-0.34704643 0.041955732 -0.075200424 4289351992
-0.34778017 0.04331414 -0.075853013 4287246648
-0.34851778 0.044679731 -0.076508991 4287314229
-0.34903845 0.045901474 -0.076861903 4286854453
-0.34978262 0.047280058 -0.077523395 4286803294
-0.35053074 0.048665989 -0.07818836 4289438822
-0.35128284 0.050059319 -0.078856848 4290228411
-0.35226473 0.051617786 -0.079840995 4289768919
-0.35370994 0.053507492 -0.08146213 4289572304
-0.35609826 0.056071546 -0.084380195 4289572555
-0.3616485 0.060891442 -0.091648042 4289572809
-0.36319771 0.062900811 -0.093392909 4289571782
-0.36402124 0.064401217 -0.094135694 4289571520
-0.36509803 0.066088744 -0.095224097 4290821559
-0.35767019 -0.005112377 -0.11516976 4287725487
-0.35727248 -0.0043673725 -0.11417927 4287797949
-0.35687619 -0.0036250001 -0.11319243 4287863246
-0.35648137 -0.0028853239 -0.11220916 4289111766
-0.35608807 -0.0021483006 -0.11122955 4289705697
-0.35569617 -0.0014139239 -0.11025352 4289968103
-0.35506925 -0.00079737784 -0.108931 4290164968
-0.35421091 -0.00029938066 -0.10726847 4290165480
-0.35312602 7.9958249e-05 -0.10527424 4290165738
-0.35251293 0.00068596436 -0.10397959 4290100203
-0.35098565 0.0008286442 -0.1013396 4290099434
-0.34902677 0.00074198487 -0.098068945 4290033898
-0.34798816 0.0011088935 -0.096158177 4290033896
-0.3467378 0.0013594697 -0.093939617 4289903079
-0.34571937 0.0017202462 -0.092065454 4289772011
-0.34514466 0.002303656 -0.090845346 4289837295
-0.34457302 0.0028840778 -0.089631625 4289969136
-0.34378889 0.0033481326 -0.088108927 4289969393
-0.34365347 0.0041498113 -0.087537147 4290034417
-0.34351829 0.0049502044 -0.086966336 4290035184
-0.34338334 0.0057492154 -0.086396471 4290100976
-0.3430348 0.0064313766 -0.085515954 4290101746
-0.3431142 0.0073433481 -0.085259721 4290169078
-0.34297997 0.0081384154 -0.084692746 4290233598
-0.34305933 0.0090497332 -0.084436707 4290360314
-0.34313869 0.0099611338 -0.084180646 4290427888
-0.34321806 0.010872591 -0.083924562 4290628852
-0.34329742 0.011784132 -0.083668463 4290827775
-0.34316322 0.012575008 -0.083103336 4291547647
-0.34324253 0.013485866 -0.082847424 4291547903
-0.34289548 0.014152809 -0.081975885 4291548415
-0.34276196 0.014939771 -0.081413634 4291548927
-0.34284109 0.015848489 -0.081158333 4291482367
-0.34292021 0.016757261 -0.080903009 4291482623
-0.34321228 0.017790893 -0.08095374 4291482623
-0.34350488 0.018826431 -0.08100459 4291483135
-0.34401208 0.01999086 -0.081362717 4291351807
-0.3440915 0.020903066 -0.081106432 4291351551
-0.34438568 0.021944199 -0.081157491 4291481599
-0.34489578 0.0231173 -0.081516765 4291482623
-0.34519142 0.024163226 -0.081568271 4291678463
-0.3450551 0.024946941 -0.081002712 4291680255
-0.34556732 0.026127566 -0.081362322 4291482367
-0.34499869 0.026643546 -0.080181301 4291416575
-0.34486285 0.027423933 -0.079617925 4291350783
-0.34451246 0.028068831 -0.078750201 4291351295
-0.34416327 0.028711593 -0.077885486 4291744511
-0.34360224 0.029217578 -0.076721571 4291940863
-0.34346855 0.029990623 -0.076164991 4291940863
-0.34333515 0.030762387 -0.075609371 4291940350
-0.34320191 0.031532899 -0.075054601 4291414012
-0.34306893 0.032302149 -0.074500844 4290824187
-0.34335971 0.033345051 -0.074545465 4291152379
-0.34343863 0.034251217 -0.074290864 4291675116
-0.34351754 0.035157476 -0.074036255 4291280340
-0.34380901 0.036203951 -0.074080512 4290483153
-0.34410092 0.037252303 -0.074124746 4289818051
-0.34439337 0.038302526 -0.074169092 4287590835
-0.34490055 0.039498121 -0.074513763 4287511388
-0.34562483 0.040842976 -0.075161196 4287183707
-0.34635296 0.042194936 -0.075811997 4287182135
-0.34708485 0.043554012 -0.076466218 4287115576
-0.34803998 0.045070291 -0.077430047 4287116341
-0.34856024 0.046293855 -0.077784859 4286919733
-0.34908235 0.047521781 -0.078140929 4286856539
-0.34960628 0.048754059 -0.078498185 4288582755
-0.35013208 0.049990796 -0.078856714 4289048759
-0.35133299 0.051703908 -0.080151342 4289637847
-0.35254461 0.053432349 -0.081457444 4289965520
-0.35468712 0.055827629 -0.084050074 4289769163
-0.35971171 0.060287312 -0.090625741 4289573065
-0.36197296 0.062805824 -0.093366064 4289703110
-0.36279151 0.064303227 -0.094107412 4289832128
-0.36410922 0.066165924 -0.095535181 4290884277
-0.35717344 -0.0047478103 -0.11618163 4288061615
-0.35677624 -0.0040026857 -0.11518838 4289177533
-0.35662037 -0.003146268 -0.11455689 4289638606
-0.35622531 -0.002406064 -0.11356933 4289507798
-0.35583168 -0.0016685318 -0.11258537 4289443553
-0.35543954 -0.0009335932 -0.11160505 4289771495
-0.35457587 -0.00043285929 -0.10992514 4289903080
-0.35348436 -5.1170035e-05 -0.10790969 4290034664
-0.35240278 0.00032710543 -0.10591254 4290165994
-0.3515611 0.00081715791 -0.1042745 4290231531
-0.35004115 0.00095894275 -0.10163502 4290296810
-0.3480916 0.00087136304 -0.098364964 4290165482
-0.34705803 0.0012374095 -0.096454516 4290100456
-0.34581369 0.0014871531 -0.094236359 4290166247
-0.34480017 0.0018470573 -0.092362568 4290231787
-0.34422842 0.0024297102 -0.091142744 4290231535
-0.34365964 0.0030093349 -0.089929335 4290166000
-0.34309384 0.0035860026 -0.088722251 4290166258
-0.34295902 0.0043875347 -0.088149935 4290231538
-0.34282443 0.0051877545 -0.087578602 4290232561
-0.34269005 0.0059866295 -0.087008223 4290298610
-0.34255594 0.0067842039 -0.086438835 4290562292
-0.34263542 0.0076970295 -0.086182393 4290890487
-0.34250149 0.0084925639 -0.085614182 4290627839
-0.34258091 0.0094047077 -0.085357927 4289967868
-0.34266031 0.010316966 -0.085101642 4290168820
-0.34273973 0.011229249 -0.084845357 4290956534
-0.34281915 0.012141625 -0.084589057 4291023359
-0.34268516 0.012932917 -0.084022582 4291286015
-0.34276453 0.013844633 -0.083766453 4291352831
-0.34220555 0.014389488 -0.082584567 4291351807
-0.34228474 0.01529897 -0.082329072 4291351807
-0.34215176 0.016085055 -0.081766501 4291548159
-0.34223086 0.016993862 -0.081511192 4291548159
-0.34252229 0.018027773 -0.081562467 4291417343
-0.34281427 0.01906357 -0.081613831 4291417343
-0.34353426 0.020355973 -0.082281373 4291416831
-0.34361371 0.021269009 -0.082024872 4291417343
-0.34412247 0.022440907 -0.082385689 4291481599
-0.34463301 0.023616999 -0.08274778 4291482367
-0.34471276 0.024533443 -0.082490325 4291481343
-0.34457681 0.025317565 -0.0819235 4291482879
-0.34487236 0.026366485 -0.081975356 4291547903
-0.34452069 0.027015412 -0.081100568 4291547903
-0.34417027 0.027662147 -0.08022885 4291482367
-0.34360725 0.028172519 -0.07905484 4291482623
-0.3432599 0.028814577 -0.078190371 4291744767
-0.34270167 0.029319922 -0.07702668 4291941375
-0.34256887 0.030092243 -0.076470338 4291940607
-0.34243628 0.030863328 -0.075914867 4291939839
-0.34230393 0.031633131 -0.075360395 4291215615
-0.34217185 0.032401681 -0.074806847 4290358523
-0.34225059 0.033306301 -0.074552715 4290357492
-0.34254038 0.034349289 -0.074597329 4290423251
-0.34283069 0.035394132 -0.074642025 4290284682
-0.34333381 0.036581475 -0.074986674 4289677944
-0.34341285 0.037489474 -0.074731596 4289353024
-0.34391788 0.03868261 -0.075076982 4287509054
-0.34442458 0.039879944 -0.075423501 4287445302
-0.34514827 0.041227028 -0.076073863 4287181110
-0.34587574 0.042581212 -0.076727659 4287182133
-0.346607 0.043942541 -0.077384837 4287115061
-0.34734213 0.045311082 -0.078045435 4287116340
-0.34786114 0.046535105 -0.078401364 4286918964
-0.34860283 0.047916669 -0.079067521 4286855994
-0.3491264 0.049150817 -0.079426765 4288504124
-0.34965175 0.050389361 -0.079787225 4289043624
-0.35062701 0.051947746 -0.08077389 4289638617
-0.35183543 0.053677309 -0.082082771 4289965778
-0.35420263 0.056238402 -0.085001148 4289768653
-0.3592225 0.060710095 -0.091601133 4289572555
-0.36075255 0.062711157 -0.093339361 4289703369
-0.36156622 0.064205602 -0.094079271 4289832130
-0.36312217 0.066243 -0.095845759 4290817971
-0.35691696 -0.0042690239 -0.11755805 4288061366
-0.35627902 -0.0036373402 -0.1161994 4289179077
-0.35612348 -0.0027804275 -0.11556641 4289639121
-0.35596821 -0.001925017 -0.11493456 4289508310
-0.35557434 -0.0011869337 -0.11394631 4289444065
-0.35518187 -0.00045149866 -0.11296164 4289706470
-0.35408157 -6.7641129e-05 -0.11092119 4289903600
-0.35275775 0.00019705806 -0.10855095 4290034421
-0.35167944 0.00057427539 -0.1065509 4290165744
-0.35084039 0.001063466 -0.10491056 4290231533
-0.34932494 0.001203764 -0.10226708 4290297072
-0.34738114 0.0011142811 -0.098991938 4290165490
-0.3463507 0.0014792881 -0.097078733 4290100720
-0.34511009 0.001727785 -0.094857283 4290232301
-0.34409964 0.0020866941 -0.092980757 4290297841
-0.3435297 0.0026687593 -0.091759339 4290232566
-0.34296274 0.0032478105 -0.090544291 4290167029
-0.34239873 0.0038239206 -0.08933562 4290166517
-0.3422645 0.0046253097 -0.088762768 4290232052
-0.34213051 0.0054253647 -0.088190928 4290298611
-0.34199673 0.0062240865 -0.087620005 4290364919
-0.34165055 0.0069054896 -0.086737379 4290628605
-0.34194264 0.007934358 -0.086793676 4291088379
-0.34180927 0.0087297186 -0.086224951 4290759670
-0.34188867 0.0096419267 -0.085968703 4289837816
-0.34196806 0.010554222 -0.085712448 4290169852
-0.34204745 0.011466569 -0.085456155 4291022589
-0.34212688 0.012379 -0.085199848 4291088127
-0.34220627 0.01329149 -0.08494354 4291219455
-0.34228569 0.014204031 -0.084687203 4291222527
-0.34172744 0.014748484 -0.083501883 4291286015
-0.34159476 0.015535722 -0.082937792 4291286271
-0.34167394 0.016445292 -0.082682282 4291547391
-0.34154147 0.017230507 -0.082119398 4291548159
-0.34183225 0.018264689 -0.082171224 4291350783
-0.3421236 0.019300736 -0.08222314 4291351551
-0.34284174 0.020593787 -0.082892291 4291481855
-0.34334913 0.021764526 -0.083254635 4291483135
-0.34385827 0.022939408 -0.083618268 4291482367
-0.34415343 0.023987016 -0.083671719 4291482367
-0.34423327 0.02490429 -0.083414048 4291351039
-0.34409755 0.025688844 -0.082845941 4291351807
-0.34439293 0.026739066 -0.082898654 4291547903
-0.34382683 0.027254002 -0.081712618 4291613951
-0.34347761 0.027900359 -0.080839843 4291613695
-0.34291634 0.028410174 -0.07966426 4291613695
-0.34257019 0.029051887 -0.078798741 4291810559
-0.34201375 0.029556645 -0.07763347 4291941887
-0.34167063 0.030193727 -0.076775141 4292006911
-0.34174949 0.031099744 -0.076520644 4292004862
-0.34140745 0.031733222 -0.075665705 4290884605
-0.34148619 0.032637823 -0.075411603 4289363432
-0.3417753 0.033680212 -0.075456977 4288635850
-0.34206492 0.034724467 -0.075502448 4287198896
-0.34256667 0.035910632 -0.075848617 4287184505
-0.34307018 0.037100967 -0.076196 4287184494
-0.34336221 0.038152914 -0.076242208 4287181887
-0.3438684 0.039350372 -0.076591112 4287050046
-0.34459123 0.040697202 -0.077245168 4287050550
-0.3451018 0.04190442 -0.077597246 4287115574
-0.34583101 0.043263994 -0.078256734 4287115829
-0.34656408 0.044630729 -0.078919657 4286983989
-0.34686279 0.045702595 -0.078968778 4286985524
-0.34738138 0.046928421 -0.0793266 4286787892
-0.34812242 0.048312284 -0.079995796 4286723386
-0.34864557 0.049548276 -0.080357008 4286995772
-0.34917054 0.050788678 -0.080719501 4287208611
-0.35014489 0.052349892 -0.081710272 4288918233
-0.35157865 0.054243669 -0.083341472 4290097362
-0.35510704 0.057641987 -0.08789736 4289965517
-0.35921201 0.061477747 -0.093248427 4289900236
-0.36050346 0.06331367 -0.09466181 4289965770
-0.36107412 0.064636067 -0.095066942 4290030275
-0.3626287 0.066677764 -0.096840598 4290821043
-0.35641801 -0.0039025769 -0.1185751 4288453558
-0.35578081 -0.0032712952 -0.11721236 4289113029
-0.35562554 -0.0024138584 -0.11657784 4289376977
-0.3554706 -0.0015579461 -0.11594451 4289573846
-0.35507721 -0.00081980857 -0.11495344 4289704417
-0.35468534 -8.43257e-05 -0.11396606 4290098918
-0.35358626 0.0002982716 -0.11191913 4290297072
-0.35203108 0.0004453412 -0.10919227 4290231286
-0.35095605 0.00082146109 -0.10718931 4290165745
-0.35011959 0.0013098236 -0.10554667 4290165997
-0.34860867 0.0014486063 -0.10289919 4290101232
-0.34689343 0.0014713457 -0.09995161 4290166259
-0.34586427 0.0018351706 -0.098032482 4290231793
-0.3444064 0.0019684648 -0.095478252 4290298094
-0.34318262 0.0022131528 -0.093276948 4290363634
-0.34261554 0.0027944352 -0.092055812 4290298615
-0.34205145 0.003372693 -0.090841085 4290233078
-0.34149033 0.0039480045 -0.08963269 4290429173
-0.34135696 0.0047486559 -0.089060105 4290756341
-0.34122384 0.005547924 -0.088488474 4290691828
-0.34109095 0.0063459217 -0.087917827 4290692856
-0.3409583 0.0071425685 -0.087348185 4290825471
-0.34124979 0.0081716962 -0.087405004 4291218172
-0.34111702 0.008966919 -0.086835772 4290822132
-0.34119639 0.009879197 -0.086579539 4289772535
-0.34127575 0.010791522 -0.086323284 4290103807
-0.34135512 0.011703936 -0.086067013 4291154175
-0.34143451 0.012616402 -0.085810713 4291220223
-0.3415139 0.013528921 -0.085554399 4291349759
-0.3415933 0.014441532 -0.085298076 4291352063
-0.34124842 0.015108139 -0.084420808 4291548159
-0.34090471 0.015772473 -0.083546594 4291548415
-0.34098387 0.016682133 -0.083291084 4291546879
-0.34106302 0.017591821 -0.083035566 4291548415
-0.34114215 0.018501604 -0.082780041 4291415807
-0.34185708 0.019791456 -0.083450057 4291416831
-0.3421492 0.020831624 -0.083503246 4291547135
-0.3424418 0.021873696 -0.083556443 4291548671
-0.34316328 0.023178177 -0.084231384 4291482879
-0.343243 0.024094636 -0.083973967 4291483135
-0.3435376 0.025143391 -0.084027708 4291352063
-0.34340248 0.025927769 -0.083459079 4291286783
-0.34369722 0.026978245 -0.083512351 4291613951
-0.34313291 0.027492614 -0.082324721 4291745279
-0.34278488 0.028138621 -0.081450887 4291679231
-0.3422254 0.028647879 -0.080273718 4291679487
-0.34188044 0.029289212 -0.079407156 4291876607
-0.34132573 0.029793404 -0.078240328 4292007935
-0.34119409 0.030565446 -0.077682957 4292007423
-0.34106261 0.031336188 -0.077126473 4292005372
-0.34114146 0.032242328 -0.076871961 4290813945
-0.34101018 0.033011116 -0.076316655 4289092535
-0.34129912 0.034054767 -0.076362886 4288562250
-0.34179953 0.035239764 -0.076710574 4287314759
-0.3423017 0.036428947 -0.077059463 4287314494
-0.34280556 0.037622258 -0.077409483 4287181373
-0.34309787 0.038676564 -0.077456899 4287181880
-0.34381863 0.040021613 -0.078113228 4287050040
-0.34432784 0.041227635 -0.078466855 4287050548
-0.3448388 0.042437978 -0.078821741 4287114804
-0.34535158 0.043652602 -0.079177856 4287115825
-0.346084 0.045021631 -0.079843812 4286983729
-0.3463825 0.046094824 -0.079893745 4286985519
-0.34690073 0.047322471 -0.080253556 4286787887
-0.34742072 0.048554484 -0.080614589 4286723382
-0.34794259 0.049790952 -0.080976918 4286923064
-0.34868839 0.051188719 -0.081653401 4287073426
-0.34966192 0.052752785 -0.082648471 4288852936
-0.35109434 0.054650497 -0.084286131 4290097612
-0.35392317 0.057558447 -0.087881133 4290031567
-0.35824117 0.061558079 -0.093557492 4289966029
-0.35976863 0.063567646 -0.095309757 4290031049
-0.36058101 0.065067336 -0.096056528 4290095562
-0.36188835 0.066933736 -0.097493395 4290756298
-0.35567722 -0.0036498064 -0.11922894 4288453805
-0.35528159 -0.0029045064 -0.11822727 4289111994
-0.35512665 -0.0020465832 -0.11759123 4289376203
-0.35497198 -0.0011901575 -0.11695636 4289573587
-0.35457915 -0.00045196732 -0.11596254 4289704153
-0.35395059 0.00016662238 -0.11461451 4290098141
-0.35308993 0.00066486758 -0.11291893 4290362089
-0.35130432 0.00069361675 -0.10983366 4290231538
-0.3502326 0.0010686715 -0.10782779 4290166000
-0.34917054 0.0014403982 -0.10584006 4290100975
-0.34766698 0.0015783013 -0.10319314 4290101490
-0.34595999 0.001600164 -0.10024612 4290167030
-0.3449358 0.001963112 -0.098327346 4290232563
-0.343485 0.0020955494 -0.095773607 4290297841
-0.3422671 0.0023394204 -0.093572699 4290363120
-0.34170294 0.0029198905 -0.092351854 4290298607
-0.34135503 0.0036109998 -0.091455609 4290233077
-0.34079573 0.0041857553 -0.090245627 4290495485
-0.34066296 0.0049862354 -0.089672528 4290888700
-0.34053037 0.0057853623 -0.089100368 4290823420
-0.34060982 0.0066990131 -0.088843778 4290758909
-0.34026602 0.0073796869 -0.087959036 4290956287
-0.34055689 0.0084090913 -0.088016406 4291282425
-0.34042469 0.0092041427 -0.087446645 4290886378
-0.34050402 0.010116452 -0.087190427 4289772269
-0.34058338 0.011028843 -0.086934172 4290103031
-0.34066275 0.011941292 -0.086677916 4291218169
-0.34074208 0.012853825 -0.086421639 4291220991
-0.34082147 0.013766407 -0.086165324 4291415551
-0.34090084 0.014679051 -0.085909016 4291416831
-0.34055713 0.015345286 -0.085030712 4291743999
-0.34021464 0.016009266 -0.084155425 4291745023
-0.34008336 0.016794905 -0.083591312 4291546623
-0.34016243 0.017703868 -0.083336018 4291548415
-0.34045199 0.01873856 -0.083388917 4291482111
-0.34095341 0.01990198 -0.083750956 4291482367
-0.34124443 0.020941386 -0.083804309 4291613183
-0.34153602 0.0219827 -0.083857782 4291614207
-0.34225446 0.023286399 -0.084532939 4291482623
-0.34254792 0.024333483 -0.084587149 4291484159
-0.34284186 0.025382489 -0.084641449 4291286527
-0.34270734 0.026166722 -0.084072284 4291221503
-0.34321627 0.027351739 -0.084437922 4291679743
-0.34265271 0.027865628 -0.083246864 4291876351
-0.3420921 0.028376902 -0.082061976 4291810559
-0.34174642 0.029020352 -0.081190057 4291745535
-0.34140193 0.029661629 -0.080321178 4292007935
-0.34084797 0.030165358 -0.07915099 4292204799
-0.3407166 0.030937798 -0.078592338 4292138751
-0.34079555 0.031845454 -0.078337416 4292070138
-0.34066436 0.03261593 -0.077779926 4290682612
-0.34074321 0.033522949 -0.077525213 4288370106
-0.34103239 0.034568898 -0.077572547 4288232522
-0.34153318 0.035756901 -0.077922948 4287904583
-0.34203571 0.03694905 -0.078274496 4287772734
-0.34275305 0.038288355 -0.078932412 4287377981
-0.34304607 0.039346024 -0.078981303 4287312952
-0.34376857 0.040696405 -0.079643331 4287050039
-0.34427896 0.041906808 -0.080000587 4287050804
-0.34479117 0.043121547 -0.080359086 4287180340
-0.3453052 0.044340637 -0.080718853 4287181617
-0.34582099 0.045564011 -0.081079826 4286918449
-0.34611979 0.046639644 -0.081130974 4286853679
-0.3464191 0.047717191 -0.081182174 4286918959
-0.34715888 0.049105674 -0.081857488 4286985269
-0.34746015 0.050189368 -0.081909455 4286856760
-0.34820533 0.051589493 -0.08258909 4286806416
-0.34917796 0.053156409 -0.083588317 4288653253
-0.35060906 0.055058017 -0.085232496 4290097099
-0.35506371 0.05914519 -0.091138981 4289965776
-0.35846788 0.062503152 -0.095551647 4289900749
-0.35927513 0.063997097 -0.096297741 4290031817
-0.36008689 0.065499403 -0.097047955 4290293196
-0.36139318 0.067369625 -0.09849079 4290891476
-0.35454208 -0.0026521448 -0.11887998 4289111481
-0.35462674 -0.0016785979 -0.11860658 4289310666
-0.35447237 -0.00082168391 -0.11797017 4289639123
-0.35408008 -8.342036e-05 -0.11697359 4289837273
-0.35345232 0.00053475762 -0.11562152 4289837020
-0.3523578 0.0009149448 -0.11356506 4289837544
-0.35034645 0.00082575734 -0.11012556 4289969393
-0.34905133 0.0010841474 -0.10777476 4290035440
-0.34799653 0.001455198 -0.10579087 4290101487
-0.34650299 0.0015927958 -0.103149 4290166771
-0.34502813 0.001728735 -0.10054013 4290363382
-0.34379011 0.0019768665 -0.098292418 4290560756
-0.34256512 0.0022224383 -0.096068434 4290494706
-0.34156761 0.0025787239 -0.094189964 4290428912
-0.34121901 0.0032722331 -0.093288176 4290429933
-0.34065855 0.0038493366 -0.092070222 4290560756
-0.34010103 0.0044235024 -0.090858638 4290692351
-0.33996886 0.0052238377 -0.090285003 4290955263
-0.34004834 0.0061382619 -0.090028211 4290955775
-0.33991632 0.0069365026 -0.089455731 4290955775
-0.33978453 0.0077334493 -0.088884257 4291021311
-0.3398639 0.008646477 -0.08862786 4291150584
-0.33973229 0.0094413571 -0.088057578 4290820326
-0.33981162 0.010353733 -0.087801367 4289968617
-0.33989093 0.011266189 -0.087545134 4290167795
-0.33997026 0.012178673 -0.087288886 4291216885
-0.34004962 0.013091235 -0.087032601 4291219967
-0.34012896 0.014003885 -0.086776309 4291350527
-0.33978656 0.014671274 -0.085896529 4291417343
-0.33944538 0.015336405 -0.08501979 4291481087
-0.33952445 0.016246086 -0.084764332 4291482623
-0.33939379 0.017031549 -0.084199682 4291611903
-0.33926332 0.017815735 -0.083636001 4291613695
-0.33934227 0.018724037 -0.083380938 4291351551
-0.33984086 0.019885467 -0.083742313 4291351551
-0.33991998 0.020795448 -0.083486758 4291548159
-0.3402096 0.021833993 -0.083539814 4291614463
-0.34113473 0.023264056 -0.084522925 4291613439
-0.34121421 0.02417824 -0.084266186 4291614719
-0.34193245 0.025488995 -0.084942974 4291417087
-0.34201214 0.026405688 -0.084685534 4291352319
-0.34251982 0.027591161 -0.085052274 4291614207
-0.34195805 0.028104488 -0.083859608 4291745279
-0.34161168 0.028750068 -0.082982317 4291745023
-0.34147868 0.029528968 -0.082416534 4291745791
-0.34092256 0.030034758 -0.081236862 4291942143
-0.34036937 0.030538015 -0.080063298 4292138751
-0.34023824 0.0313108 -0.079503365 4292072447
-0.34031722 0.032219328 -0.079248227 4292003828
-0.3403962 0.033127896 -0.078993089 4290614243
-0.3404752 0.034036562 -0.078737907 4288235443
-0.34076467 0.035084825 -0.078786455 4288166986
-0.34105459 0.036134977 -0.078835025 4287904071
-0.34176874 0.037471 -0.07949385 4287838527
-0.34227344 0.038670395 -0.0798494 4287377981
-0.34256619 0.039729368 -0.079899088 4287378227
-0.34371814 0.041374739 -0.081181534 4287049267
-0.34401372 0.042441748 -0.081232592 4287050799
-0.34452638 0.043659624 -0.081593916 4287180079
-0.34504077 0.044881813 -0.081956461 4287181360
-0.34533885 0.045956802 -0.082008414 4286917936
-0.34541923 0.04688137 -0.081748776 4286853681
-0.3459366 0.048112649 -0.082112476 4286984498
-0.34645581 0.049348377 -0.082477473 4286985265
-0.34697685 0.05058853 -0.082843743 4286854962
-0.34749976 0.051833127 -0.083211295 4286738296
-0.3486931 0.053560767 -0.084529877 4288521129
-0.34989715 0.055303924 -0.085860267 4290096829
-0.35340896 0.05872291 -0.090458609 4289965522
-0.35773426 0.062756628 -0.096198522 4289835472
-0.35878071 0.064427376 -0.097287633 4289966029
-0.35959184 0.065932333 -0.098041296 4290357713
-0.36089697 0.067806333 -0.099490091 4290893791
-0.35388714 -0.0014261473 -0.11925935 4289310404
-0.35373345 -0.00056940259 -0.11862233 4289638869
-0.3533425 0.00016843295 -0.11762457 4289837529
-0.35271677 0.00078594743 -0.11627071 4289772508
-0.35162562 0.0011650519 -0.11421128 4289772508
-0.34916064 0.00084169296 -0.1100682 4289904093
-0.34810144 0.0012151639 -0.10806675 4290035690
-0.34682664 0.0014699283 -0.10574188 4290101493
-0.34534308 0.0016072557 -0.10310507 4290166521
-0.34431803 0.0019715284 -0.1011668 4290428668
-0.34330204 0.0023326045 -0.099245667 4290626043
-0.3418625 0.0024627277 -0.096688487 4290560762
-0.34108227 0.0029316512 -0.095130414 4290429690
-0.34052068 0.0035111431 -0.093904428 4290495994
-0.33996201 0.0040877159 -0.092684872 4290626811
-0.33961773 0.0047757388 -0.091789648 4290758143
-0.33948582 0.0055765007 -0.091214709 4290955775
-0.33935416 0.0063759191 -0.090640761 4291021055
-0.33922273 0.0071740118 -0.090067744 4291085051
-0.33909151 0.007970795 -0.089495771 4291084531
-0.33917087 0.008883887 -0.089239374 4291079404
-0.33903983 0.0096786227 -0.08866857 4290885082
-0.3393296 0.010710261 -0.088726528 4290031839
-0.33919844 0.01150352 -0.088156141 4290233077
-0.33927777 0.012416095 -0.087899894 4291217654
-0.33935708 0.013328699 -0.087643638 4291219199
-0.33943641 0.014241384 -0.087387361 4291349503
-0.33909521 0.014908425 -0.086506508 4291352319
-0.33896461 0.015696332 -0.08593943 4291284991
-0.33883423 0.016482921 -0.085373275 4291285759
-0.33870414 0.017268246 -0.084808119 4291612671
-0.33836567 0.017927416 -0.083935477 4291613439
-0.3382363 0.0187096 -0.08337298 4291220479
-0.33852342 0.01974263 -0.083425775 4291220991
-0.3388111 0.020777522 -0.083478697 4291482623
-0.3390992 0.021814268 -0.083531633 4291548927
-0.33980814 0.023111964 -0.084203012 4291744511
-0.34009817 0.024154468 -0.084256701 4291810815
-0.34102455 0.025595339 -0.08524403 4291744511
-0.34131688 0.026644683 -0.085298859 4291679743
-0.34182331 0.027830636 -0.085666671 4291548671
-0.34147626 0.028478371 -0.084783956 4291482623
-0.34113038 0.029123932 -0.083904319 4291613951
-0.34078574 0.02976732 -0.08302775 4291745535
-0.3404423 0.030408546 -0.082154162 4291811071
-0.33988985 0.030911295 -0.080977224 4291810047
-0.33975902 0.03168451 -0.080416068 4291743487
-0.33983806 0.032593857 -0.080160715 4291674098
-0.33991709 0.033503275 -0.079905361 4290283998
-0.33999613 0.034412764 -0.079649985 4287645616
-0.34028536 0.035462312 -0.079699315 4287774282
-0.3405751 0.036513753 -0.07974872 4288166215
-0.3412886 0.037851959 -0.080410518 4288035135
-0.34200585 0.039197233 -0.081075788 4287509310
-0.34229892 0.04025856 -0.081126668 4287509811
-0.34345165 0.041909184 -0.082416721 4287114803
-0.3435317 0.042830266 -0.082158066 4287115567
-0.34426051 0.044199586 -0.082833111 4287245615
-0.34455791 0.04527396 -0.082885861 4287247152
-0.34507373 0.046502329 -0.083251603 4286983472
-0.3451542 0.047428563 -0.08299154 4286919218
-0.34523472 0.048354883 -0.082731426 4287050034
-0.34597194 0.049746383 -0.08341144 4287116081
-0.34627244 0.050831724 -0.083464913 4286919984
-0.34701505 0.052234873 -0.084149256 4286799215
-0.34798428 0.053805575 -0.085154928 4288452000
-0.34918514 0.055549886 -0.086488113 4290163382
-0.35176608 0.05830371 -0.089783229 4290163667
-0.35747933 0.06335929 -0.097526483 4290228434
-0.35828531 0.064858481 -0.098279439 4290424015
-0.35885334 0.06618759 -0.098692454 4290815956
-0.35314748 -0.0011736756 -0.11991218 4289113283
-0.35299444 -0.00031713065 -0.11927457 4289376213
-0.35260487 0.00042030556 -0.11827559 4289574361
-0.35174593 0.00091953541 -0.11656027 4289837532
-0.35066029 0.0012977234 -0.11450145 4290034650
-0.34843567 0.0010893805 -0.11070801 4290035160
-0.34715325 0.0013459709 -0.1083583 4290100968
-0.34610885 0.0017152618 -0.10637534 4290297591
-0.34485164 0.0019661069 -0.10407214 4290494459
-0.34382775 0.0023291544 -0.10212778 4290560254
-0.34259498 0.0025743991 -0.099869609 4290626046
-0.34137529 0.0028171104 -0.097635388 4290626813
-0.34081039 0.003399468 -0.096397407 4290561534
-0.34003517 0.00386436 -0.094843067 4290628095
-0.3394773 0.00444054 -0.093619965 4290823679
-0.33913356 0.0051286248 -0.092722371 4290757631
-0.33900192 0.0059297998 -0.092146091 4290626047
-0.33887056 0.0067296666 -0.091570824 4290360831
-0.3387394 0.0075282347 -0.090996563 4289768441
-0.33860844 0.0083254138 -0.090423241 4289432811
-0.33868784 0.0092393421 -0.090166651 4288452325
-0.33855709 0.01003452 -0.089594536 4288584657
-0.33842662 0.010828374 -0.089023411 4288587992
-0.33871579 0.011861113 -0.089081697 4289051126
-0.33858517 0.012653518 -0.088510975 4291087351
-0.33866447 0.013566183 -0.088254727 4291154431
-0.33874378 0.014478932 -0.08799845 4291414271
-0.33861321 0.015268547 -0.087429054 4291417087
-0.33848289 0.016056869 -0.086860716 4291219711
-0.33814394 0.016719781 -0.085982293 4291220223
-0.33801439 0.017504938 -0.085416622 4291548159
-0.33767712 0.018163761 -0.08454293 4291613951
-0.33754835 0.018945772 -0.083979927 4291351295
-0.33762714 0.019852679 -0.083725289 4291352063
-0.33749852 0.020632705 -0.083163455 4291417087
-0.33799258 0.021794626 -0.083523497 4291483391
-0.33869737 0.023090089 -0.084193721 4291678719
-0.33877647 0.02400039 -0.083938137 4291679487
-0.33990675 0.02556912 -0.085232928 4291678975
-0.3404094 0.026750078 -0.085599691 4291679743
-0.340489 0.027666157 -0.085342467 4291548671
-0.34035668 0.028447296 -0.08477366 4291482879
-0.34022459 0.029227147 -0.084205851 4291679487
-0.33988178 0.029869843 -0.083329484 4291811071
-0.33954021 0.030510381 -0.082456194 4291811071
-0.33919978 0.031148743 -0.081585884 4291875583
-0.33906955 0.031921811 -0.0810242 4291742719
-0.33914855 0.032831233 -0.080768868 4291607012
-0.33922759 0.033740673 -0.080513515 4290414007
-0.33930659 0.034650233 -0.080258138 4287642775
-0.33980516 0.035840459 -0.080613814 4287774277
-0.34009475 0.036893208 -0.080664113 4288165955
-0.34080762 0.03823363 -0.081328884 4288035129
-0.34152418 0.039581127 -0.081997134 4287509049
-0.34203058 0.040789615 -0.082358569 4287510068
-0.34318417 0.042445533 -0.083656304 4287114804
-0.34348029 0.043517336 -0.083709769 4287115570
-0.34399372 0.044741455 -0.08407674 4287245618
-0.34429136 0.045818236 -0.084130645 4287247152
-0.34458953 0.046897031 -0.084184684 4286983984
-0.34445232 0.047670752 -0.08361052 4286919474
-0.34453279 0.048597135 -0.083350427 4287050547
-0.34526813 0.049989309 -0.084032096 4287116340
-0.345568 0.051074903 -0.084086135 4286919988
-0.34630871 0.05247876 -0.084772132 4286797420
-0.34705338 0.053890169 -0.085461788 4288385181
-0.34802529 0.055471089 -0.086474806 4290164405
-0.34990799 0.057722125 -0.088788077 4290295767
-0.35650533 0.063438326 -0.097833246 4290490838
-0.35754818 0.065113246 -0.09892942 4290687445
-0.35811481 0.066442899 -0.099343665 4291148248
-0.35217088 -0.0010376767 -0.12020001 4289046205
-0.3517828 -0.0002989296 -0.11919934 4289310164
-0.35139614 0.00043712504 -0.11820229 4289508317
-0.35054326 0.00093545124 -0.11649045 4289836003
-0.34946507 0.0013129035 -0.11443571 4290099170
-0.34725535 0.0011048379 -0.11064978 4290100193
-0.34620667 0.0014765506 -0.10864935 4290100458
-0.34494436 0.0017295545 -0.10632556 4290362354
-0.34391639 0.0020949338 -0.10436415 4290625270
-0.34311691 0.0025721667 -0.10275511 4290626042
-0.3421053 0.0029310272 -0.10082524 4290626556
-0.34088707 0.0031721245 -0.098583966 4290626302
-0.34010887 0.0036394405 -0.097016484 4290626552
-0.3395488 0.004218223 -0.095783412 4290756591
-0.33899167 0.0047940188 -0.094556808 4290884316
-0.33864844 0.0054821279 -0.093656719 4290751678
-0.33830643 0.0061679012 -0.092759795 4290416562
-0.33796561 0.0068513504 -0.091866016 4289959323
-0.33783534 0.0076491302 -0.091291949 4288833942
-0.33749625 0.0083283596 -0.09040302 4288306312
-0.3375755 0.0092407539 -0.090146862 4286605712
-0.33765474 0.01015321 -0.089890711 4286742936
-0.33752507 0.010946284 -0.089319773 4287466661
-0.33781326 0.01197831 -0.089378327 4288000209
-0.33789253 0.012890952 -0.089122102 4290955480
-0.33797181 0.013803687 -0.088865869 4291024127
-0.33805108 0.014716468 -0.088609606 4291480319
-0.33771223 0.015382789 -0.087726675 4291481855
-0.33779138 0.016294124 -0.087470822 4291154431
-0.3374536 0.016956653 -0.086591348 4291154943
-0.33732462 0.017741675 -0.086025178 4291547903
-0.33698851 0.018400123 -0.085150436 4291549183
-0.3368603 0.019181993 -0.084586911 4291548159
-0.33693907 0.020088943 -0.084332302 4291548671
-0.33681104 0.020868797 -0.083769962 4291351551
-0.33709663 0.021903029 -0.08382301 4291286783
-0.33779848 0.023197686 -0.084493458 4291416575
-0.33787748 0.024107266 -0.08423809 4291483135
-0.33879283 0.025543034 -0.085221872 4291678975
-0.33929265 0.026721958 -0.085587993 4291744767
-0.33937207 0.027636478 -0.085331246 4291482879
-0.33945152 0.028551057 -0.085074484 4291352063
-0.33932033 0.029330207 -0.084506929 4291679743
-0.33897933 0.029972203 -0.08363083 4292007679
-0.33863959 0.030612057 -0.082757734 4292007679
-0.33850968 0.031386238 -0.082194589 4292072191
-0.33838001 0.032159138 -0.081632391 4291808511
-0.33845901 0.03306859 -0.081377074 4291275494
-0.33853799 0.033978101 -0.081121735 4290143925
-0.33882594 0.03502731 -0.081172392 4287642523
-0.33911437 0.036078397 -0.081223108 4287642181
-0.33961347 0.03727334 -0.081581101 4287706947
-0.34032565 0.038615968 -0.082248867 4287706937
-0.3408291 0.039820649 -0.082610168 4287377977
-0.34176129 0.041322552 -0.083594844 4287377972
-0.34291568 0.042983767 -0.084900334 4287180340
-0.34299597 0.043908224 -0.084640801 4287181362
-0.34350896 0.045134157 -0.085009709 4287114802
-0.34402379 0.04636449 -0.085379943 4287115824
-0.34410441 0.047292396 -0.085119419 4287049776
-0.3439675 0.04806656 -0.084543973 4287050546
-0.34404802 0.048993804 -0.084283665 4287050803
-0.34456423 0.050232299 -0.084652819 4287051317
-0.34486347 0.051318131 -0.084707402 4287051574
-0.3456023 0.052722678 -0.085395075 4287060841
-0.34634507 0.054134801 -0.086086392 4288452508
-0.34709182 0.055554509 -0.086781375 4290295731
-0.34896609 0.057804164 -0.089094773 4290361305
-0.39339733 0.091361172 -0.15249798 4290557145
-0.38918316 0.089286953 -0.14600429 4290755290
-0.38958207 0.090607233 -0.14613225 4291611612
-0.35096073 -0.0010182022 -0.12012307 4288521404
-0.35057554 -0.00028082443 -0.11912438 4289179092
-0.34995851 0.00033691237 -0.11776891 4289638623
-0.34911326 0.00083426741 -0.1160634 4289704166
-0.34827417 0.0013280589 -0.1143703 4289770981
-0.34630522 0.0012361073 -0.11093989 4289903076
-0.34503776 0.0014913066 -0.10859531 4290034410
-0.34400564 0.0018590613 -0.10661669 4290231024
-0.3429828 0.0022235813 -0.10465576 4290427380
-0.34240597 0.0028152391 -0.10338251 4290231800
-0.34139749 0.0031730533 -0.10144985 4290033403
-0.34039798 0.0035277728 -0.09953434 4289704190
-0.33962074 0.0039943052 -0.097962096 4289110772
-0.33906144 0.0045727212 -0.096725456 4288842214
-0.33850512 0.0051481146 -0.095495276 4288514761
-0.33816242 0.005836254 -0.094592802 4288440722
-0.33740115 0.0062901331 -0.093054235 4288372093
-0.33706218 0.006972821 -0.092160694 4288174670
-0.33693278 0.0077698547 -0.091586933 4287773257
-0.33680364 0.0085655777 -0.091014139 4287579195
-0.33688286 0.0094780149 -0.090758011 4286987844
