# .PCD v0.7 - Point Cloud Data file format
VERSION 0.7
FIELDS x y z rgba
SIZE 4 4 4 4
TYPE F F F U
COUNT 1 1 1 1
WIDTH 997
HEIGHT 1
VIEWPOINT 0 0 0 1 0 0 0
POINTS 997
DATA ascii
-0.36821201 0.040149122 -0.078385063 4292467952
-0.36824974 0.041126713 -0.078233689 4292596976
-0.36828744 0.042104363 -0.078082316 4292596715
-0.36808169 0.042966817 -0.077599488 4291875307
-0.3683629 0.044059895 -0.077779524 4291807207
-0.36864462 0.045155019 -0.077959888 4290822887
-0.36892685 0.046252232 -0.078140534 4290607285
-0.36970082 0.047591045 -0.078988723 4288764590
-0.37047905 0.048937276 -0.079841532 4288435567
-0.3715106 0.050414201 -0.081036925 4288116576
-0.36648241 0.0081466055 -0.084366992 4288560990
-0.36652005 0.0091227358 -0.084215879 4287049020
-0.36655769 0.010098929 -0.084064752 4286459695
-0.36635318 0.010988792 -0.083576448 4286721321
-0.36614904 0.011877135 -0.083089024 4286787370
-0.36570442 0.012676228 -0.082267433 4286655786
-0.3655014 0.013560764 -0.081782483 4286590507
-0.36529881 0.014443773 -0.081298441 4286589995
-0.36485729 0.015235604 -0.080482967 4286590250
-0.3641794 0.015934549 -0.079340108 4286590250
-0.3635051 0.016629828 -0.078203365 4286590764
-0.36306992 0.017412275 -0.077399224 4286853166
-0.3624016 0.018100658 -0.076272711 4287050543
-0.36197034 0.01887719 -0.075475536 4287247920
-0.36130792 0.019558737 -0.074359097 4287380277
-0.36088052 0.02032938 -0.073568873 4287642683
-0.36091733 0.021284129 -0.073421076 4287905086
-0.36095417 0.022238931 -0.073273249 4287849281
-0.36075935 0.023098642 -0.072805539 4287800189
-0.36102778 0.024148747 -0.072977602 4289381834
-0.36129671 0.025200756 -0.073149897 4291348435
-0.36133355 0.026156697 -0.073001914 4291546080
-0.36137041 0.027112694 -0.072853908 4291876068
-0.36163986 0.028168501 -0.07302621 4292008170
-0.36190984 0.029226249 -0.07319887 4292205037
-0.36241412 0.030387869 -0.073693544 4292271092
-0.36362714 0.031864364 -0.075161867 4292466675
-0.36461276 0.033248652 -0.076316006 4292599024
-0.36560553 0.034642942 -0.077478476 4292927217
-0.36636418 0.035938784 -0.078318112 4292861684
-0.36736956 0.037351787 -0.079495154 4292599284
-0.36765036 0.038440384 -0.079677165 4292600051
-0.36793163 0.039531037 -0.079859473 4292795891
-0.36796939 0.040510375 -0.079707853 4292795889
-0.36776355 0.041375738 -0.079222739 4292597745
-0.367558 0.042239606 -0.078738473 4292598511
-0.36711052 0.042986788 -0.077923656 4292662255
-0.36739057 0.044078957 -0.078103818 4292664042
-0.36742824 0.045055989 -0.077952556 4292331497
-0.36770883 0.046151169 -0.078132905 4292263359
-0.36823377 0.047367759 -0.078646265 4290541240
-0.36900583 0.048709746 -0.07949584 4290221954
-0.36978212 0.050059158 -0.080350026 4290154608
-0.36571553 0.0073041436 -0.085174277 4287782081
-0.36575314 0.0082802512 -0.08502318 4287247955
-0.36579075 0.0092564188 -0.084872082 4286721326
-0.36582837 0.010232679 -0.084720984 4286524970
-0.36562449 0.011122481 -0.084232099 4286721065
-0.36518037 0.011923634 -0.08340773 4286787113
-0.36497766 0.012809622 -0.082921341 4286655785
-0.3645359 0.013605717 -0.082101539 4286590506
-0.36433432 0.014487946 -0.081617609 4286655275
-0.36365715 0.015189534 -0.080470696 4286655786
-0.36298361 0.015887408 -0.079329923 4286524969
-0.36231372 0.016581606 -0.078195266 4286459692
-0.36188141 0.017362811 -0.077392593 4286722094
-0.36121744 0.01805013 -0.076268099 4286984750
-0.36078906 0.018825417 -0.075472429 4287051054
-0.36013091 0.019505961 -0.074357994 4287183155
-0.35970631 0.020275388 -0.073569134 4287511096
-0.35974303 0.021228481 -0.073421612 4287839290
-0.35977975 0.022181662 -0.073274083 4287849021
-0.35958627 0.023039965 -0.0728072 4287931258
-0.35985321 0.0240882 -0.072978981 4289382344
-0.36012053 0.025138358 -0.073150992 4291480789
-0.36015734 0.026092635 -0.07300327 4291744743
-0.36042523 0.02714566 -0.073175482 4292139245
-0.36069357 0.028200591 -0.073347956 4292205303
-0.36119485 0.029358324 -0.073842101 4292402166
-0.36169785 0.030520242 -0.074337907 4292468723
-0.36290762 0.03199739 -0.075809136 4292533234
-0.36412823 0.033487845 -0.077293552 4292599278
-0.36512008 0.034884304 -0.078460552 4292993009
-0.36563745 0.036073253 -0.078971848 4292993791
-0.36688262 0.037597232 -0.080485329 4292862975
-0.36740649 0.038798779 -0.081003539 4292862972
-0.36768806 0.039891779 -0.081187405 4292862459
-0.36772585 0.040872965 -0.08103554 4292796403
-0.3675198 0.041739617 -0.080548324 4292665075
-0.3673141 0.042604763 -0.080062002 4292664827
-0.36662406 0.043237172 -0.078910694 4292663291
-0.3661786 0.043981999 -0.078096308 4292664306
-0.36621618 0.04495734 -0.077945337 4292334833
-0.36625373 0.045932736 -0.077794373 4292264932
-0.36653277 0.047026824 -0.077974267 4290756322
-0.36729741 0.048363082 -0.078818932 4290358732
-0.36806616 0.049706716 -0.079668216 4290229190
-0.36883917 0.051057748 -0.080522113 4290229446
-0.36498624 0.0074377377 -0.085830517 4287055996
-0.36502382 0.008413909 -0.085679434 4286328898
-0.36506137 0.0093901427 -0.085528366 4286524460
-0.36509898 0.01036646 -0.085377254 4286590249
-0.36465535 0.011169649 -0.08455009 4286721063
-0.36445293 0.012057127 -0.084062278 4286787113
-0.36401168 0.012855264 -0.083239667 4286655530
-0.363572 0.013650598 -0.082420059 4286590249
-0.36313397 0.014443156 -0.081603371 4286655529
-0.36246121 0.015143633 -0.080458529 4286721576
-0.36179203 0.01584042 -0.079319872 4286524968
-0.36112648 0.016533569 -0.078187272 4286394156
-0.36069709 0.017313542 -0.077386081 4286656302
-0.36026922 0.018090788 -0.076587692 4286853679
-0.35961184 0.018773861 -0.075469345 4286919727
-0.35918775 0.019545235 -0.074677832 4286920243
-0.35899463 0.020406473 -0.074209429 4287313975
-0.35880181 0.021266233 -0.073741764 4287708220
-0.35860941 0.022124605 -0.073274963 4287849282
-0.35864604 0.023076195 -0.073127687 4288063872
-0.35891184 0.024123581 -0.073299557 4289514448
-0.3589485 0.025076153 -0.073152132 4291679195
-0.35921484 0.026126392 -0.073324203 4292008941
-0.35948163 0.027178532 -0.073496513 4292533490
-0.35997984 0.028332407 -0.073990069 4292600058
-0.3604798 0.029490434 -0.074485369 4292796153
-0.36121458 0.03075501 -0.075305879 4292731638
-0.36289483 0.032443412 -0.077436998 4292599285
-0.36388049 0.033833615 -0.0786025 4292730867
-0.3648732 0.035233874 -0.079776354 4293124598
-0.36563188 0.036534935 -0.080624551 4293191679
-0.36663732 0.037954044 -0.081813224 4293518847
-0.36716166 0.039158493 -0.082334794 4293454077
-0.36744347 0.04025387 -0.082520209 4292928508
-0.36748132 0.041236877 -0.082368083 4292929270
-0.36727509 0.042104807 -0.081878819 4292861686
-0.36682603 0.042855665 -0.081054635 4292863482
-0.36613661 0.043488029 -0.079899602 4292663547
-0.36569163 0.044233114 -0.079082727 4292664307
-0.36524826 0.044975612 -0.078268722 4292400370
-0.36504591 0.045832727 -0.077787526 4292334821
-0.36508343 0.046806488 -0.077636816 4291412963
-0.36584198 0.048138592 -0.078478314 4291215311
-0.36660472 0.049477991 -0.07932435 4290820808
-0.36737159 0.050824761 -0.08017502 4290689991
-0.36421931 0.0065952274 -0.086637847 4289095020
-0.36425686 0.0075713764 -0.086486809 4286985548
-0.36429441 0.0085475799 -0.086335763 4286131252
-0.36433196 0.0095238723 -0.08618468 4286458666
-0.36436951 0.010500232 -0.086033612 4286524711
-0.36392722 0.011303235 -0.085205249 4286655526
-0.3634865 0.012103438 -0.084379911 4286721577
-0.36304736 0.012900816 -0.083557539 4286589994
-0.36237302 0.013607257 -0.082404412 4286524712
-0.36193785 0.014398511 -0.081589244 4286655783
-0.3612695 0.015097923 -0.080446526 4286787111
-0.36037156 0.015704332 -0.078981973 4286459431
-0.35994348 0.016485753 -0.078179389 4286328619
-0.35951692 0.017264444 -0.077379607 4286590766
-0.35909182 0.018040437 -0.076582663 4286853423
-0.3586683 0.01881378 -0.075788565 4286787888
-0.35824624 0.019584438 -0.074997246 4286788659
-0.35782567 0.020352462 -0.074208669 4287182901
-0.35786229 0.021303967 -0.074061431 4287577918
-0.35789889 0.022255534 -0.073914193 4287982153
-0.35770738 0.02311237 -0.07344766 4288458628
-0.35797212 0.024158927 -0.073619679 4289843675
-0.35800874 0.025110725 -0.073472396 4291877350
-0.35827395 0.02616008 -0.073644556 4292140792
-0.35853964 0.027211403 -0.073817089 4292665338
-0.3590357 0.028364342 -0.07431078 4292666111
-0.3597647 0.029622527 -0.075128697 4292797182
-0.36049753 0.030887516 -0.075950943 4292797435
-0.36217326 0.032576818 -0.07808613 4292730876
-0.36339381 0.03407399 -0.079584807 4292796927
-0.36438566 0.035476446 -0.080763303 4293191423
-0.36514369 0.036779374 -0.081614949 4293191935
-0.36614823 0.038200729 -0.082808301 4293454335
-0.36667213 0.039406784 -0.083332166 4293388799
-0.36695376 0.040503427 -0.083518721 4292995327
-0.36699161 0.041487359 -0.083366476 4292994559
-0.36702946 0.042471375 -0.083214216 4292795647
-0.36657995 0.043222986 -0.082386106 4292797689
-0.36564824 0.043739323 -0.080890387 4292598521
-0.36496329 0.044368275 -0.079737887 4292598773
-0.36452118 0.045110535 -0.078922734 4292400373
-0.36408067 0.045850258 -0.078110538 4292334828
-0.3641181 0.046823177 -0.077959999 4291547114
-0.36439443 0.047915295 -0.078139581 4291281885
-0.36515111 0.049250532 -0.078982435 4290887385
-0.36591193 0.050593078 -0.079829872 4290690509
-0.36740816 0.05231557 -0.081690989 4290361286
-0.3634899 0.0067288103 -0.087294184 4289021538
-0.36352742 0.0077049923 -0.087143168 4286852154
-0.36356494 0.0086812628 -0.08699213 4286000176
-0.36360246 0.0096575925 -0.086841092 4286393131
-0.36340052 0.01054799 -0.086350359 4286524713
-0.36296037 0.01135025 -0.085522212 4286589737
-0.36252174 0.012149676 -0.084697023 4286656042
-0.36208472 0.012946313 -0.083874829 4286589484
-0.36164927 0.013740151 -0.083055586 4286524457
-0.36098048 0.014442556 -0.081906877 4286721064
-0.36008197 0.015052374 -0.080434576 4286787113
-0.35942152 0.015747048 -0.079300061 4286459433
-0.35876459 0.016438078 -0.078171559 4286197803
-0.35834083 0.017215509 -0.077373236 4286525229
-0.35791859 0.017990289 -0.076577783 4286787374
-0.35749784 0.018762404 -0.075785063 4286722095
-0.3573063 0.019623563 -0.075316064 4286657073
-0.35711515 0.020483335 -0.074847929 4286986292
-0.3569243 0.02134162 -0.074380614 4287381824
-0.3567338 0.02219847 -0.073914059 4288115279
-0.35677031 0.023148509 -0.073767088 4289050765
-0.35680684 0.024098605 -0.073620096 4290237926
-0.35707051 0.025145214 -0.073792167 4292271084
-0.35733467 0.026193744 -0.073964484 4292468728
-0.35782769 0.027342826 -0.074457593 4292861690
-0.35809317 0.028396219 -0.074630931 4292862717
-0.35881898 0.029653437 -0.075448975 4292796925
-0.35978043 0.031020034 -0.076596059 4292862716
-0.3612169 0.032605447 -0.078406744 4292993533
-0.3626689 0.034208037 -0.080236927 4293060095
-0.36389717 0.035719469 -0.081752084 4293256703
-0.36465454 0.037024274 -0.08260721 4293258495
-0.36565816 0.038447864 -0.083805248 4293257727
-0.36618164 0.03965551 -0.084331475 4293258239
-0.36646301 0.040753406 -0.084519081 4293126143
-0.36625731 0.041623414 -0.084027015 4293125375
-0.36605194 0.042491905 -0.08353579 4292664575
-0.36560464 0.043242838 -0.082707904 4292665593
-0.36467725 0.04375869 -0.081212357 4292336377
-0.36399549 0.044387057 -0.080060057 4292271350
-0.36355555 0.045128692 -0.079245113 4292466165
-0.36311716 0.045867745 -0.078433059 4292466156
-0.3631545 0.046839852 -0.078282669 4292071146
-0.36342964 0.047931064 -0.078462385 4291937502
-0.36370531 0.049024303 -0.078642428 4291346649
-0.36446011 0.050362635 -0.079486661 4291084237
-0.36570212 0.051955376 -0.081005104 4290558150
-0.3627229 0.0058862488 -0.088101588 4288445668
-0.36276039 0.0068624048 -0.087950595 4288102752
-0.36279789 0.0078386497 -0.087799579 4286720812
-0.36283541 0.0088149533 -0.087648563 4286196780
-0.36287293 0.0097913444 -0.087497525 4286458924
-0.36267161 0.010681655 -0.087006219 4286590251
-0.36223274 0.011483742 -0.086176924 4286589739
-0.3617954 0.012282987 -0.085350566 4286655788
-0.36135966 0.013079424 -0.084527209 4286589229
-0.36069041 0.013784849 -0.083372556 4286524202
-0.36025858 0.014575162 -0.082556382 4286589992
-0.35936266 0.015184571 -0.081081763 4286655786
-0.35847309 0.015789701 -0.079617627 4286459180
-0.35781926 0.016480038 -0.078489333 4286263083
-0.35739753 0.017256767 -0.077691145 4286459179
-0.35697728 0.018030835 -0.076895781 4286655789
-0.3565585 0.018802233 -0.076103233 4286656302
-0.35636798 0.019662675 -0.075634442 4286656816
-0.35617778 0.020521684 -0.075166442 4287051570
-0.35598791 0.021379231 -0.074699238 4287513156
-0.35602438 0.022329219 -0.07455229 4288247642
-0.35606089 0.023279293 -0.074405342 4289315738
-0.3560974 0.024229448 -0.07425835 4290369784
-0.35636044 0.025276234 -0.074431002 4292205816
-0.35662392 0.026324907 -0.0746039 4292402936
-0.35711566 0.027474292 -0.075098164 4292795896
-0.35738051 0.028527837 -0.075272091 4292797177
-0.35833427 0.02988678 -0.076415524 4292731131
-0.35906324 0.031152595 -0.077241242 4292797183
-0.36049587 0.032738749 -0.079055391 4292993791
-0.36194393 0.034342099 -0.080889106 4293060095
-0.36340773 0.035962909 -0.082742698 4293321727
-0.36416441 0.037269615 -0.083601296 4293323775
-0.36492521 0.038583521 -0.084464602 4293322751
-0.3656902 0.039904695 -0.085332595 4293258239
-0.36572802 0.040889565 -0.085180268 4293190655
-0.36552295 0.041759498 -0.084687613 4293191166
-0.36531821 0.042627908 -0.0841958 4292664830
-0.36487222 0.043378633 -0.083366729 4292665337
-0.36394745 0.04389406 -0.081868827 4292336377
-0.36302939 0.044405822 -0.080381706 4292271351
-0.36259153 0.045146819 -0.079566926 4292401655
-0.36191908 0.045768242 -0.078425258 4292466410
-0.36172053 0.046621051 -0.077946119 4292069862
-0.36222988 0.04782787 -0.078454576 4291936991
-0.36274105 0.049039122 -0.078964852 4291348956
-0.36301607 0.050133452 -0.079145364 4291085526
-0.36448839 0.051844209 -0.080992661 4290557906
-0.36476669 0.052948199 -0.081176095 4290229450
-0.37854439 0.00043569403 -0.11490855 4288652721
-0.37355447 -7.1238806e-05 -0.10749008 4289046714
-0.37229973 0.00054633094 -0.10546637 4289112517
-0.36953428 0.00067919999 -0.101267 4289244871
-0.36781773 0.0011253842 -0.098583147 4289311182
-0.36636949 0.0016451422 -0.096288294 4289573328
-0.36493719 0.0021592763 -0.094018653 4289640665
-0.3635205 0.0026678133 -0.091773838 4289768411
-0.36283678 0.0034097794 -0.090584867 4289836238
-0.36239552 0.0042281756 -0.089745432 4289441738
-0.36195591 0.0050436575 -0.088908993 4289306569
-0.3617554 0.0059379721 -0.088416472 4287852745
-0.36179283 0.006913282 -0.088265643 4287315289
-0.36206833 0.0079723177 -0.088456057 4286655022
-0.36210582 0.0089486828 -0.088305041 4286393387
-0.36214328 0.0099251149 -0.088154048 4286589739
-0.36170492 0.01072923 -0.087321922 4286655787
-0.36150503 0.011617216 -0.086831696 4286589739
-0.36106899 0.012416284 -0.086004168 4286589994
-0.36063454 0.013212541 -0.085179649 4286589481
-0.3599672 0.013917646 -0.084023274 4286589737
-0.35930344 0.014619047 -0.082873061 4286524200
-0.3584117 0.01522779 -0.081398651 4286524715
-0.35729671 0.015743248 -0.079607345 4286459180
-0.35687548 0.016521946 -0.078806505 4286393643
-0.3564558 0.017297965 -0.078008555 4286459177
-0.35603756 0.018071312 -0.077213369 4286459179
-0.3556208 0.018841987 -0.07642097 4286524973
-0.35520551 0.019610036 -0.07563135 4286591023
-0.35501665 0.020467648 -0.075164206 4287051313
-0.3550531 0.021416776 -0.075017415 4287644740
-0.35508955 0.022365987 -0.074870609 4288510044
-0.35512599 0.023315281 -0.07472378 4289773717
-0.35516244 0.024264641 -0.074576959 4290698229
-0.35542434 0.025310557 -0.074749716 4292139766
-0.3559131 0.026456092 -0.075243391 4292337400
-0.35640356 0.027605738 -0.075738803 4292664825
-0.35666776 0.028659467 -0.075913303 4292665851
-0.35761899 0.030018933 -0.077059023 4292665340
-0.35834602 0.031285133 -0.077886477 4292731391
-0.35954171 0.032767236 -0.079374917 4292994303
-0.36098337 0.034369346 -0.081208751 4293061119
-0.36267874 0.036097769 -0.083398484 4293453055
-0.36343339 0.037404884 -0.084258907 4293454335
-0.36419222 0.038719214 -0.085124001 4293453823
-0.36471295 0.039927449 -0.085652657 4293455615
-0.36499295 0.041025721 -0.085841492 4293387263
-0.36503077 0.042010717 -0.085689165 4293388798
-0.36458445 0.042763922 -0.084855869 4292730366
-0.36413974 0.043514464 -0.084025629 4292664825
-0.36297876 0.043913294 -0.082189746 4292598521
-0.36230215 0.04454077 -0.081035882 4292598775
-0.36162925 0.045164924 -0.079888232 4292401399
-0.36119503 0.045902688 -0.079076543 4292335594
-0.36076239 0.046637852 -0.078267708 4291742438
-0.36103436 0.047725052 -0.078446843 4291543263
-0.36130679 0.0488143 -0.078626238 4291348700
-0.36157975 0.049905542 -0.078805961 4291283158
-0.36304027 0.051610462 -0.080646433 4291017426
-0.36331648 0.052711282 -0.080829084 4290754251
-0.36407292 0.054064833 -0.081682317 4290557124
-0.39091736 0.0024369988 -0.13513502 4289818736
-0.38154215 0.00068785204 -0.12130224 4288580712
-0.37589905 7.4470809e-06 -0.11289685 4288391089
-0.37124529 -0.00040940093 -0.10593438 4289047486
-0.37000847 0.00020630714 -0.10392933 4289179592
-0.36753079 0.00042064296 -0.10012968 4289311178
-0.36632824 0.0010241407 -0.098179251 4289377239
-0.36513674 0.0016221628 -0.096246682 4289377754
-0.3637138 0.0021355187 -0.093981482 4289376479
-0.36254615 0.0027226196 -0.092087425 4289372896
-0.36210459 0.0035437166 -0.091243699 4289376451
-0.36142656 0.0042814114 -0.090059422 4289636539
-0.36098906 0.0050960919 -0.089223191 4289766324
-0.36078957 0.0059895879 -0.088730872 4288245169
-0.36082694 0.0069641103 -0.088580191 4287709524
-0.36086434 0.0079386858 -0.088429488 4286786863
-0.36090171 0.0089133224 -0.088278785 4286393387
-0.36117613 0.0099733602 -0.088469021 4286524201
-0.36097652 0.010862827 -0.087977313 4286524458
-0.36054102 0.011663934 -0.08714705 4286524202
-0.36010712 0.012462239 -0.086319759 4286524455
-0.35990933 0.013345673 -0.085832164 4286524197
-0.35924393 0.014050449 -0.084674031 4286589991
-0.35834998 0.014662859 -0.083189227 4286524201
-0.3576929 0.015359859 -0.082045384 4286524715
-0.35635257 0.015785811 -0.07992392 4286459180
-0.35593337 0.016563781 -0.079123251 4286459177
-0.3552891 0.0172492 -0.078001253 4286459175
-0.35487363 0.018021334 -0.077207506 4286459178
-0.35423499 0.018700005 -0.076095477 4286525228
-0.35404712 0.019557638 -0.075628355 4286591278
-0.35385957 0.020413809 -0.075162008 4287051056
-0.3538959 0.021361327 -0.075015493 4287643972
-0.35415626 0.022402694 -0.075188406 4288442976
-0.35419264 0.023351194 -0.075041741 4289575062
-0.35422903 0.024299778 -0.074895062 4290500591
-0.35448989 0.025344867 -0.075067952 4292204274
-0.35520223 0.026587283 -0.075882919 4292337399
-0.35569143 0.027737223 -0.076379471 4292730617
-0.35618234 0.028891293 -0.076877765 4292731647
-0.35690361 0.030151097 -0.077702582 4292796415
-0.3576287 0.03141769 -0.078531772 4292797695
-0.35858926 0.032795675 -0.079693973 4292995071
-0.35979035 0.034290001 -0.081195906 4293061375
-0.36147511 0.036014866 -0.083381616 4293388543
-0.36222512 0.037319452 -0.084240444 4293454335
-0.3629792 0.038631201 -0.085103959 4293453567
-0.36349681 0.039837137 -0.085631579 4293455359
-0.36401629 0.041047532 -0.086161159 4293387519
-0.36405402 0.042031664 -0.086008988 4293388799
-0.36360985 0.042784184 -0.085175887 4292729599
-0.36340722 0.043650277 -0.084684573 4292730361
-0.36224949 0.044048555 -0.082845747 4292599032
-0.36157483 0.0446757 -0.081690118 4292599031
-0.36090386 0.045299556 -0.080540717 4292401143
-0.36023647 0.045920119 -0.079397522 4292335603
-0.35980591 0.046654657 -0.078588843 4291743730
-0.35960975 0.047504537 -0.078110851 4291543778
-0.36011389 0.048709873 -0.078618258 4291347930
-0.36038527 0.049799137 -0.078797698 4291282651
-0.36159989 0.051377993 -0.080302149 4291018204
-0.36163726 0.052352365 -0.080151476 4290820309
-0.36238641 0.053700086 -0.080999821 4290557902
-0.3624239 0.054677244 -0.080848709 4290295240
-0.38748178 0.0018014531 -0.13204259 4289617506
-0.38020533 0.00066501845 -0.12120928 4288378969
-0.37276796 -0.00057464687 -0.11015306 4288128952
-0.37023172 -0.00035022365 -0.10624489 4289049033
-0.3690007 0.00026469881 -0.10424028 4289246665
-0.36678305 0.00055718358 -0.10080256 4289374665
-0.36533779 0.0010810923 -0.098491229 4289376967
-0.36415192 0.0016783512 -0.096559078 4289179591
-0.36273566 0.0021909608 -0.09429422 4289111765
-0.36181259 0.0028567482 -0.092747509 4288980953
-0.36113411 0.003597622 -0.091556981 4288983245
-0.3604593 0.0043345345 -0.090372942 4289900489
-0.36002389 0.0051484783 -0.089536913 4290161603
-0.35982543 0.0060411571 -0.089044794 4288645056
-0.35986277 0.0070148259 -0.088894241 4288041332
-0.35990012 0.0079885572 -0.088743702 4286985047
-0.35993743 0.0089623807 -0.088593148 4286459448
-0.35997477 0.0099362573 -0.088442571 4286393130
-0.35977656 0.010824189 -0.087951794 4286393387
-0.35957867 0.01171058 -0.087461896 4286458667
-0.35914689 0.012508142 -0.086634785 4286458664
-0.35895014 0.013390748 -0.08614739 4286523942
-0.35805556 0.014006588 -0.084654637 4286524200
-0.35739809 0.014706597 -0.083504841 4286524201
-0.35651466 0.015314038 -0.082030833 4286524714
-0.35518292 0.015739484 -0.079913236 4286524715
-0.35454062 0.01642709 -0.07878916 4286524715
-0.35390168 0.017111093 -0.077671036 4286524714
-0.35348976 0.017881462 -0.076879963 4286459179
-0.35307923 0.018649187 -0.076091684 4286525229
-0.35289267 0.019505389 -0.07562539 4286591278
-0.35270646 0.020360176 -0.075159915 4287051056
-0.3527427 0.021306073 -0.07501369 4287643715
-0.35300153 0.022345616 -0.075186275 4288245341
-0.35303786 0.02329251 -0.075039871 4289181076
-0.35329717 0.024334857 -0.075212643 4290237422
-0.35378084 0.025475664 -0.075705864 4292269809
-0.35449126 0.02671849 -0.076522529 4292467705
-0.35497919 0.027868722 -0.07702022 4292927738
-0.35546884 0.029023055 -0.077519663 4292994815
-0.35618815 0.030283276 -0.078346223 4293124863
-0.35691133 0.031550255 -0.079177141 4293127423
-0.35763839 0.032824107 -0.080012523 4293125887
-0.35860151 0.034210976 -0.081183121 4293127167
-0.36027578 0.035932273 -0.083364874 4293257727
-0.36078468 0.037124511 -0.083885595 4293258751
-0.36177057 0.038543515 -0.085084029 4293453823
-0.3620463 0.03963457 -0.085271381 4293454591
-0.36328173 0.041183598 -0.086821929 4293453055
-0.36307895 0.042052604 -0.086328246 4293455359
-0.36287659 0.042920094 -0.085835479 4293188607
-0.36267459 0.043786101 -0.085343607 4293189625
-0.3617577 0.044300217 -0.083838582 4292861432
-0.36084747 0.044810671 -0.082344398 4292796919
-0.36017841 0.045434192 -0.081193268 4292336119
-0.35951298 0.046054456 -0.080048315 4292204275
-0.35908365 0.046788797 -0.079238512 4291940338
-0.35888812 0.047638617 -0.078759961 4291872482
-0.35892522 0.048605841 -0.078610405 4291544794
-0.35919499 0.049693078 -0.07878948 4291348700
-0.36016724 0.051146779 -0.079959765 4290953181
-0.36020449 0.052118592 -0.079809524 4290689494
-0.36071196 0.053337965 -0.080322243 4290492623
-0.36098507 0.054436658 -0.080503985 4290295241
-0.38382497 0.0010924389 -0.12859151 4288960603
-0.37379053 -0.0009027177 -0.11367381 4287654221
-0.37148574 -0.00059435208 -0.11008402 4287406270
-0.3692199 -0.0002911159 -0.10655489 4288787667
-0.36749253 0.00016474912 -0.10381648 4289113546
-0.36578757 0.00061478146 -0.10111361 4289110216
-0.36434913 0.0011379228 -0.098802686 4289114297
-0.36341164 0.001813586 -0.097225241 4289309110
-0.36199939 0.0023255213 -0.094956748 4289375435
-0.36107901 0.0029908502 -0.093407631 4289442001
-0.3601653 0.003651438 -0.091869734 4289443286
-0.35972962 0.0044680405 -0.091029517 4289968343
-0.35906044 0.0052007511 -0.08985012 4290163155
-0.358863 0.006092635 -0.089358144 4289110993
-0.35890025 0.007065461 -0.089207768 4288641434
-0.35870314 0.0079550073 -0.08871679 4287513732
-0.35874039 0.0089271069 -0.088566527 4286984264
-0.35877761 0.0098992931 -0.088416241 4286655532
-0.35858083 0.010785699 -0.08792644 4286458924
-0.35838437 0.011670591 -0.087437451 4286393132
-0.35818833 0.012553946 -0.086949334 4286393385
-0.35776013 0.013347945 -0.086125389 4286458663
-0.3568714 0.013962881 -0.084635451 4286458920
-0.35621825 0.014661818 -0.083487779 4286458665
-0.35534054 0.015268357 -0.082016401 4286524714
-0.35401735 0.015693355 -0.079902634 4286524714
-0.35337922 0.016379908 -0.078780614 4286524717
-0.35274449 0.017062893 -0.07766448 4286524975
-0.35233527 0.017832059 -0.076874837 4286590767
-0.35170603 0.018508384 -0.07576859 4286656559
-0.35174224 0.019453365 -0.075622499 4286722352
-0.35155728 0.020306736 -0.075157858 4287182129
-0.35181466 0.021343559 -0.07533031 4287774528
-0.35185084 0.022288775 -0.075184211 4288376151
-0.35210869 0.023328397 -0.075356834 4289312394
-0.35236692 0.024369892 -0.075529732 4290369770
-0.3528485 0.025509825 -0.076023094 4292402416
-0.3535558 0.026751678 -0.076839909 4292533757
-0.35426688 0.0280002 -0.07766103 4292927997
-0.35475525 0.029154856 -0.078161612 4292929278
-0.35547265 0.03041544 -0.078989901 4293059326
-0.35596532 0.031579621 -0.079495005 4293061631
-0.35691902 0.032957092 -0.080659673 4293125375
-0.35764802 0.034238257 -0.081501275 4293127167
-0.35908064 0.035849951 -0.083348237 4293257727
-0.35982141 0.037149481 -0.084203884 4293259007
-0.36032999 0.038345158 -0.084726639 4293454847
-0.36084035 0.039545193 -0.085251249 4293454591
-0.36230734 0.041205257 -0.087140486 4293453567
-0.36210564 0.042073496 -0.086647011 4293455103
-0.36190432 0.04294024 -0.086154424 4293190399
-0.36170334 0.04380551 -0.0856627 4293189882
-0.36102769 0.044435617 -0.084495276 4292861177
-0.36012003 0.044945631 -0.082998753 4292796914
-0.35968733 0.045685846 -0.08217933 4292336112
-0.35902256 0.046306018 -0.081030704 4292204276
-0.35859373 0.047040619 -0.080218419 4292006646
-0.35816646 0.047772672 -0.0794091 4291872736
-0.3582035 0.048739962 -0.079259574 4291545301
-0.35800889 0.049587447 -0.078781374 4291348955
-0.35874218 0.050916813 -0.079619244 4291019487
-0.35877931 0.051886044 -0.079469427 4290690262
-0.35928285 0.053101819 -0.079980209 4290492108
-0.35932004 0.054072943 -0.079830103 4290294473
-0.3591238 0.054919049 -0.079349667 4290228933
-0.37456164 -0.0013152222 -0.11685176 4288434261
-0.37171713 -0.0011602835 -0.11244947 4286992968
-0.36969611 -0.00077221653 -0.10926235 4286748835
-0.36795747 -0.00031107533 -0.10649337 4288589237
-0.36624148 0.00014410456 -0.10376049 4288979910
-0.36479384 0.00067229226 -0.10142417 4288848842
-0.36336222 0.001194666 -0.099113688 4288786630
-0.36242917 0.0018695641 -0.097536542 4289375941
-0.36102358 0.0023807555 -0.095268428 4289574353
-0.36010754 0.0030453391 -0.093719579 4289902037
-0.35943425 0.0037851329 -0.092527553 4289968346
-0.35852975 0.0044405861 -0.090998426 4290033371
-0.3580986 0.0052529373 -0.090162821 4290098389
-0.35790217 0.0061440342 -0.089671016 4289636562
-0.35770616 0.0070335907 -0.089180134 4289437872
-0.35774335 0.0080047874 -0.08903002 4288245662
-0.35754761 0.0088920072 -0.088540092 4287709019
-0.35758474 0.009862476 -0.088390097 4286983479
-0.35738936 0.01074738 -0.087901182 4286590256
-0.35719433 0.011630756 -0.08741314 4286393388
-0.35699964 0.012512595 -0.086925946 4286262313
-0.3565743 0.013305298 -0.086103499 4286327592
-0.35592073 0.014007226 -0.084949858 4286393384
-0.35504252 0.014617199 -0.083470762 4286458920
-0.35417053 0.015222897 -0.082002148 4286459178
-0.35263202 0.015559199 -0.079567179 4286459179
-0.35222188 0.016332932 -0.078772135 4286459437
-0.35159126 0.017014878 -0.07765802 4286656303
-0.35118479 0.017782819 -0.076869823 4286853424
-0.35055965 0.018458148 -0.075765513 4286919473
-0.35059577 0.019401513 -0.075619712 4287050290
-0.35041213 0.020253494 -0.075155877 4287510324
-0.35066798 0.021288533 -0.075328074 4288167488
-0.35092428 0.022325423 -0.075500503 4288768085
-0.35118103 0.023364194 -0.075673267 4289705098
-0.35143825 0.024404882 -0.075846344 4290700015
-0.35191771 0.025543923 -0.076339826 4292862707
-0.35262194 0.026784834 -0.077156737 4292863229
-0.35332987 0.028032375 -0.077977993 4292928254
-0.35381612 0.0291861 -0.078478716 4292863230
-0.35430408 0.030343978 -0.078981228 4292731134
-0.35502091 0.031608988 -0.0798124 4292798207
-0.35551319 0.032776468 -0.080319494 4292994303
-0.35623649 0.034053754 -0.081157945 4293062399
-0.35742584 0.03555258 -0.082665078 4293388799
-0.35792688 0.036737856 -0.083181806 4293389823
-0.35866317 0.038037568 -0.084035508 4293454847
-0.35916868 0.039232783 -0.084556982 4293454591
-0.36062124 0.040885169 -0.086435631 4293388031
-0.36089617 0.041979592 -0.086624421 4293389311
-0.36069626 0.042844873 -0.086132735 4293190399
-0.36049673 0.043708701 -0.08564198 4293189626
-0.35982555 0.044338007 -0.084476747 4292861177
-0.35915798 0.044963963 -0.083317801 4292795378
-0.35849404 0.045586608 -0.082165085 4292466672
-0.35806572 0.04632315 -0.081350125 4292336116
-0.35763896 0.047057096 -0.080538012 4291941366
-0.35721374 0.047788512 -0.079728797 4291742689
-0.35725075 0.048754975 -0.07957942 4291676885
-0.35705718 0.049601763 -0.079101428 4291611611
-0.35755578 0.050808989 -0.079609782 4291282399
-0.35759282 0.051776525 -0.079460241 4290887382
-0.35762987 0.052744143 -0.079310685 4290623948
-0.35766688 0.05371182 -0.079161122 4290294730
-0.35770392 0.054679591 -0.079011552 4290163910
-0.35750976 0.055522237 -0.078533515 4289966276
-0.37142995 -0.0018882181 -0.11406376 4288039759
-0.36940727 -0.0014939577 -0.11085846 4286921538
-0.36741498 -0.0011055043 -0.10770126 4286747526
-0.36644927 -0.00040960984 -0.10606255 4288849814
-0.36524266 0.0002022891 -0.10407003 4289309378
-0.36404729 0.00080858159 -0.10209598 4289244108
-0.36261976 0.0013302701 -0.099781826 4289246163
-0.36193085 0.0020841635 -0.09855777 4289639637
-0.36052665 0.0025947127 -0.096282013 4289705944
-0.35961157 0.0032591578 -0.094728097 4289902553
-0.35893899 0.0039991033 -0.093532234 4289968863
-0.35803545 0.0046544047 -0.091998093 4290032865
-0.35713845 0.0053050667 -0.090474986 4290098135
-0.35694307 0.006195358 -0.089983426 4289703635
-0.35674804 0.0070840917 -0.089492664 4289570761
-0.35655338 0.0079713194 -0.089002803 4288780485
-0.35635903 0.0088570183 -0.088513836 4288307827
-0.35639611 0.0098258099 -0.088364124 4287182152
-0.3562021 0.010709186 -0.087876111 4286590262
-0.35623914 0.011677253 -0.087726511 4286458923
-0.35581511 0.01247143 -0.086902678 4286328106
-0.35562217 0.013350278 -0.08641728 4286393385
-0.35497174 0.01405149 -0.085263848 4286393384
-0.35409763 0.014660823 -0.083784938 4286393383
-0.35300457 0.015177565 -0.081987932 4286393899
-0.35147592 0.015513616 -0.079557367 4286524974
-0.35106856 0.016286111 -0.078763783 4286590766
-0.35044205 0.016967047 -0.077651657 4286787630
-0.34981886 0.017644489 -0.076545335 4286919217
-0.34941718 0.018408095 -0.075762488 4287051061
-0.34945321 0.019349875 -0.075616956 4287182392
-0.34927088 0.020200454 -0.075153977 4287511100
-0.34952527 0.021233663 -0.075325854 4288104772
-0.34978008 0.022268759 -0.075498022 4288767824
-0.35003537 0.023305736 -0.075670511 4290091911
-0.3505111 0.024439834 -0.076162413 4290897663
-0.35098851 0.025577979 -0.076656051 4292799999
-0.35168964 0.026817927 -0.077473134 4292863999
-0.35239446 0.028064523 -0.078294516 4292995071
-0.35310304 0.029317783 -0.079120219 4292928767
-0.35336444 0.030374277 -0.079298005 4292730623
-0.353852 0.031535394 -0.079802357 4292797951
-0.35456821 0.032804832 -0.080636486 4292994047
-0.35506016 0.033975601 -0.081145495 4293062143
-0.35578281 0.035257354 -0.081986919 4293388287
-0.35627908 0.036437903 -0.082500599 4293389823
-0.35677713 0.037622746 -0.083016045 4293453055
-0.35727698 0.038811889 -0.083533421 4293454591
-0.3591823 0.040680397 -0.086074404 4293389311
-0.35945511 0.041771699 -0.086262375 4293389311
-0.35925704 0.042634901 -0.085772395 4293190143
-0.35929441 0.043612279 -0.08562135 4293189631
-0.35862765 0.044240743 -0.084458299 4292861439
-0.35749966 0.044633768 -0.082633764 4292795387
-0.35707349 0.045371324 -0.081818677 4292467450
-0.35664889 0.046106342 -0.081006534 4292336373
-0.35622579 0.046838745 -0.080197245 4291940851
-0.35603327 0.047686409 -0.079719171 4291742183
-0.35607016 0.048651181 -0.079570077 4291676897
-0.35610706 0.049616039 -0.079420991 4291677408
-0.35637352 0.050701514 -0.079600342 4291347679
-0.35687092 0.051910829 -0.080109566 4290952921
-0.35713878 0.053001385 -0.080289997 4290690514
-0.3571758 0.053969998 -0.080140337 4290295758
-0.35698193 0.054814052 -0.079660945 4290164167
-0.35724992 0.055907417 -0.079840936 4289900996
-0.35682538 0.05662372 -0.07903289 4289834175
-0.36886153 -0.0022962485 -0.11208075 4287579725
-0.36737585 -0.001746054 -0.10966014 4286860096
-0.36590683 -0.0012019533 -0.1072667 4286749084
-0.36544648 -0.00035077485 -0.10637116 4289178799
-0.3644926 0.00033918681 -0.104745 4289705163
-0.36330065 0.00094491133 -0.10276785 4289704146
-0.36211967 0.0015451318 -0.1008089 4289705688
-0.36143148 0.0022991642 -0.099580921 4289836250
-0.36026776 0.0028889098 -0.097650908 4289902813
-0.35935193 0.0035535621 -0.096089177 4290033885
-0.35844275 0.0042134351 -0.094538786 4290034656
-0.35730624 0.0047878232 -0.092654258 4290032865
-0.35641181 0.0054380395 -0.091128826 4290032346
-0.35598561 0.0062465598 -0.09029527 4289834966
-0.35579157 0.0071345181 -0.089804731 4289703887
-0.35536763 0.0079379873 -0.088975757 4289503948
-0.35517469 0.0088221943 -0.088487715 4289363855
-0.35521165 0.0097892769 -0.088338278 4287647340
-0.355019 0.010671163 -0.087851159 4286657348
-0.35505593 0.011637529 -0.087701842 4286524461
-0.35486364 0.012517101 -0.087215766 4286459435
-0.35444322 0.013307769 -0.086395055 4286393642
-0.35379708 0.014007906 -0.085243747 4286393642
-0.35292867 0.014616348 -0.083767585 4286328106
-0.35184267 0.015132429 -0.081973828 4286263084
-0.35032389 0.015468216 -0.079547681 4286590767
-0.34991917 0.016239488 -0.078755498 4286918703
-0.34929675 0.016919382 -0.077645339 4287050288
-0.34889564 0.017684896 -0.076859921 4287181876
-0.34827864 0.018358223 -0.07575953 4287314489
-0.34831455 0.019298429 -0.075614281 4287512388
-0.3481335 0.020147601 -0.075152121 4287646549
-0.34860384 0.021271095 -0.075641058 4287853149
-0.34885764 0.022305354 -0.075813353 4289109105
-0.34933046 0.023435708 -0.076304704 4291405725
-0.34958553 0.024474718 -0.076478004 4291748863
-0.35006091 0.025611961 -0.076971807 4292603391
-0.35075894 0.026850969 -0.077789001 4292734975
-0.35146067 0.028096616 -0.07861051 4293191935
-0.35216609 0.029348919 -0.079436362 4293126399
-0.35242641 0.030404527 -0.079614222 4292664831
-0.35268718 0.031462107 -0.079792447 4292732159
-0.35317352 0.032625273 -0.080297686 4293059327
-0.3534357 0.033687755 -0.080476984 4293125887
-0.35415143 0.034964241 -0.081313625 4293453823
-0.35441536 0.036032755 -0.081494391 4293455103
-0.35490784 0.037211642 -0.082005829 4293649663
-0.3551732 0.038285136 -0.082187645 4293652223
-0.35751799 0.040364243 -0.085377976 4293127167
-0.35802183 0.041564979 -0.085902363 4293060863
-0.35805911 0.042540573 -0.085751638 4293583359
-0.35809639 0.043516222 -0.085600898 4293715199
-0.35743406 0.044143848 -0.084439993 4293058303
-0.35677528 0.044768177 -0.083285362 4292927740
-0.35566053 0.045157239 -0.0814742 4292599035
-0.35523957 0.045890674 -0.080664866 4292533493
-0.35504803 0.04673839 -0.080186777 4292072178
-0.35485688 0.047584638 -0.079709589 4291807465
-0.35489371 0.048547778 -0.079560772 4291676643
-0.35515857 0.049630314 -0.079739965 4291611361
-0.35542396 0.05071488 -0.079919517 4291216351
-0.35568976 0.051801462 -0.080099337 4290822362
-0.35618591 0.053012863 -0.080609456 4290691540
-0.3562229 0.053980637 -0.080459945 4290492880
-0.35625988 0.054948498 -0.080310397 4290295239
-0.35629687 0.055916429 -0.080160856 4289966789
-0.35656422 0.05701093 -0.080341294 4289834687
-0.40739703 0.086062215 -0.15292944 4289504701
-0.36780524 -0.0032539421 -0.1125449 4287583626
-0.36632687 -0.0026988902 -0.11012395 4287382090
-0.36536339 -0.0019957738 -0.10847314 4287323454
-0.36440712 -0.0012978505 -0.10683464 4287275700
-0.36395082 -0.00044880819 -0.10594242 4289377231
-0.36325043 0.00031830941 -0.10468762 4289902295
-0.36255395 0.0010812565 -0.10343979 4289770969
-0.36161867 0.001760382 -0.10183798 4289771743
-0.36093119 0.0025145772 -0.10060605 4289901793
-0.35976863 0.0031039151 -0.098669596 4289902819
-0.35885376 0.0037684487 -0.097102717 4289968612
-0.35794556 0.0044282055 -0.095547229 4289968866
-0.35657698 0.0049212491 -0.093310483 4290032865
-0.35568514 0.0055710198 -0.091782704 4290032606
-0.35502979 0.0062977173 -0.090606652 4289835740
-0.35483679 0.0071848966 -0.090116285 4289769945
-0.35441491 0.0079875905 -0.089287519 4289571799
-0.35399446 0.0087874662 -0.088461697 4289499838
-0.35403132 0.0097528836 -0.088312566 4288177841
-0.35384011 0.010633267 -0.087826408 4287315808
-0.35387695 0.011597971 -0.087677389 4286787120
-0.35345864 0.012389553 -0.086856626 4286459437
-0.35326847 0.013265431 -0.086373024 4286459435
-0.35262653 0.01396447 -0.085223846 4286459437
-0.35153997 0.014484363 -0.083420493 4286459183
-0.35068482 0.01508747 -0.081959836 4286459696
-0.34939539 0.015510624 -0.079861283 4286722353
-0.34877378 0.016193036 -0.078747287 4287050291
-0.3483732 0.016960472 -0.077959299 4287116853
-0.34797403 0.017725278 -0.077174038 4287184956
-0.34757623 0.018487504 -0.076391481 4287583045
-0.34761214 0.019427769 -0.076246247 4288044399
-0.34743169 0.020276863 -0.075783551 4288316077
-0.34790078 0.021400642 -0.076273598 4288723913
-0.34815389 0.022435049 -0.076446481 4289576959
-0.34840748 0.023471374 -0.076619647 4291683071
-0.3488799 0.024604846 -0.077112824 4291944447
-0.34935403 0.025742384 -0.077607758 4292599807
-0.35005015 0.026981791 -0.078426644 4292734719
-0.35052839 0.028128654 -0.07892599 4292994559
-0.35123071 0.029379964 -0.079751953 4292995327
-0.35126713 0.030333372 -0.07960467 4292731135
-0.35152641 0.031389058 -0.079782605 4292731903
-0.35156286 0.032343451 -0.079635173 4293057791
-0.35182261 0.03340197 -0.07981319 4293060351
-0.35185909 0.034357321 -0.079665609 4293454591
-0.35189557 0.035312757 -0.079518013 4293455103
-0.3523801 0.036482085 -0.080022343 4293650687
-0.35309175 0.037763987 -0.080856286 4293652223
-0.35448962 0.039383575 -0.082686625 4293126655
-0.35544223 0.040795874 -0.083867885 4293060863
-0.35570925 0.04187768 -0.08405225 4293584639
-0.35574627 0.042847238 -0.083902478 4293715455
-0.35532355 0.043587282 -0.083085895 4293125119
-0.35467395 0.044209827 -0.081941083 4292928253
-0.35402781 0.044829097 -0.080802381 4292664828
-0.35361117 0.045560561 -0.079997092 4292533495
-0.35342181 0.046405595 -0.079521343 4292073204
-0.35345849 0.047366124 -0.079372965 4291807972
-0.35372135 0.048444726 -0.07955154 4291675354
-0.35398468 0.049525317 -0.079730481 4291610336
-0.35447595 0.050728247 -0.080238134 4291217125
-0.35474074 0.051813915 -0.080418125 4290758111
-0.35500592 0.05290157 -0.080598399 4290692055
-0.35550079 0.054115061 -0.081109434 4290558675
-0.35553777 0.055082954 -0.080959901 4290361034
-0.35557473 0.056050941 -0.080810376 4289966791
-0.35561168 0.057019021 -0.080660842 4289900734
-0.35541934 0.057859849 -0.080181353 4289505213
-0.36578125 -0.0034978609 -0.11133875 4287320963
-0.36456981 -0.0028676142 -0.10930855 4287119691
-0.36361647 -0.0021664298 -0.10766694 4287851073
-0.36316159 -0.001315794 -0.10677322 4287999160
-0.36270842 -0.00046827114 -0.10588276 4289705428
-0.36225697 0.00037620435 -0.10499563 4290099162
-0.36156389 0.001138315 -0.10374812 4289902044
-0.36087462 0.0018962678 -0.10250751 4289837536
-0.36042988 0.0027303665 -0.10163312 4289967841
-0.35926855 0.0033193454 -0.099690154 4289968612
-0.35835466 0.0039837365 -0.098118156 4289902822
-0.35744739 0.0046433532 -0.096557625 4289903072
-0.35608023 0.0051357378 -0.094313368 4289967583
-0.35495842 0.0057040434 -0.092436649 4289967325
-0.35430497 0.0064304126 -0.091258846 4289966812
-0.35388362 0.0072351554 -0.090427309 4289967067
-0.35346377 0.0080371005 -0.089598723 4289768922
-0.35304546 0.008836248 -0.088773161 4289703622
-0.35262859 0.0096325874 -0.08795049 4289103802
-0.35266533 0.010595543 -0.087801762 4288696947
-0.35247582 0.011472941 -0.08731737 4287378499
-0.35228661 0.012348855 -0.086833775 4286524983
-0.35164785 0.013049694 -0.085684426 4286590509
-0.35123613 0.013833969 -0.084872328 4286591024
-0.35038054 0.014440414 -0.083403967 4286787634
-0.34953102 0.015042659 -0.081946008 4286919476
-0.34846845 0.015552982 -0.080174439 4287182901
-0.3480677 0.016322847 -0.079382561 4287511616
-0.34766832 0.017090119 -0.0785935 4287448650
-0.34727034 0.017854761 -0.077807143 4287327318
-0.34708986 0.018706627 -0.077342317 4288513894
-0.34690964 0.01955709 -0.076878272 4290286722
-0.34694555 0.020497467 -0.076733015 4291022010
-0.34741417 0.021622647 -0.077225178 4292334290
-0.34766707 0.022658208 -0.077399038 4292602111
-0.34792045 0.023695655 -0.077573255 4293256703
-0.34817421 0.024735017 -0.07774771 4293126399
-0.34864709 0.025872808 -0.078243762 4292795391
-0.34912157 0.027014675 -0.078741483 4292469247
-0.34959772 0.028160656 -0.079241008 4291355647
-0.35007557 0.029310701 -0.07974226 4291682815
-0.34989086 0.030161534 -0.079271093 4293517823
-0.35014823 0.031214302 -0.079448253 4293454847
-0.35018456 0.032166235 -0.079301216 4292795647
-0.35022086 0.0331182 -0.079154201 4292864255
-0.35003605 0.033965938 -0.078683496 4293651199
-0.35029355 0.035022378 -0.078860082 4293652479
-0.35055149 0.036080729 -0.079036959 4293650687
-0.35103232 0.037248395 -0.079539098 4293652479
-0.35106876 0.038203254 -0.079391614 4293126655
-0.35155135 0.039376892 -0.07989525 4293060863
-0.35181156 0.040444076 -0.080073766 4293191423
-0.3518481 0.041401677 -0.07992588 4293257215
-0.35166088 0.042247184 -0.079451941 4293256703
-0.35214537 0.043430347 -0.079956479 4293256189
-0.35240662 0.044503298 -0.080135383 4292730364
-0.35199431 0.045232806 -0.07933414 4292467191
-0.35203087 0.04619075 -0.079186186 4292269557
-0.35229173 0.047265418 -0.079364136 4292136164
-0.35255313 0.048342064 -0.079542473 4291806423
-0.35281491 0.049420696 -0.079721041 4291544287
-0.35375646 0.050862044 -0.080885313 4291217383
-0.3542482 0.052069642 -0.081395991 4290823393
-0.35451314 0.053158559 -0.081577301 4290822105
-0.35477862 0.054249499 -0.081758991 4290690261
-0.35481557 0.055217456 -0.081609488 4290558667
-0.35508153 0.056311339 -0.081791267 4290098120
-0.35534796 0.057407279 -0.081973389 4290031805
-0.35561493 0.058505256 -0.082155883 4289637052
-0.35382387 0.058451056 -0.079365551 4289636024
-0.36402455 -0.003663766 -0.11051808 4287254651
-0.36307231 -0.0029589804 -0.10887042 4287055181
-0.36212718 -0.0022593776 -0.10723507 4288184133
-0.36192065 -0.0013336964 -0.10671204 4288458943
-0.36171454 -0.00040963982 -0.10619001 4289640155
-0.36150879 0.00051275676 -0.10566892 4289967840
-0.36106038 0.0013539732 -0.10478385 4289902049
-0.36037186 0.0021120927 -0.10353924 4289837281
-0.35968712 0.0028660814 -0.10230152 4289968353
-0.35876748 0.0035351592 -0.10071271 4289968614
-0.35785455 0.0041994336 -0.099135533 4289967848
-0.35671335 0.0047776205 -0.097218134 4289968094
-0.35558254 0.005350614 -0.095318072 4289902554
-0.35446194 0.0059185033 -0.093435176 4289902043
-0.35358012 0.0065631494 -0.091911085 4289835484
-0.35316005 0.007367692 -0.091078408 4289835999
-0.35251433 0.0080865454 -0.089909486 4289769696
-0.35187206 0.0088016149 -0.088746868 4289704149
-0.35145801 0.0095966589 -0.08792571 4289375950
-0.3512699 0.010473364 -0.0874421 4289101209
-0.35108209 0.011348589 -0.086959325 4287710069
-0.3508946 0.012222312 -0.086477354 4286788431
-0.35048416 0.013008063 -0.085663892 4286787890
-0.35007516 0.013791073 -0.084853239 4286788151
-0.34922516 0.014396635 -0.083387554 4286854972
-0.34838119 0.014998035 -0.081932239 4286923072
-0.34754312 0.015595276 -0.080487102 4287451460
-0.34736153 0.016452702 -0.080017917 4287978350
-0.34718031 0.017308693 -0.079549551 4287987620
-0.3467828 0.018073682 -0.078760862 4287932869
-0.34660256 0.018926166 -0.078294829 4288984566
-0.34663847 0.019868135 -0.078149363 4290631673
-0.34689066 0.020902086 -0.078324094 4291222015
-0.34714332 0.021937912 -0.078499146 4292404735
-0.34739643 0.022975625 -0.078674428 4292667647
-0.34764996 0.024015216 -0.078850053 4293256959
-0.34790397 0.025056727 -0.079025999 4293126655
-0.34815839 0.026100103 -0.079202175 4292796415
-0.34841326 0.02714541 -0.079378694 4292534527
-0.34866861 0.028192617 -0.079555526 4291420159
-0.34892443 0.029241711 -0.079732619 4291748095
-0.34874102 0.030091148 -0.079262339 4293516799
-0.34877723 0.031040516 -0.079115719 4293455103
-0.34881344 0.031989973 -0.078969114 4292798207
-0.34863031 0.032836445 -0.078499854 4292798719
-0.34844753 0.033681493 -0.078031413 4293650431
-0.34870267 0.034734003 -0.078206822 4293652479
-0.34873888 0.035682909 -0.078060277 4293651199
-0.34921438 0.036844809 -0.078558497 4293652479
-0.34925061 0.037795503 -0.078411691 4293126143
-0.34972787 0.038963307 -0.078911386 4293060863
-0.34998527 0.040025461 -0.079088286 4293189887
-0.35002163 0.040978901 -0.07894104 4293191167
-0.34983686 0.041821081 -0.078470074 4293321215
-0.35009438 0.042885952 -0.078646548 4293321471
-0.35057437 0.044066198 -0.079147935 4292730366
-0.35061082 0.045021616 -0.079000391 4292466937
-0.35064724 0.045977086 -0.078852855 4292334327
-0.35090616 0.047048744 -0.079030067 4292266987
-0.35161263 0.04835739 -0.079859793 4291872737
-0.35232285 0.049673073 -0.080693953 4291479520
-0.35281071 0.050875306 -0.081202954 4291216864
-0.3533003 0.052081883 -0.081713751 4290887647
-0.35379156 0.053292822 -0.082226329 4290821596
-0.35405639 0.054383945 -0.082408607 4290756058
-0.35432163 0.055477086 -0.082591139 4290624982
-0.35458738 0.056572217 -0.082774006 4290163922
-0.35508326 0.057796996 -0.083290786 4290097346
-0.3553504 0.05889735 -0.08347477 4289768130
-0.40353936 0.086971715 -0.15319136 4289767868
-0.40390876 0.088311464 -0.15348476 4289438139
-0.36302108 -0.0036018456 -0.11082353 4287188083
-0.36207345 -0.0028979091 -0.10917632 4286991194
-0.36113286 -0.0021991208 -0.10754135 4288842324
-0.36092746 -0.0012742863 -0.10701857 4289245379
-0.36072239 -0.00035111373 -0.10649674 4289639901
-0.36051771 0.00057044369 -0.10597587 4289770717
-0.35983005 0.0013314082 -0.10472681 4289902301
-0.35938635 0.0021681024 -0.10384677 4289902815
-0.35870498 0.0029213044 -0.10260934 4289968096
-0.35802734 0.0036704487 -0.10137872 4289968356
-0.35711709 0.0043342602 -0.099799111 4290033381
-0.35621348 0.0049932911 -0.098231032 4290033376
-0.35485175 0.005484317 -0.095975667 4289837021
-0.35373443 0.0060516652 -0.094089821 4289770975
-0.35308364 0.0067778779 -0.092906512 4289639136
-0.35243636 0.0075002345 -0.091729566 4289574367
-0.35179257 0.0082187699 -0.090558931 4289704671
-0.35115224 0.008933546 -0.089394569 4289770200
-0.35051534 0.0096445614 -0.088236406 4290031828
-0.35032818 0.0105205 -0.087752938 4290226858
-0.34991831 0.011309849 -0.086936489 4288705418
-0.34973219 0.012182127 -0.086455464 4287512924
-0.34932449 0.012966575 -0.085643433 4287444537
-0.34891823 0.01374831 -0.084834255 4287379779
-0.34829342 0.014440125 -0.083699353 4287252044
-0.34767193 0.015128373 -0.082570396 4287064662
-0.34705368 0.015813056 -0.081447363 4288379995
-0.34687236 0.016671089 -0.080976985 4289892993
-0.34669137 0.017527664 -0.080507375 4290493874
-0.34651068 0.018382862 -0.0800386 4291282125
-0.34633031 0.019236598 -0.079570666 4291877879
-0.34636629 0.020180276 -0.079424955 4292862458
-0.34661865 0.021216342 -0.079601109 4292930047
-0.3468715 0.022254309 -0.079777576 4293060607
-0.34712479 0.023294196 -0.079954371 4293126911
-0.34737849 0.024335917 -0.080131412 4293191423
-0.34741458 0.025283253 -0.079985149 4293126655
-0.34745067 0.026230669 -0.079838865 4292993535
-0.34770492 0.027276127 -0.080015957 4292995327
-0.3477411 0.028224517 -0.079869509 4292993023
-0.34777722 0.029172942 -0.079723075 4292862463
-0.3473773 0.02992072 -0.078931227 4291943423
-0.34741339 0.030867657 -0.078785017 4292008703
-0.34723192 0.03171286 -0.078317173 4293191423
-0.34726802 0.03265908 -0.078171059 4293191935
-0.34708685 0.033502158 -0.077704161 4293650431
