# .PCD v0.7 - Point Cloud Data file format
VERSION 0.7
FIELDS x y z rgba
SIZE 4 4 4 4
TYPE F F F U
COUNT 1 1 1 1
WIDTH 1010
HEIGHT 1
VIEWPOINT 0 0 0 1 0 0 0
POINTS 1010
DATA ascii
-0.37411696 0.044074345 -0.095049269 4286395443
-0.37450418 0.044989794 -0.096014269 4286460209
-0.37439805 0.045944251 -0.096277818 4286526254
-0.37429187 0.046898764 -0.09654139 4286525997
-0.37418574 0.047853343 -0.096804954 4286526510
-0.37407956 0.048808001 -0.097068563 4286461231
-0.37372708 0.049776986 -0.096979655 4286461486
-0.37362102 0.050730903 -0.097243033 4286526765
-0.37351492 0.05168489 -0.097506464 4286592559
-0.37340882 0.052638944 -0.097769886 4286592561
-0.3733027 0.05359308 -0.098033354 4286593073
-0.3731966 0.054547288 -0.098296821 4286593585
-0.37333623 0.055492505 -0.098914266 4286659639
-0.37347609 0.05643953 -0.099532872 4286725180
-0.37336978 0.057395674 -0.099796876 4286793021
-0.37350979 0.058345437 -0.10041688 4287125054
-0.37340337 0.059302595 -0.10068116 4287589221
-0.37287015 0.041981503 -0.094110347 4289352795
-0.37300903 0.042911012 -0.094721518 4287181881
-0.37290326 0.04386187 -0.094984099 4286329650
-0.37304229 0.044794083 -0.095596671 4286525487
-0.3729364 0.045745961 -0.095859513 4286657324
-0.3730756 0.046680875 -0.096473508 4286591787
-0.37272462 0.047649931 -0.0963853 4286526254
-0.3723743 0.048617292 -0.096297272 4286460464
-0.3722685 0.049568556 -0.096559972 4286460719
-0.37191889 0.050533433 -0.096471936 4286525998
-0.37181315 0.051484011 -0.096734419 4286526254
-0.37146425 0.052446388 -0.096646324 4286460719
-0.3713586 0.053396225 -0.096908607 4286395696
-0.37125295 0.054346137 -0.097170927 4286461490
-0.37114727 0.055296119 -0.097433247 4286527284
-0.37128437 0.056237821 -0.098047167 4286593079
-0.3711786 0.057188779 -0.098309763 4286724664
-0.37155926 0.058126591 -0.099278376 4286661690
-0.3716971 0.059073661 -0.099895716 4286534222
-0.37183517 0.060022544 -0.10051416 4287458670
-0.37141934 0.041794714 -0.093699761 4289549149
-0.37155649 0.042721573 -0.094308928 4287378234
-0.37120852 0.043689586 -0.094223075 4286394930
-0.37134546 0.044618282 -0.094832748 4286525486
-0.37099767 0.04558472 -0.094746463 4286591531
-0.37089223 0.046532389 -0.095008187 4286591786
-0.37054512 0.047496345 -0.094921798 4286592046
-0.37019864 0.04845864 -0.094835624 4286591280
-0.37009335 0.049404792 -0.095096931 4286591535
-0.36974758 0.050364602 -0.09501072 4286525743
-0.36964238 0.051310048 -0.095271833 4286525998
-0.3695372 0.052255552 -0.095532939 4286525997
-0.36967221 0.053190101 -0.096142322 4286526256
-0.36932677 0.054146785 -0.096055254 4286526258
-0.36946157 0.055083167 -0.096665129 4286526515
-0.3695966 0.056021325 -0.097276166 4286527028
-0.36949119 0.056968879 -0.09753786 4286527285
-0.36986741 0.057902917 -0.098501585 4286528566
-0.37000316 0.058846381 -0.09911602 4286464827
-0.37038133 0.059786525 -0.10008528 4287060803
-0.37051788 0.060734402 -0.10070284 4287987814
-0.36997634 0.041608941 -0.093291476 4289613936
-0.36987117 0.042553801 -0.09355244 4287382871
-0.36952594 0.043518495 -0.093467578 4286397000
-0.36942086 0.044462647 -0.093728349 4286461761
-0.36907631 0.045424893 -0.093643434 4286527030
-0.36897132 0.046368338 -0.093904018 4286591536
-0.36838907 0.047344413 -0.09347418 4286657584
-0.36804637 0.048301667 -0.093389809 4286657584
-0.36770427 0.04925729 -0.09330561 4286657585
-0.36759964 0.050197572 -0.093565315 4286591793
-0.36749497 0.051137965 -0.093825057 4286526255
-0.3673903 0.052078422 -0.094084807 4286591534
-0.36752263 0.053007785 -0.094689637 4286591535
-0.36741784 0.053949196 -0.094949655 4286591792
-0.36755031 0.054881241 -0.095555834 4286526256
-0.36768299 0.055815004 -0.096163161 4286460977
-0.36781588 0.056750517 -0.096771561 4286395699
-0.36842677 0.057673838 -0.098080486 4286396981
-0.36856082 0.058614593 -0.098692894 4286463290
-0.36893532 0.059551779 -0.09965878 4286664259
-0.3690702 0.060496908 -0.10027434 4287068261
-0.36854106 0.041424118 -0.092885442 4289692540
-0.36819792 0.042387217 -0.092801422 4289095014
-0.3678554 0.043348636 -0.092717588 4288837459
-0.36775067 0.044289414 -0.092977449 4288566603
-0.36717215 0.04526649 -0.092550442 4288505148
-0.36706761 0.046205722 -0.092809871 4288236340
-0.36649132 0.047177743 -0.092383921 4288104754
-0.36615184 0.048130915 -0.092300944 4287513136
-0.36581296 0.049082432 -0.092218138 4287117617
-0.36570874 0.050018586 -0.092476726 4286986290
-0.36560452 0.050954767 -0.09273532 4286854960
-0.3655003 0.051891059 -0.092993945 4287051055
-0.36563027 0.052816119 -0.093595125 4287247663
-0.36576051 0.053742919 -0.094197392 4287182126
-0.36565608 0.054681066 -0.094456531 4287050798
-0.36602166 0.055601716 -0.095405281 4287051054
-0.36615258 0.056533732 -0.096010864 4287116592
-0.36652002 0.057460349 -0.096964978 4287117876
-0.36688876 0.058390342 -0.097922549 4287188025
-0.36725888 0.059323773 -0.098883636 4287522114
-0.36763027 0.060260676 -0.099848188 4288115041
-0.36800301 0.061201032 -0.10081626 4288654246
-0.36837712 0.062144861 -0.10178789 4290033072
-0.36803117 0.063098527 -0.10169553 4290031817
-0.36840564 0.064046785 -0.10266965 4290097602
-0.36735031 0.041218575 -0.092825025 4289701802
-0.36700881 0.042180136 -0.092741281 4289961379
-0.36666796 0.043140039 -0.092657663 4290095006
-0.36656335 0.04407917 -0.092917114 4289829276
-0.36598799 0.045054905 -0.092490964 4289698456
-0.36564893 0.04600988 -0.092407882 4289236624
-0.36531046 0.046963196 -0.092324995 4288968330
-0.36473936 0.047930494 -0.091901489 4288051078
-0.36440262 0.048879698 -0.091819294 4287454337
-0.36406639 0.049827259 -0.091737218 4287257209
-0.36396253 0.050760154 -0.091994926 4287058795
-0.36385864 0.05169313 -0.092252657 4287382366
-0.36375475 0.052626166 -0.09251041 4287710027
-0.36388275 0.053548686 -0.093109101 4287642170
-0.36401087 0.054472923 -0.09370885 4287510327
-0.36413926 0.055398893 -0.094309665 4287576372
-0.36450109 0.056318462 -0.095255651 4287707972
-0.36509863 0.057234064 -0.096551158 4287779419
-0.36546379 0.058161188 -0.097505443 4287921765
-0.3658303 0.059091736 -0.098463207 4288450682
-0.36643517 0.060020842 -0.09977565 4289368716
-0.36680505 0.060959078 -0.10074186 4289507762
-0.36717626 0.061900806 -0.1017116 4289835958
-0.36730945 0.062848337 -0.10232914 4290031808
-0.36768258 0.063796192 -0.10330445 4290818493
-0.36757651 0.064748786 -0.10356761 4290689969
-0.3660329 0.040097475 -0.092163011 4290294457
-0.36616373 0.041013706 -0.092764899 4290426563
-0.36582392 0.041973773 -0.092681408 4290558919
-0.36548465 0.042932194 -0.092597991 4290625483
-0.36514604 0.043888941 -0.09251482 4290625229
-0.3645747 0.044862453 -0.092090577 4290624462
-0.36423779 0.045815051 -0.092008136 4290624463
-0.36366957 0.046782639 -0.091585957 4290555335
-0.36333436 0.047731124 -0.091504224 4290030273
-0.36299971 0.048677992 -0.09142261 4289633208
-0.36266562 0.049623258 -0.091341153 4289565361
-0.362562 0.050553709 -0.091598213 4289432985
-0.3622286 0.051496577 -0.091516756 4289294467
-0.36235473 0.052414805 -0.0921124 4289226853
-0.36225107 0.05334546 -0.092369504 4288763972
-0.36237732 0.054266252 -0.092966542 4288430656
-0.36273435 0.055179674 -0.093905881 4288497466
-0.36309272 0.056096412 -0.09484864 4288567383
-0.36345232 0.057016481 -0.095794804 4288908418
-0.36381316 0.057939943 -0.096744314 4289375381
-0.36440936 0.058860891 -0.098045088 4289506234
-0.36477357 0.059791975 -0.099002987 4289967549
-0.3651391 0.060726464 -0.099964358 4289967298
-0.36574259 0.061660998 -0.10128215 4290097343
-0.36587408 0.062605761 -0.10189763 4290163125
-0.36648178 0.063548952 -0.1032255 4290555062
-0.3666144 0.064499043 -0.10384504 4290492860
-0.36698654 0.065450929 -0.10482406 4290034368
-0.36712 0.066405453 -0.10544679 4290031577
-0.36749408 0.06736359 -0.10643146 4290032342
-0.36495614 0.038958732 -0.091845505 4289705406
-0.36485183 0.039895125 -0.092104234 4290493376
-0.36498135 0.040809579 -0.092705034 4290887629
-0.36464319 0.041768145 -0.092621744 4290953683
-0.36430559 0.042725068 -0.092538655 4290954963
-0.36396855 0.043680314 -0.092455663 4291151316
-0.36340034 0.044652492 -0.092032388 4291283157
-0.36306503 0.045603614 -0.091950096 4291544790
-0.36249989 0.046569895 -0.09152887 4291675860
-0.36193678 0.047532823 -0.091109127 4291477971
-0.36137563 0.048492379 -0.090690851 4291280844
-0.36127225 0.049420316 -0.090947248 4291410888
-0.36116886 0.050348334 -0.091203675 4291541694
-0.36083758 0.051288903 -0.091122799 4291079090
-0.36096206 0.052204523 -0.091716543 4290551454
-0.36085868 0.053132746 -0.091973007 4290024328
-0.36098331 0.054050952 -0.092568152 4289293954
-0.36110815 0.054970853 -0.09316428 4289423734
-0.36146227 0.055883996 -0.094102405 4289565320
-0.36181766 0.056800459 -0.095043838 4290099109
-0.3621743 0.057720251 -0.095988721 4291016879
-0.36276388 0.058637366 -0.097282797 4290886854
-0.36312386 0.059564721 -0.098235965 4290689733
-0.3637186 0.06049104 -0.09954197 4290624454
-0.36408189 0.061426058 -0.10050352 4290426051
-0.36444643 0.062364507 -0.10146853 4290360506
-0.36481231 0.063306414 -0.10243706 4290096827
-0.36494291 0.064252853 -0.10305368 4290032060
-0.36554801 0.065200694 -0.10438477 4289837246
-0.36567974 0.066152446 -0.10500542 4289968335
-0.36628905 0.067109071 -0.10634672 4291081167
-0.3671422 0.068073437 -0.10805834 4291084728
-0.36365101 0.037848655 -0.091189072 4290361534
-0.3640117 0.038734872 -0.092128389 4290428354
-0.36390746 0.039670475 -0.092386924 4290953924
-0.36380321 0.040606163 -0.092645481 4291151571
-0.36346659 0.041563213 -0.092562385 4291151323
-0.36313063 0.042518627 -0.092479527 4291086809
-0.36256436 0.043491982 -0.092056543 4291348952
-0.36200014 0.044461899 -0.091635115 4291480282
-0.36143786 0.045428447 -0.091215171 4291611355
-0.36110577 0.046374787 -0.091134101 4291742686
-0.36054656 0.047335524 -0.090716191 4291676641
-0.35998932 0.048292935 -0.090299748 4291610846
-0.35965994 0.049232725 -0.090219893 4291742940
-0.35978305 0.050144006 -0.090811267 4291939807
-0.35967991 0.051069666 -0.091067061 4291743457
-0.35980317 0.051983491 -0.091659777 4291611095
-0.3596999 0.052910089 -0.091915831 4291215052
-0.35959664 0.05383677 -0.092171907 4290816197
-0.35994682 0.054744609 -0.093104891 4290486203
-0.36029822 0.055655777 -0.094041295 4290035138
-0.36065087 0.056570224 -0.09498103 4290494669
-0.36077571 0.057495065 -0.09558101 4291280848
-0.36113015 0.058415376 -0.096526042 4291150038
-0.36148581 0.059339076 -0.097474411 4290821843
-0.36184278 0.0602661 -0.09842626 4290756299
-0.36220104 0.061196566 -0.099381551 4290558409
-0.36256054 0.062130399 -0.10034026 4290492355
-0.36315483 0.063065581 -0.1016544 4290295490
-0.3632834 0.064008437 -0.1022681 4290229180
-0.36411721 0.06495183 -0.10394789 4289966524
-0.36424726 0.065900795 -0.10456651 4290033853
-0.36508831 0.06685546 -0.10626233 4290753214
-0.36569652 0.067814991 -0.10760833 4290756301
-0.36848596 0.068807811 -0.11226591 4290296781
-0.36960337 0.069794305 -0.11439361 4290292671
-0.3717283 0.070810147 -0.11805712 4289899454
-0.36281422 0.036693338 -0.091213971 4290034890
-0.36294141 0.037601531 -0.091811851 4290624974
-0.36283731 0.038535427 -0.092069931 4290888401
-0.36273324 0.03946938 -0.092328034 4291217106
-0.36262912 0.040403418 -0.09258616 4291349208
-0.3622942 0.041358981 -0.092503361 4291283420
-0.36195979 0.042312931 -0.092420667 4291218653
-0.36139661 0.043284934 -0.091998614 4291480286
-0.3608354 0.044253536 -0.091578059 4291611356
-0.36027616 0.045218799 -0.091158979 4291742427
-0.35971892 0.046180692 -0.090741463 4291808992
-0.35916364 0.047139246 -0.090325385 4291874532
-0.35861027 0.048094507 -0.089910798 4291874787
-0.35850742 0.049017608 -0.090165883 4292072162
-0.35840452 0.049940761 -0.090421006 4292269543
-0.35830161 0.050863996 -0.090676151 4292466923
-0.35842326 0.051775262 -0.091266952 4292663784
-0.35854515 0.052688222 -0.091858879 4292597220
-0.35844204 0.053613279 -0.092114531 4292527833
-0.35878953 0.054519165 -0.093045861 4291805131
-0.35891205 0.055437163 -0.093640916 4290626255
-0.35926127 0.056348823 -0.094577476 4290955733
-0.35938448 0.057271056 -0.095175534 4291609813
-0.35973546 0.058188532 -0.096117355 4291478484
-0.36008766 0.059109397 -0.097062498 4291084243
-0.36044115 0.060033575 -0.098011099 4291018961
-0.36056617 0.060965121 -0.098616041 4290755790
-0.36092144 0.061895255 -0.099569984 4290755270
-0.361278 0.062828772 -0.10052741 4290689222
-0.3616358 0.063765734 -0.10148825 4290623937
-0.36246058 0.064704895 -0.10315917 4290229441
-0.36258864 0.065650225 -0.10377489 4290230464
-0.36342064 0.066600576 -0.10546173 4290032064
-0.36402205 0.067555964 -0.10680072 4290033098
-0.36534145 0.068525136 -0.10923611 4290361802
-0.36788812 0.069523998 -0.11354832 4290363072
-0.36900383 0.070514806 -0.115684 4291014336
-0.36963472 0.071503587 -0.11708266 4291081394
-0.36243999 0.035486735 -0.091918468 4290494660
-0.36233589 0.036420535 -0.092176549 4290561235
-0.36223176 0.037354387 -0.09243466 4290953689
-0.36212763 0.038288333 -0.092692785 4291151579
-0.3620235 0.039222326 -0.09295094 4291283164
-0.36168909 0.04017891 -0.092867821 4291349468
-0.36135522 0.041133873 -0.092784822 4291283932
-0.361022 0.042087194 -0.092702053 4291284192
-0.36068928 0.043038867 -0.092619434 4291349218
-0.36012933 0.044007961 -0.092197791 4291415006
-0.35957131 0.044973679 -0.091777638 4291611611
-0.35901529 0.045936055 -0.091359064 4291743458
-0.35846123 0.046895061 -0.090941921 4291875559
-0.35790905 0.047850791 -0.090526298 4292007399
-0.35780615 0.048773903 -0.090781428 4292204007
-0.35747948 0.049710948 -0.090701438 4292401134
-0.35737664 0.050633386 -0.090956382 4292533750
-0.35749736 0.051543694 -0.091546953 4292664826
-0.3573944 0.052467089 -0.091802165 4292730367
-0.35751522 0.05337996 -0.092394032 4292728306
-0.35763627 0.054294474 -0.092987016 4292003551
-0.35775748 0.055210691 -0.093581006 4290888672
-0.35787895 0.056128602 -0.094176129 4291218401
-0.35800058 0.057048209 -0.094772279 4291873244
-0.35834816 0.057962891 -0.095710918 4291675601
-0.3584705 0.058886714 -0.096310049 4291215571
-0.35881984 0.059807263 -0.097253941 4291151066
-0.35894296 0.060735311 -0.097856097 4290888152
-0.35929403 0.061661758 -0.098805338 4290886861
-0.35964629 0.062591575 -0.099757932 4290755533
-0.35999987 0.063524775 -0.10071401 4290689996
-0.361047 0.064458854 -0.10272849 4290296523
-0.36117339 0.065401457 -0.10334218 4290296262
-0.36199799 0.066348381 -0.10502294 4290163398
-0.36259389 0.067300491 -0.1063571 4290164672
-0.36366513 0.068263091 -0.10842116 4290360512
-0.36426991 0.069227532 -0.10977443 4290362309
-0.36656114 0.070228226 -0.11371668 4290884549
-0.36645347 0.071193829 -0.11398356 4290950349
-0.36707324 0.072178185 -0.11536851 4290230222
-0.36160424 0.034333482 -0.09194272 4290232265
-0.36173034 0.035239499 -0.092541277 4290756811
-0.36139616 0.036199428 -0.092458487 4290955220
-0.36129212 0.037132468 -0.092716396 4291217111
-0.36118805 0.038065594 -0.092974328 4291348957
-0.36108398 0.038998809 -0.093232274 4291349471
-0.36097991 0.039932076 -0.09349025 4291349470
-0.36087584 0.040865406 -0.093748219 4291283678
-0.36054265 0.041819863 -0.09366449 4291283679
-0.36021009 0.04277264 -0.093580991 4291218143
-0.35965043 0.043743122 -0.093157284 4291218911
-0.35931951 0.04469179 -0.093074501 4291481311
-0.35876289 0.045656402 -0.092652842 4291678437
-0.3582083 0.046617672 -0.092232764 4291875561
-0.35765558 0.0475756 -0.09181416 4292073450
-0.35732841 0.048515316 -0.091733076 4292336107
-0.35700187 0.049453434 -0.0916522 4292532975
-0.35689893 0.050376736 -0.091907412 4292599284
-0.35679594 0.051300086 -0.092162646 4292730103
-0.35669297 0.052223526 -0.092417896 4292795643
-0.35658997 0.053147029 -0.092673153 4292925938
-0.35648701 0.054070581 -0.092928432 4292333795
-0.35660696 0.054985002 -0.093521357 4291347939
-0.35672718 0.055901114 -0.094115406 4291611875
-0.35684752 0.056818936 -0.094710492 4292267488
-0.3571924 0.05773164 -0.095647387 4292004056
-0.35731348 0.058653641 -0.096245423 4291413208
-0.35743484 0.059577331 -0.096844614 4291348954
-0.35755634 0.060502753 -0.097444817 4291216344
-0.35790399 0.061426327 -0.09839081 4291150288
-0.35825282 0.062353283 -0.099340163 4290887119
-0.35860294 0.063283607 -0.10029297 4290821835
-0.35964099 0.064214118 -0.10230019 4290493131
-0.35953614 0.065154232 -0.10256005 4290494153
-0.36058298 0.066097505 -0.10458656 4290491592
-0.36117339 0.067046396 -0.10591597 4290493891
-0.36200088 0.068002887 -0.10761219 4290491842
-0.36236382 0.068959929 -0.10859659 4290491589
-0.36367407 0.069937043 -0.11104193 4290360005
-0.3640427 0.070904769 -0.11203982 4290360266
-0.36441264 0.071876109 -0.11304141 4290295499
-0.36526421 0.072864771 -0.1147889 4290296766
-0.36076996 0.033182289 -0.091966897 4290164931
-0.36066598 0.034114346 -0.092224561 4290363852
-0.36079112 0.035019372 -0.092822917 4290822096
-0.36068705 0.035952404 -0.093080841 4291020244
-0.36058298 0.036885526 -0.09333878 4291217366
-0.36047888 0.037818674 -0.093596734 4291283678
-0.36037478 0.0387519 -0.093854725 4291480802
-0.36004204 0.039708152 -0.093770891 4291546593
-0.36016655 0.040618565 -0.094370738 4291480544
-0.35983396 0.04157326 -0.094286494 4291415518
-0.35950202 0.042526338 -0.094202466 4291480796
-0.35917062 0.043477774 -0.09411861 4291547359
-0.35883981 0.044427581 -0.094034858 4291744738
-0.35828355 0.045393523 -0.09361124 4291810535
-0.35772923 0.046356138 -0.093189061 4292072428
-0.35717684 0.0473154 -0.092768408 4292204270
-0.35684985 0.048256218 -0.092686504 4292401904
-0.35652333 0.049195435 -0.092604712 4292598768
-0.35619748 0.050133053 -0.092523128 4292599025
-0.35609448 0.051056456 -0.092778385 4292598515
-0.35599148 0.051979911 -0.093033671 4292729589
-0.35566631 0.052914478 -0.092951834 4292925937
-0.35578543 0.053827032 -0.093544275 4292465897
-0.3556824 0.054750714 -0.093799628 4291676392
-0.35557938 0.055674426 -0.094054967 4291808486
-0.3556985 0.056590449 -0.094648957 4292203238
-0.35581782 0.057508141 -0.095244087 4292005093
-0.35593736 0.058427546 -0.095840216 4291479267
-0.35605714 0.059348632 -0.096437477 4291414747
-0.35617706 0.060271405 -0.097035766 4291347930
-0.35652131 0.061192159 -0.097978562 4291281880
-0.35664195 0.062119175 -0.098579839 4290953686
-0.35721344 0.063043691 -0.099874221 4290887368
-0.35801494 0.063971952 -0.10152456 4290624457
-0.35813779 0.064908311 -0.10213344 4290625489
-0.3591755 0.065847941 -0.1041526 4290623953
-0.35976049 0.06679365 -0.10547728 4290624971
-0.36058062 0.067746647 -0.10716735 4290492363
-0.36093995 0.068700679 -0.10814829 4290491847
-0.36153448 0.069662094 -0.10949475 4290425031
-0.36236781 0.070633575 -0.11121337 4290360251
-0.36273333 0.071600929 -0.11220983 4290293432
-0.36333767 0.07257843 -0.11357859 4290295721
-0.36394534 0.073561408 -0.11495493 4290606244
-0.3643164 0.074541472 -0.11596563 4290873196
-0.36541235 0.075553246 -0.11810678 4290278991
-0.36645997 0.020882362 -0.097075231 4288572536
-0.36611548 0.021871854 -0.096986614 4288645222
-0.36553404 0.022898216 -0.096547961 4287981411
-0.36471856 0.02395842 -0.095762387 4287854443
-0.36343914 0.025085671 -0.094289176 4287785068
-0.36217117 0.026202904 -0.092829175 4287787627
-0.36114413 0.027276203 -0.091722228 4287653738
-0.36058134 0.028275888 -0.091300473 4287657839
-0.3602488 0.029239887 -0.091218889 4288180592
-0.35991681 0.030202232 -0.091137446 4288319121
-0.35981303 0.031132482 -0.091394626 4288784027
-0.35970923 0.032062791 -0.09165182 4288919485
-0.35960543 0.032993153 -0.091909029 4290035400
-0.3595016 0.033923604 -0.092166267 4290495446
-0.35962543 0.034826897 -0.092763498 4290889180
-0.35974947 0.035731867 -0.093361787 4291086043
-0.35964546 0.036664177 -0.093619511 4291217627
-0.35954142 0.037596542 -0.093877286 4291283425
-0.35943738 0.038528986 -0.094135068 4291545828
-0.3591058 0.039484564 -0.094051167 4291677922
-0.3592293 0.040394045 -0.094650701 4291612130
-0.35935307 0.041305181 -0.095251389 4291547361
-0.35924894 0.042238723 -0.095509455 4291809249
-0.35937276 0.043152485 -0.096111432 4291941605
-0.35881302 0.044124976 -0.095682167 4292007912
-0.35802907 0.045112148 -0.094912574 4292007916
-0.35747421 0.046077006 -0.094487451 4292204271
-0.35692129 0.047038477 -0.094063781 4292400880
-0.35659388 0.047981258 -0.09398061 4292532977
-0.35582125 0.048951499 -0.093220994 4292664305
-0.35549596 0.049889375 -0.093138911 4292598768
-0.35539293 0.050812799 -0.093394198 4292466930
-0.3550683 0.05174835 -0.093312062 4292598005
-0.35496533 0.052671097 -0.093567163 4292860913
-0.35486236 0.053593908 -0.093822293 4292663274
-0.35475942 0.054516796 -0.094077431 4292265704
-0.35465643 0.05543974 -0.094332598 4292200674
-0.35477462 0.056354761 -0.09492635 4292137956
-0.354893 0.057271492 -0.095521159 4292006376
-0.35478979 0.058196262 -0.095776834 4291545061
-0.35490832 0.059115559 -0.096373022 4291545308
-0.35480502 0.060041256 -0.096628956 4291675867
-0.35492358 0.06096315 -0.097226396 4291610073
-0.35526499 0.061883576 -0.098167911 4291019224
-0.35560757 0.062807351 -0.099112779 4291018444
-0.35685122 0.063728526 -0.10145063 4291083468
-0.35697278 0.064662986 -0.10205831 4291085266
-0.35823163 0.065600067 -0.10442673 4291017426
-0.35881349 0.066544294 -0.10575099 4291018187
-0.35962945 0.067495584 -0.1074406 4290623690
-0.36021876 0.068451054 -0.10878149 4290558664
-0.36034518 0.06940455 -0.10940529 4290491080
-0.36047187 0.070359856 -0.11003027 4290492092
-0.36106616 0.071327746 -0.11138438 4290359226
-0.3616637 0.072300956 -0.11274593 4290292395
-0.36226454 0.073279589 -0.11411497 4289164710
-0.36263114 0.074255593 -0.11512049 4288630637
-0.36347607 0.075253315 -0.11687577 4287583568
-0.36505109 0.076288603 -0.11977746 4286994805
-0.36632106 0.019596893 -0.098151013 4287325290
-0.36573765 0.020630091 -0.097709037 4287055198
-0.36539376 0.021619851 -0.097619906 4286993212
-0.36505052 0.022607885 -0.097530916 4286659382
-0.36423555 0.023669893 -0.096741989 4286597683
-0.36272383 0.02483605 -0.09491688 4286789682
-0.36122832 0.025989743 -0.093111373 4286859829
-0.36020556 0.027062899 -0.092004433 4287052342
-0.35964492 0.028062092 -0.091582589 4287123771
-0.35908628 0.029057784 -0.091162264 4287710269
-0.35875589 0.030018624 -0.091081068 4287850336
-0.35865226 0.030947244 -0.091337815 4288846955
-0.35854864 0.03187592 -0.091594584 4289116337
-0.35844499 0.032804679 -0.091851376 4290364108
-0.35834134 0.033733521 -0.09210819 4290823903
-0.35869047 0.034607682 -0.093044281 4291218407
-0.35858661 0.03553829 -0.093301587 4291349730
-0.35870957 0.036443189 -0.093899891 4291414751
-0.35883272 0.037349787 -0.094499268 4291480548
-0.35895616 0.03825805 -0.095099792 4291611110
-0.358852 0.039191402 -0.09535785 4291677668
-0.35920355 0.040079661 -0.096303992 4291612643
-0.35932758 0.040993001 -0.096907794 4291547621
-0.35922313 0.041929092 -0.09716662 4291744230
-0.35957628 0.042824849 -0.098118588 4291876076
-0.35924268 0.0437821 -0.098030783 4292008176
-0.35845405 0.044774611 -0.097251512 4292139505
-0.35766959 0.045761906 -0.096476421 4292204530
-0.35733974 0.046710785 -0.096390665 4292270322
-0.35678557 0.047673825 -0.095962562 4292467443
-0.35623333 0.048633516 -0.095535956 4292599025
-0.35568306 0.049589857 -0.095110953 4292533743
-0.35535696 0.050529759 -0.095026985 4292467185
-0.35503146 0.051468056 -0.094943233 4292598261
-0.35448521 0.052416258 -0.09452077 4292795634
-0.35416129 0.053350553 -0.094437711 4292663789
-0.35383794 0.054283261 -0.094354786 4292397543
-0.35373506 0.05520542 -0.094609737 4292266714
-0.35363212 0.056127645 -0.094864734 4291941343
-0.35374928 0.05704261 -0.095458522 4291875565
-0.35364625 0.057965767 -0.095713772 4291676906
-0.35376349 0.058883265 -0.096308827 4291676637
-0.35366035 0.059807409 -0.096564353 4291675869
-0.35377768 0.060727451 -0.097160704 4291544541
-0.35389522 0.061649222 -0.097758226 4291084765
-0.35423446 0.062570155 -0.098699883 4291084248
-0.35546744 0.063487627 -0.10102931 4291083736
-0.35603672 0.064417668 -0.10233266 4291085525
-0.35706213 0.065352671 -0.10434733 4291018709
-0.35786811 0.066295356 -0.10602431 4291018183
-0.35867989 0.06724491 -0.10771338 4290689734
-0.35903504 0.068196364 -0.1086936 4290624207
-0.35916016 0.069147944 -0.10931624 4290558672
-0.35951716 0.070105568 -0.11030205 4290492619
-0.35987547 0.071066752 -0.11129148 4290360266
-0.36046863 0.072037518 -0.11265035 4290292930
-0.36059591 0.072999835 -0.1132812 4289177279
-0.3609581 0.073971778 -0.11428154 4288637831
-0.36179382 0.074964821 -0.11602738 4287644773
-0.36335206 0.075994477 -0.11891288 4286991701
-0.36444652 0.077016018 -0.12107375 4287451720
-0.36579514 0.078058913 -0.12363929 4287922016
-0.36786848 0.018003969 -0.10172862 4286864032
-0.36583605 0.01930213 -0.099139825 4286592846
-0.36549112 0.020295767 -0.099049158 4286001983
-0.36514682 0.021287663 -0.098958619 4285870385
-0.36480314 0.022277832 -0.098868318 4285738799
-0.36375165 0.023380786 -0.097723417 4285739053
-0.36177623 0.02462309 -0.095198475 4286066477
-0.36051679 0.025741465 -0.093735769 4286132782
-0.35926852 0.026849924 -0.09228614 4286525742
-0.35848343 0.02788201 -0.091525339 4286659637
-0.35792786 0.028876305 -0.091105945 4287315255
-0.35759902 0.029835651 -0.091024928 4287517016
-0.35727081 0.030793328 -0.090944111 4288845155
-0.35739204 0.031689711 -0.091537617 4289313458
-0.35728854 0.032616872 -0.091793984 4290627024
-0.35718504 0.03354406 -0.092050359 4291152354
-0.35753152 0.034416381 -0.092984721 4291480810
-0.35765329 0.035318661 -0.093581706 4291612646
-0.3577753 0.036222607 -0.094179794 4291677668
-0.35835093 0.037077758 -0.095464319 4291677415
-0.35870159 0.037962116 -0.096410632 4291611369
-0.35882518 0.038873471 -0.097014524 4291612392
-0.35917759 0.039763585 -0.097966239 4291612903
-0.35930192 0.040679123 -0.098573193 4291613159
-0.35942644 0.041596394 -0.099181198 4291678439
-0.35978121 0.042494807 -0.1001403 4291744491
-0.3594462 0.043455824 -0.10005039 4292073455
-0.35865411 0.044452824 -0.099262886 4292336112
-0.35832131 0.045408811 -0.099174134 4292270322
-0.3579891 0.046363145 -0.099085562 4292139507
-0.35743073 0.047331989 -0.098650374 4292336628
-0.35664898 0.048312668 -0.097871631 4292534003
-0.35609546 0.049273878 -0.097440556 4292534257
-0.35554397 0.050231732 -0.097011104 4292532979
-0.354772 0.051198862 -0.096241586 4292598773
-0.35422525 0.052149236 -0.095816106 4292730611
-0.35390094 0.053085443 -0.095731743 4292730350
-0.35335714 0.054030105 -0.095308393 4292726505
-0.35303447 0.054962318 -0.095224746 4292399067
-0.3529315 0.0558846 -0.095479779 4291548128
-0.35304803 0.056799334 -0.096074127 4291613935
-0.3527256 0.05772933 -0.095989868 4291939307
-0.35284188 0.058645826 -0.09658473 4291873758
-0.35251963 0.059574317 -0.096500032 4291544798
-0.35263574 0.060492583 -0.097095378 4291545054
-0.35275203 0.061412547 -0.097691759 4291216093
-0.35308862 0.062331486 -0.098631673 4291216089
-0.35431328 0.063246071 -0.10095663 4291083993
-0.3548784 0.06417384 -0.10225752 4291086293
-0.35634866 0.065105572 -0.10497372 4290822101
-0.35715204 0.066047408 -0.106653 4290821833
-0.35773197 0.066994682 -0.10798574 4291148487
-0.35831502 0.067947142 -0.10932577 4291215054
-0.35843948 0.068898529 -0.10994901 4290886608
-0.35833353 0.069847688 -0.11021146 4290820299
-0.35845804 0.070801817 -0.11083615 4290753482
-0.35904571 0.071769252 -0.11219008 4290688962
-0.35917133 0.072728738 -0.11281885 4290554815
-0.35976309 0.073705107 -0.11418317 4290419847
-0.36035806 0.074686922 -0.11555502 4288504933
-0.36166552 0.075702481 -0.11805478 4287186005
-0.36274806 0.076718964 -0.1202037 4287187270
-0.36408216 0.077756375 -0.12275489 4287255644
-0.36518711 0.078792982 -0.12494784 4288118389
-0.36521798 0.018096583 -0.099512056 4286726039
-0.36535013 0.019006798 -0.10013052 4286328890
-0.36500528 0.020001635 -0.10003888 4286000169
-0.36489892 0.020954253 -0.10030232 4285934889
-0.36431748 0.021986103 -0.099856161 4285934377
-0.36326677 0.023091163 -0.098706663 4285934889
-0.36106142 0.024373626 -0.095825695 4286000169
-0.35934749 0.025564473 -0.093674369 4286000936
-0.3581067 0.026671793 -0.092227653 4286393896
-0.35732606 0.027702566 -0.091468416 4286461743
-0.35677344 0.028695466 -0.09104985 4287052593
-0.35644621 0.029653264 -0.090969093 4287318865
-0.35611954 0.03060949 -0.090888456 4288516188
-0.35623956 0.031504143 -0.091480941 4289052850
-0.3561362 0.03242968 -0.091736883 4290759380
-0.35603285 0.033355273 -0.091992863 4291415781
-0.35637659 0.034225766 -0.092925444 4291547117
-0.35672158 0.035099395 -0.093861431 4291613419
-0.35684261 0.036002364 -0.094459213 4291743978
-0.35764149 0.036830746 -0.096086949 4291743979
-0.35821825 0.037689928 -0.097380094 4291743212
-0.35834146 0.038601883 -0.097985364 4291743724
-0.35915145 0.039445762 -0.099637516 4291744492
-0.35950601 0.040340982 -0.1005983 4291744490
-0.35963115 0.041261304 -0.10121039 4291809257
-0.36138266 0.042035814 -0.10430849 4291809516
-0.3612766 0.04298567 -0.10457118 4292073198
-0.35954571 0.04407113 -0.10234562 4292270576
-0.35898003 0.045051847 -0.10190105 4292270577
-0.3588748 0.045994248 -0.10216166 4292270835
-0.35831133 0.046969861 -0.10171826 4292402166
-0.35752225 0.047957718 -0.10092638 4292533750
-0.35673741 0.048940364 -0.10013881 4292534006
-0.35595676 0.049917806 -0.099355459 4292467446
-0.35495701 0.050902981 -0.098231792 4292599285
-0.35418588 0.051869262 -0.09745843 4292796916
-0.35341889 0.052830502 -0.096689165 4292796913
-0.35265595 0.053786729 -0.095923945 4292794348
-0.35233384 0.054719202 -0.095839791 4292464351
-0.35201234 0.055650096 -0.095755853 4291547108
-0.35212785 0.056563858 -0.096349925 4291614452
-0.35202485 0.057486296 -0.096605025 4292005872
-0.35192186 0.058408793 -0.096860141 4291939296
-0.35181883 0.059331346 -0.097115263 4291544800
-0.35193431 0.06024944 -0.097711191 4291545568
-0.35204995 0.061169215 -0.098308139 4291282400
-0.35216579 0.062090702 -0.098906137 4291216348
-0.35294223 0.063007496 -0.10053862 4291150812
-0.35372415 0.063930877 -0.10218267 4291151827
-0.35518456 0.064859457 -0.10489365 4290886611
-0.35598227 0.065798752 -0.10656961 4290821844
-0.35678571 0.066744857 -0.1082577 4291148244
-0.35713676 0.06769377 -0.10923719 4291215052
-0.3572599 0.068643257 -0.10985927 4290886859
-0.35738319 0.069594525 -0.11048249 4290820301
-0.35750675 0.070547558 -0.11110684 4290755534
-0.35740072 0.071496911 -0.11136939 4290689741
-0.35798493 0.072465457 -0.11272362 4290557132
-0.35834068 0.07343208 -0.11371845 4290487223
-0.35893011 0.074410498 -0.11508531 4288639145
-0.35999122 0.075412616 -0.11720295 4287187572
-0.36106205 0.07642404 -0.11934008 4287186247
-0.36238182 0.077456027 -0.1218771 4287188041
-0.36347473 0.078487426 -0.12405787 4287979341
-0.36482155 0.079541713 -0.12664746 4289169514
-0.36436239 0.01693522 -0.099529795 4288902518
-0.36473146 0.017800108 -0.10050312 4286592877
-0.36462498 0.018753473 -0.1007668 4286131763
-0.36451849 0.019706931 -0.1010305 4285934376
-0.36417437 0.020701263 -0.10093809 4285934632
-0.36359426 0.021733629 -0.10049079 4286065192
-0.36254612 0.022839617 -0.099339038 4286065449
-0.36011606 0.024161229 -0.096106336 4285934377
-0.35840952 0.025352385 -0.093955226 4285934889
-0.35717392 0.026459685 -0.09250854 4286262313
-0.35617268 0.027523745 -0.09141168 4286329646
-0.35562304 0.028515223 -0.090993986 4286855216
-0.35529739 0.029471532 -0.090913482 4287055177
-0.35497224 0.030426245 -0.090833075 4288253010
-0.35509104 0.031319208 -0.091424488 4288726199
-0.35498783 0.032243125 -0.09168002 4290760415
-0.35488462 0.033167128 -0.091935575 4291679210
-0.35522574 0.034035765 -0.092866473 4291678703
-0.35556799 0.034907561 -0.093800671 4291679472
-0.35591152 0.035782516 -0.094738252 4291810033
-0.35693198 0.036583699 -0.096709654 4291875822
-0.35773399 0.037417214 -0.098351263 4291875053
-0.35808477 0.038305487 -0.09930633 4291875567
-0.36121261 0.03891138 -0.10451152 4291941360
-0.36346531 0.039627761 -0.10838715 4291941614
-0.36407399 0.040518664 -0.10974997 4291940845
-0.3649267 0.041392446 -0.11148978 4291940589
-0.36505991 0.042336818 -0.11212725 4292072941
-0.36495197 0.043303456 -0.11239459 4292204784
-0.36484399 0.044270173 -0.11266197 4292335859
-0.36497724 0.045218308 -0.11330117 4292467188
-0.36414719 0.046239194 -0.11245469 4292467701
-0.36332166 0.047254525 -0.11161292 4292533238
-0.36226377 0.048280019 -0.1104093 4292468216
-0.35773751 0.049515642 -0.10383306 4292402167
-0.35604265 0.050551977 -0.10163024 4292533750
-0.35414627 0.051587775 -0.09910953 4292862453
-0.35293588 0.0525751 -0.097648241 4292862963
-0.35195464 0.053543344 -0.096539587 4292860142
-0.35141513 0.054485675 -0.096115604 4292530401
-0.35109466 0.055415966 -0.096031502 4291481317
-0.35120928 0.056328777 -0.096625336 4291614708
-0.350889 0.057257596 -0.096540838 4292137202
-0.35100341 0.058172159 -0.097135164 4292071138
-0.35090044 0.059093948 -0.097390108 4291545058
-0.35101494 0.060011048 -0.097985722 4291547104
-0.35112968 0.060929842 -0.098582461 4291479264
-0.35124457 0.061850317 -0.099180236 4291480285
-0.35201702 0.062765479 -0.10081226 4291478493
-0.35279495 0.06368722 -0.10245586 4291479764
-0.35402453 0.064614177 -0.10481387 4291149011
-0.35481662 0.065550953 -0.10648657 4291085524
-0.35561439 0.066494517 -0.10817137 4290951892
-0.35596269 0.067441277 -0.10914899 4290952909
-0.35631222 0.068391562 -0.11013012 4291083467
-0.35643455 0.069341779 -0.11075307 4291084237
-0.35655707 0.070293754 -0.11137715 4290887118
-0.35622287 0.071237005 -0.11127725 4290821837
-0.35680279 0.072203137 -0.11262878 4290885580
-0.35715571 0.073167548 -0.11362168 4290884538
-0.35774079 0.074143492 -0.11498581 4289821870
-0.35832909 0.075124867 -0.11635743 4288957051
-0.35915425 0.076121457 -0.11810942 4288169031
-0.36045739 0.077147037 -0.120628 4287318087
-0.36177498 0.078184113 -0.12317455 4287452999
-0.36310726 0.079232797 -0.12574957 4287855461
-0.36363855 0.016682301 -0.1001649 4288634206
-0.36376905 0.017590379 -0.10078342 4286525261
-0.36366263 0.018542923 -0.1010469 4286131757
-0.36331961 0.019537374 -0.10095459 4285999911
-0.36321327 0.020489199 -0.10121787 4285934631
-0.36263537 0.021521023 -0.10077049 4285933863
-0.36135828 0.022665549 -0.099266775 4285934633
-0.35894322 0.023986397 -0.096040562 4285868841
-0.35724702 0.025176547 -0.093893692 4285869353
-0.35601878 0.026282704 -0.092449941 4286065705
-0.35524568 0.027311843 -0.091692172 4286132525
-0.35469815 0.028302835 -0.091274396 4286592302
-0.35415253 0.029290417 -0.090858109 4286791999
-0.3540495 0.030212613 -0.091113187 4288055366
-0.35394648 0.031134894 -0.091368288 4288594621
-0.35384345 0.032057241 -0.091623388 4290826732
-0.35396102 0.032951012 -0.092215002 4291810800
-0.35430017 0.033818539 -0.093145631 4291744498
-0.35464048 0.034689192 -0.094079584 4291744759
-0.35498202 0.035562996 -0.095016859 4291810042
-0.35599738 0.036362551 -0.096987709 4291875827
-0.35724878 0.037144002 -0.099324256 4291875822
-0.35782704 0.038008012 -0.10063206 4291876083
-0.35979238 0.038732599 -0.10407363 4291941367
-0.3634502 0.039302252 -0.1101257 4292072693
-0.36430058 0.040171508 -0.11186691 4292006899
-0.36491549 0.041069798 -0.11324827 4292006895
-0.36529121 0.041994859 -0.11426293 4292204268
-0.3656683 0.042923454 -0.11528133 4292335857
-0.36531681 0.043915536 -0.11517461 4292335863
-0.36545107 0.044867769 -0.11581912 4292335862
-0.36461583 0.045894396 -0.11496179 4292401908
-0.36402553 0.046898305 -0.11448211 4292532983
-0.36295915 0.047930811 -0.11326135 4292533756
-0.36072183 0.049030963 -0.11021657 4292467707
-0.3569158 0.050209597 -0.10472266 4292599800
-0.35455307 0.051279623 -0.1014656 4292862457
-0.35267225 0.052307632 -0.098952778 4292862970
-0.35147151 0.05328925 -0.097496092 4292860918
-0.35071495 0.054242715 -0.096730232 4292595944
-0.35017854 0.055182267 -0.096306704 4291545835
-0.35007578 0.056102253 -0.096561164 4291679990
-0.34997299 0.057022337 -0.096815646 4292137717
-0.34987018 0.057942457 -0.097070172 4292071406
-0.34998357 0.058856905 -0.097664513 4291546861
-0.35009715 0.059773035 -0.098259896 4291547105
-0.35021091 0.060690828 -0.09885633 4291479777
-0.35054231 0.061606985 -0.099796757 4291480290
-0.35109335 0.062523887 -0.10108542 4291479266
-0.35186732 0.063443959 -0.10272865 4291479770
-0.35286856 0.06436976 -0.10473443 4291151065
-0.35365507 0.065304011 -0.10640394 4291085783
-0.35444722 0.066245019 -0.10808542 4290952663
-0.35479274 0.067189679 -0.10906114 4290952919
-0.35491323 0.068135358 -0.10968089 4291083735
-0.3554875 0.069089442 -0.11102322 4291084247
-0.35538176 0.070036225 -0.11128508 4290886871
-0.35527599 0.070983045 -0.11154696 4290821589
-0.35517019 0.071929954 -0.11180888 4290886611
-0.35574669 0.072897196 -0.1131607 4290951117
-0.35632631 0.073869765 -0.11451991 4290028489
-0.3569091 0.074847728 -0.11588654 4289227143
-0.35749507 0.075831108 -0.11726069 4288365381
-0.35855052 0.0768409 -0.11939036 4287317829
-0.36008769 0.077882983 -0.12229777 4287385413
-0.36140561 0.078926176 -0.12485843 4287523675
-0.36267883 0.016473927 -0.10044501 4288431444
-0.36280835 0.017381003 -0.1010633 4286458689
-0.36270201 0.018332733 -0.10132656 4286131756
-0.36236009 0.019326486 -0.1012341 4285999912
-0.36201882 0.020318521 -0.10114183 4285934632
-0.36144415 0.021348801 -0.10069547 4285802536
-0.36017472 0.022492083 -0.099194847 4285803560
-0.35754728 0.023849342 -0.0956304 4285803304
-0.35608858 0.025001299 -0.0938325 4285803817
-0.3550902 0.026071455 -0.092729978 4285934377
-0.35432023 0.027100293 -0.09197218 4285935404
-0.35377479 0.028090835 -0.091554306 4286329645
-0.35323128 0.029077934 -0.091137975 4286463550
-0.35312831 0.029999366 -0.09139286 4287857220
-0.35302535 0.030920858 -0.091647767 4288396983
-0.35292238 0.031842399 -0.091902688 4290892267
-0.35281938 0.032764029 -0.092157632 4292007406
-0.35315585 0.033629719 -0.093086496 4291875824
-0.35371456 0.034471195 -0.094358034 4291810035
-0.35405406 0.035343889 -0.095294952 4291875060
-0.35528836 0.036115676 -0.097609967 4291941361
-0.35676265 0.036870275 -0.10029912 4291875822
-0.3573401 0.037734356 -0.10161067 4291876339
-0.36046693 0.038334675 -0.10685958 4292072951
-0.36343494 0.038974922 -0.11187392 4292204277
-0.36404684 0.039869048 -0.11325404 4292204019
-0.36466214 0.04076818 -0.11464185 4292204528
-0.36528087 0.041672423 -0.1160374 4292401645
-0.3654153 0.042624239 -0.11668392 4292532721
-0.3650634 0.043618456 -0.11657573 4292336118
-0.36471215 0.044610936 -0.11646772 4292073974
-0.36387891 0.045638293 -0.11560862 4292270837
-0.36305028 0.046660051 -0.11475428 4292533240
-0.36175111 0.047708824 -0.11316337 4292599548
-0.35952774 0.048808802 -0.11012498 4292730875
-0.35734057 0.049890973 -0.10713606 4292797432
-0.35362002 0.051045887 -0.10174001 4292927737
-0.35174751 0.052074656 -0.099227555 4292928505
-0.35011771 0.053078193 -0.097089998 4292861685
-0.34958234 0.054019749 -0.096665844 4292663016
-0.34904882 0.054958079 -0.096243255 4291938794
-0.34894621 0.055876508 -0.096497305 4292006131
-0.34884354 0.05679499 -0.096751392 4292203250
-0.34874094 0.057713557 -0.097005479 4292136941
-0.34885308 0.058626242 -0.097598717 4291481324
-0.34896541 0.05954057 -0.098193042 4291481314
-0.34907797 0.060456604 -0.098788448 4291741922
-0.34940675 0.061370749 -0.099727079 4291743202
-0.3501713 0.062282655 -0.10135824 4291610338
-0.35094121 0.063201129 -0.10300092 4291610842
-0.35193747 0.064125039 -0.10500623 4291741145
-0.35249764 0.065057941 -0.1063216 4291741655
-0.35328415 0.065996416 -0.1079998 4291345879
-0.35340285 0.066937588 -0.10861643 4291281879
-0.35374615 0.067882754 -0.10959228 4291083991
-0.35409066 0.068831384 -0.11057165 4291019224
-0.35421062 0.069779553 -0.11119341 4290952664
-0.35387963 0.070719928 -0.11109407 4290953174
-0.35399938 0.071669936 -0.11171633 4291018196
-0.35389373 0.072615251 -0.11197782 4291083472
-0.35514697 0.073604919 -0.11442201 4290817229
-0.35549682 0.074572086 -0.11541826 4290476429
-0.35607728 0.075552076 -0.1167874 4288957509
-0.3568919 0.076547652 -0.11853626 4287055429
-0.35817891 0.07757289 -0.12105033 4287253573
-0.3597165 0.078621767 -0.12397394 4287650391
-0.36055744 0.079644643 -0.12577707 4288316292
-0.36195555 0.01622119 -0.10107965 4288036938
-0.36184928 0.017172018 -0.10134269 4286327605
-0.361743 0.018122897 -0.10160576 4286065963
-0.36140227 0.01911599 -0.10151317 4285934377
-0.36106214 0.020107327 -0.10142079 4285934632
-0.36025712 0.021177208 -0.10062077 4285933608
-0.35899532 0.022319226 -0.099123195 4285934375
-0.35638416 0.023675807 -0.095565863 4285868839
-0.35515746 0.024790591 -0.094112083 4285869353
-0.35394168 0.025895588 -0.092671253 4285868586
-0.35339639 0.026889086 -0.092251815 4285869612
-0.35285303 0.027879147 -0.091833837 4286197804
-0.35231155 0.028865803 -0.091417365 4286332476
-0.35220867 0.029786445 -0.091672055 4287593026
-0.35210577 0.030707171 -0.091926768 4288199349
-0.35200283 0.031627946 -0.092181519 4290826473
-0.35189992 0.032548781 -0.092436261 4292007404
-0.35223445 0.033413373 -0.093364879 4291941614
-0.35257018 0.034281075 -0.094296798 4291876332
-0.35312775 0.035125107 -0.095572673 4291940843
-0.3545793 0.035868786 -0.098232269 4291941357
-0.35604912 0.036621857 -0.10092535 4291941870
-0.35685217 0.037460208 -0.10259114 4291942131
-0.35974225 0.038082477 -0.10749559 4292073206
-0.36294043 0.03869516 -0.11288831 4292138996
-0.3635515 0.039589331 -0.11427255 4292204531
-0.36416596 0.040488567 -0.11566453 4292270322
-0.36502689 0.041370519 -0.11744272 4292401904
-0.36516133 0.042323876 -0.11809182 4292532978
-0.36456612 0.043340832 -0.11760318 4292336884
-0.36421499 0.044334501 -0.11749418 4292140022
-0.36290196 0.04540072 -0.11588027 4292271353
-0.36183873 0.046439707 -0.11465331 4292533754
-0.36078325 0.047471154 -0.11343536 4292599804
-0.3585698 0.048572127 -0.11039756 4292665851
-0.35662079 0.049641021 -0.1077679 4292731641
-0.35291049 0.050799523 -0.10236286 4292927736
-0.35038811 0.051866028 -0.098815411 4292928503
-0.34898612 0.052857265 -0.097025014 4292927732
-0.34845361 0.053797565 -0.096601792 4292728553
-0.34792295 0.054734666 -0.096180029 4291938791
-0.34782049 0.055651531 -0.096433669 4292005599
-0.347718 0.056568455 -0.096687347 4292203232
-0.34761551 0.057485435 -0.096941017 4292136681
-0.34772646 0.058396325 -0.097533219 4291480041
-0.34783763 0.059308913 -0.098126501 4291481323
-0.34816331 0.060218595 -0.099061534 4291743211
-0.34827513 0.061135322 -0.099657744 4291743199
-0.34903428 0.062044837 -0.10128578 4291611615
-0.34979883 0.062960856 -0.10292537 4291610858
-0.35078815 0.063882105 -0.10492676 4291742186
-0.35156509 0.064812176 -0.10659256 4291741925
-0.35190323 0.065748394 -0.10755952 4291346916
-0.35224259 0.066688001 -0.10853004 4291282402
-0.3525832 0.067631043 -0.10950404 4291084769
-0.35292497 0.068577528 -0.11048153 4291019487
-0.35281959 0.069520101 -0.11074231 4290953949
-0.35271424 0.070462771 -0.11100309 4290953948
-0.35260889 0.07140547 -0.11126388 4291018971
-0.3527272 0.072354496 -0.1118852 4291084244
-0.35329491 0.073319554 -0.11323245 4290951375
-0.35409209 0.074297942 -0.1149526 4290742434
-0.35443965 0.075265586 -0.11594897 4289219433
-0.35524532 0.076256521 -0.11768842 4286988634
-0.35651857 0.077276453 -0.12018868 4287187523
-0.35780582 0.07830774 -0.12271653 4287648588
-0.35910735 0.079350494 -0.12527247 4288246886
-0.36042342 0.080404982 -0.12785695 4290290803
-0.36123219 0.015968429 -0.10171434 4287576391
-0.36089191 0.01696335 -0.10162167 4286196273
-0.36078572 0.01791342 -0.10188451 4285934890
-0.36021319 0.018948009 -0.10143684 4285934121
-0.35987476 0.019937735 -0.10134468 4285934376
-0.35907435 0.021006184 -0.10054637 4286064680
-0.35782012 0.022146933 -0.099051878 4286065447
-0.35544944 0.023465449 -0.095844962 4285934119
-0.35400572 0.02461645 -0.094050787 4285934890
-0.35301727 0.025685193 -0.092950478 4285868587
-0.35225478 0.026712395 -0.09219417 4285803819
-0.35171434 0.027701063 -0.091777086 4286066475
-0.35139343 0.028654024 -0.091696359 4286135610
-0.35129058 0.029573904 -0.091950856 4287393087
-0.35118774 0.030493829 -0.092205398 4287935152
-0.35108489 0.031413849 -0.092459939 4290563812
-0.35119966 0.032304782 -0.093050815 4291941611
-0.35153291 0.033168986 -0.093980566 4292007407
-0.35186738 0.034036275 -0.094913594 4292008432
-0.35242304 0.034879703 -0.096191145 4292007408
-0.35387018 0.035621874 -0.098854631 4292007663
-0.3553355 0.036373436 -0.10155167 4292073199
-0.35636333 0.037185505 -0.10357345 4292073203
-0.35948333 0.037779953 -0.10885703 4292007927
-0.36196816 0.03846458 -0.11316132 4292008437
-0.36257592 0.039357338 -0.11454508 4292205044
-0.36366883 0.040208407 -0.11668918 4292401395
-0.3638016 0.041157991 -0.11733578 4292467186
-0.36369282 0.042131048 -0.117605 4292532979
-0.36310193 0.043145571 -0.1171187 4292467957
-0.36251327 0.044156402 -0.1166342 4292336631
-0.3614504 0.045200907 -0.1154033 4292402426
-0.3606315 0.046220191 -0.11455273 4292533754
-0.35934809 0.047267202 -0.11296864 4292468987
-0.3571524 0.04836686 -0.10994298 4292402938
-0.35499233 0.049448773 -0.1069664 4292533497
-0.35175881 0.0505796 -0.10228767 4292861944
-0.34925202 0.051646378 -0.098747224 4292993784
-0.34764463 0.052648224 -0.096622027 4293452277
-0.34711584 0.053586476 -0.09620066 4293188330
-0.34680098 0.054512031 -0.096117102 4292135144
-0.34648669 0.055436023 -0.096033752 4292134623
-0.34638441 0.056350559 -0.096286789 4292006368
-0.34649396 0.057258077 -0.096876882 4292005609
-0.34660375 0.058167234 -0.097468033 4291742185
-0.34671366 0.05907803 -0.098060206 4291743211
-0.34682375 0.059990507 -0.098653473 4291677675
-0.34714741 0.060900696 -0.09958867 4291677151
-0.3476865 0.061811004 -0.10087012 4291283935
-0.34844419 0.062723815 -0.1025039 4291218410
-0.3494249 0.063641585 -0.10449816 4291807723
-0.34997579 0.064569078 -0.10580642 4291939814
-0.35052964 0.065501623 -0.10712166 4291675109
-0.35064518 0.066437408 -0.10773429 4291610595
-0.35120279 0.067378446 -0.10905946 4291412706
-0.3515411 0.068321973 -0.11003355 4291348447
-0.3516582 0.069265507 -0.11065213 4291216862
-0.35155296 0.070206493 -0.11091249 4291150557
-0.35144779 0.071147546 -0.11117285 4291215836
-0.35156479 0.072094686 -0.111793 4291281109
-0.35212833 0.073057316 -0.1131376 4291017679
-0.35269493 0.074025229 -0.1144895 4290749095
-0.35303903 0.074989811 -0.11548237 4289423987
-0.35383737 0.075977087 -0.11721545 4287250274
-0.35487023 0.076982155 -0.11933337 4287383874
-0.35637525 0.078019626 -0.12222456 4287712840
-0.35789967 0.079070538 -0.12515317 4288113240
-0.35920653 0.080121569 -0.12773223 4289503333
-0.36108342 0.014672481 -0.10279969 4287522747
-0.36050877 0.015715642 -0.1023491 4287379011
-0.35970378 0.016799221 -0.10154513 4286196013
-0.35959771 0.017747583 -0.10180754 4285934633
-0.35925978 0.018738355 -0.10171505 4285933864
-0.35892248 0.019727414 -0.10162281 4285934376
-0.35812536 0.020795511 -0.10082451 4285999400
-0.35664907 0.021975292 -0.098980904 4286065446
-0.35429299 0.023293013 -0.095780328 4285868326
-0.35307875 0.024406591 -0.094329536 4285803563
-0.3520945 0.025475178 -0.093229309 4285737516
-0.35133505 0.026502047 -0.092472963 4285738027
-0.35057959 0.027523553 -0.091720626 4286000426
-0.35047683 0.02844259 -0.091974914 4286134838
-0.35037404 0.029361703 -0.09222924 4287256379
-0.35027128 0.030280851 -0.092483558 4287799977
-0.35016847 0.031200072 -0.092737921 4290365659
-0.35028231 0.032090079 -0.093328565 4291679465
-0.35061362 0.032953165 -0.09425801 4291876593
-0.3509461 0.033819359 -0.095190696 4292008438
-0.35149884 0.034661513 -0.096467935 4292073721
-0.35249588 0.035455018 -0.098440133 4292073716
-0.35394865 0.036203574 -0.10112735 4292138736
-0.35496745 0.037012704 -0.10314182 4292138741
-0.35736883 0.037679072 -0.10732264 4292073720
-0.35981861 0.038358938 -0.11158781 4292074232
-0.36088973 0.039198343 -0.11370059 4292270583
-0.36125612 0.04011577 -0.11471147 4292467191
-0.36138582 0.041059148 -0.1153521 4292467190
-0.36104012 0.042047545 -0.11524599 4292467191
-0.36022231 0.043075342 -0.11439583 4292401912
