# .PCD v0.7 - Point Cloud Data file format
VERSION 0.7
FIELDS x y z rgba
SIZE 4 4 4 4
TYPE F F F U
COUNT 1 1 1 1
WIDTH 948
HEIGHT 1
VIEWPOINT 0 0 0 1 0 0 0
POINTS 948
DATA ascii
-0.35043535 0.041600376 -0.11538602 4290209368
-0.34929177 0.04359002 -0.11442418 4290205265
-0.34879628 0.03922943 -0.11541774 4290207057
-0.3476606 0.041223895 -0.11445758 4289940291
-0.34653309 0.043204281 -0.11350442 4290136388
-0.34541363 0.045170698 -0.11255816 4290148702
-0.33592397 0.069580302 -0.10833438 4290933352
-0.33487409 0.071400352 -0.10743514 4290733918
-0.33383152 0.073208041 -0.10654226 4290740588
-0.34804571 0.036757626 -0.11691692 4290010957
-0.34647214 0.038815461 -0.11521897 4290005569
-0.34534883 0.040804371 -0.11426313 4290004030
-0.34466478 0.042735822 -0.1140362 4290267456
-0.34312618 0.044740319 -0.11237215 4290342743
-0.33445773 0.063591354 -0.10672316 4291393387
-0.33421442 0.06541992 -0.10720526 4291449937
-0.33357191 0.067248188 -0.1069991 4291381315
-0.33253556 0.069066711 -0.1061092 4291315265
-0.33189926 0.070879743 -0.10590614 4291184450
-0.330874 0.07267689 -0.10502474 4290991948
-0.32985574 0.07446193 -0.10414954 4291068777
-0.34685081 0.034336098 -0.11768243 4290142540
-0.34571996 0.036351632 -0.11671247 4289875264
-0.34459722 0.038352873 -0.11574955 4289938751
-0.34348252 0.040340003 -0.11479363 4290071106
-0.34280297 0.042268954 -0.11456633 4290405713
-0.34127694 0.044272497 -0.11290254 4290808941
-0.34018585 0.046218194 -0.11196721 4291079298
-0.33910245 0.04815032 -0.11103853 4291212425
-0.33761472 0.050098855 -0.10941416 4291147147
-0.33573684 0.052053258 -0.10711353 4291016842
-0.33428475 0.053958163 -0.10552961 4290885773
-0.33324432 0.055824235 -0.10464296 4291016592
-0.33221102 0.05767766 -0.10376253 4291277456
-0.33196938 0.059492897 -0.10424121 4291136377
-0.33133516 0.061318144 -0.10404144 4291124308
-0.33109385 0.063130774 -0.10451943 4291185217
-0.33046216 0.064947121 -0.10431968 4291183934
-0.33022124 0.066757165 -0.104797 4291249215
-0.32959208 0.068564668 -0.1045973 4291380545
-0.32896501 0.070366226 -0.10439832 4291511872
-0.32795674 0.07215295 -0.10352831 4291446081
-0.32695523 0.073927715 -0.10266427 4291317832
-0.32633793 0.075705573 -0.10247054 4291326560
-0.34609523 0.031850688 -0.11918856 4290210907
-0.34452927 0.033938646 -0.11747529 4289941827
-0.34341073 0.035948474 -0.11650969 4289873981
-0.34230021 0.037944097 -0.1155511 4289940035
-0.34162268 0.039877221 -0.11532252 4290210133
-0.34094754 0.041803651 -0.11509478 4290614384
-0.33985364 0.04376496 -0.11414835 4290883719
-0.3387675 0.04571256 -0.11320871 4290950540
-0.33768901 0.047646642 -0.11227576 4291081357
-0.33620861 0.049597945 -0.11064497 4291081613
-0.33353806 0.051609725 -0.10695205 4291082380
-0.33170778 0.053533722 -0.10469263 4291147918
-0.33029142 0.055411644 -0.10313781 4291344014
-0.32927528 0.057253879 -0.10226873 4291604618
-0.32864991 0.059070297 -0.10207378 4291331436
-0.32802671 0.060880758 -0.10187964 4290860105
-0.32817045 0.062670678 -0.1030234 4290922302
-0.327548 0.064475492 -0.10282778 4291118397
-0.32730857 0.066273265 -0.10330196 4291249214
-0.3270691 0.068071328 -0.10377619 4291445824
-0.32644945 0.069864608 -0.10357975 4291511105
-0.32583189 0.071652062 -0.10338406 4291446336
-0.32484093 0.073422618 -0.10252362 4291578176
-0.32422921 0.075195424 -0.10233086 4291512900
-0.32361948 0.076962501 -0.10213882 4291453533
-0.34333852 0.03152559 -0.11823813 4290009417
-0.34222421 0.03354397 -0.11726984 4289809216
-0.34111786 0.035548124 -0.11630857 4289940034
-0.34044236 0.037485398 -0.11607869 4290078803
-0.33976924 0.039415982 -0.1158497 4290484081
-0.33909848 0.041339941 -0.11562162 4290752391
-0.33843011 0.043257322 -0.11539438 4290885004
-0.33693519 0.045245472 -0.11373537 4290819724
-0.33586499 0.047177911 -0.11280239 4291016077
-0.3339926 0.049159694 -0.11047005 4291082125
-0.33135432 0.051169172 -0.10679194 4291147661
-0.32877043 0.053137388 -0.10318987 4291213454
-0.32737878 0.0550046 -0.10165357 4291344783
-0.32600126 0.056853026 -0.10013303 4291673232
-0.32538667 0.058654804 -0.099943504 4291274115
-0.32477418 0.060450707 -0.099754684 4290865500
-0.32491103 0.062224824 -0.10088531 4291118657
-0.32467315 0.064010218 -0.10135632 4291315775
-0.32443523 0.065795898 -0.10182739 4291380798
-0.32419729 0.06758181 -0.10229854 4291511615
-0.32395932 0.069368027 -0.10276975 4291511104
-0.323349 0.07114733 -0.10257658 4291511359
-0.32274073 0.072920844 -0.10238412 4291576894
-0.32213449 0.074688658 -0.10219241 4291576896
-0.3218976 0.076466836 -0.10266151 4291577412
-0.32166064 0.078245275 -0.10313068 4291518047
-0.34301212 0.028974893 -0.12048145 4290012756
-0.34103763 0.031139424 -0.11803003 4289809731
-0.33993545 0.033152062 -0.11706611 4289873984
-0.33926201 0.03509349 -0.11683491 4290141007
-0.33859089 0.037028208 -0.11660462 4290483054
-0.33792219 0.038956322 -0.11637525 4290621061
-0.33725578 0.0408778 -0.11614675 4290818954
-0.33617869 0.04283566 -0.11520018 4290819724
-0.33510914 0.044779949 -0.11426037 4290754445
-0.33404714 0.046710733 -0.11332735 4290885773
-0.33219066 0.048692454 -0.11099555 4291082382
-0.3295756 0.050703432 -0.10731848 4291148177
-0.32663262 0.052697681 -0.10304516 4291213970
-0.32488036 0.054582015 -0.10085122 4291345297
-0.32352242 0.056423292 -0.099342577 4291607955
-0.32291505 0.058216773 -0.099155523 4291671440
-0.32230967 0.060004465 -0.098969124 4291462256
-0.32207331 0.061777689 -0.099437013 4291383113
-0.32183692 0.063551143 -0.099904977 4291512898
-0.32160053 0.06532488 -0.10037299 4291643201
-0.32136407 0.067098856 -0.10084108 4291642945
-0.32112756 0.068873122 -0.10130926 4291642689
-0.32089102 0.070647627 -0.10177749 4291642173
-0.32028985 0.072413169 -0.10158747 4291577149
-0.32041788 0.074197426 -0.10271415 4291576895
-0.31981742 0.075957492 -0.1025227 4291510848
-0.31958115 0.07773006 -0.10299042 4291708484
-0.32007211 0.079545401 -0.1047834 4291522404
-0.34070396 0.028596308 -0.12026457 4289682001
-0.33875304 0.030755913 -0.11782363 4289547336
-0.33766288 0.032762866 -0.11686407 4289940811
-0.33741254 0.03464039 -0.11735957 4290346855
-0.3367458 0.036572587 -0.11712892 4290553218
-0.33608145 0.0384982 -0.11689913 4290687883
-0.33583185 0.040369838 -0.11739309 4290753931
-0.33475968 0.042329639 -0.11644223 4290819981
-0.33369505 0.04427585 -0.11549816 4290886286
-0.33223546 0.046245124 -0.11385065 4291017615
-0.3303948 0.048226785 -0.11151942 4291213969
-0.32780281 0.050239228 -0.10784339 4291280020
-0.3245092 0.052260883 -0.10290169 4291346070
-0.32277715 0.05414192 -0.10071625 4291411861
-0.32106844 0.055997841 -0.098560363 4291543188
-0.32010508 0.057798494 -0.097726129 4291936403
-0.31950834 0.059575018 -0.097543493 4291798401
-0.31927347 0.061336439 -0.098008364 4291325021
-0.31903854 0.06309814 -0.098473318 4291775045
-0.31880358 0.064860091 -0.098938331 4291840068
-0.31856859 0.066622302 -0.099403411 4291773762
-0.31833357 0.068384767 -0.099868558 4291774016
-0.3184576 0.070152871 -0.10098668 4291904830
-0.3178634 0.071910486 -0.10079907 4291773247
-0.31798658 0.073685043 -0.1019189 4291576127
-0.31775105 0.075451516 -0.10238509 4291575613
-0.31787416 0.077235542 -0.10350959 4291576641
-0.3179976 0.079025857 -0.10463791 4291386974
-0.33841217 0.028220383 -0.12004948 4289752417
-0.33648458 0.030375075 -0.11761897 4289619297
-0.33499455 0.032437947 -0.11594212 4289884266
-0.33474541 0.034305558 -0.11643511 4290355331
-0.3344962 0.036173452 -0.11692818 4290490507
-0.33424699 0.038041625 -0.11742133 4290688141
-0.33358929 0.039958157 -0.11719209 4290819983
-0.33293384 0.041868139 -0.11696367 4290951312
-0.33187747 0.043812662 -0.11601961 4291083153
-0.33042991 0.045781046 -0.11437236 4291149459
-0.32860497 0.047762614 -0.11204172 4291411094
-0.3256532 0.049806204 -0.10768195 4291542680
-0.32277191 0.051801201 -0.10342644 4291543449
-0.32105446 0.053682283 -0.10124131 4291608984
-0.3189989 0.055557441 -0.09843488 4291674520
-0.31804559 0.057353694 -0.097603962 4291871129
-0.31709859 0.059138183 -0.096778639 4291934102
-0.31686476 0.060890932 -0.097241312 4291723639
-0.31592479 0.062658221 -0.096420102 4291970892
-0.31569165 0.064405635 -0.096881375 4291906120
-0.31545851 0.06615331 -0.097342715 4291906633
-0.31557661 0.067902848 -0.09844736 4291708484
-0.31534302 0.069653951 -0.098909587 4291839041
-0.31546104 0.071412764 -0.10001878 4291839042
-0.31593314 0.073188156 -0.10178385 4291707455
-0.31569824 0.074948832 -0.10224861 4291510592
-0.31617263 0.076742597 -0.1040272 4291380806
-0.31629294 0.078529194 -0.10515465 4291524457
-0.31749138 0.080390103 -0.10829146 4291674526
-0.31907248 0.082302883 -0.11215425 4291740064
-0.3203086 0.084219135 -0.115388 4291804830
-0.33098468 0.086996317 -0.13632137 4291738778
-0.33210641 0.033974215 -0.11552074 4290293642
-0.33185843 0.035832301 -0.11601133 4290491276
-0.33201391 0.037638713 -0.11722071 4290688655
-0.33176538 0.039500635 -0.1177123 4291017362
-0.3311142 0.0414082 -0.11748353 4291279763
-0.33006603 0.043351021 -0.11653943 4291411350
-0.32863045 0.045318533 -0.11489249 4291478169
-0.32682112 0.047300003 -0.11256238 4291543708
-0.32389584 0.049345747 -0.10820398 4291740316
-0.32140994 0.051316377 -0.10461871 4291740828
-0.31933737 0.053224117 -0.10176481 4291675549
-0.31729952 0.055100098 -0.098958775 4291675293
-0.31635338 0.056894999 -0.098127648 4291805851
-0.31506246 0.058691926 -0.096660778 4292198811
-0.3144798 0.06044976 -0.096482068 4292258701
-0.31355229 0.062209852 -0.095667593 4291784554
-0.31332019 0.063948736 -0.096126713 4291841109
-0.31274319 0.065689936 -0.09594997 4291908177
-0.31285593 0.067427211 -0.097045116 4292103498
-0.31262374 0.069166861 -0.097504437 4291905349
-0.31273636 0.070913315 -0.09860412 4291839555
-0.31354403 0.072684914 -0.10100027 4291774017
-0.31365889 0.07444942 -0.10211322 4291773762
-0.31447652 0.076251209 -0.10454326 4291512402
-0.31459367 0.078034103 -0.10566984 4291861632
-0.31613669 0.079910584 -0.10947772 4291806114
-0.31734213 0.081794031 -0.11266565 4291740836
-0.31819683 0.08367487 -0.11520447 4291871651
-0.3224431 0.085869104 -0.12416732 4291871393
-0.32489976 0.087969735 -0.12977706 4291869853
-0.3294951 0.033646289 -0.11461626 4290294155
-0.32924831 0.03549467 -0.11510439 4290622862
-0.32939821 0.037291035 -0.11630591 4290886034
-0.32915092 0.039143227 -0.11679503 4291214486
-0.32850766 0.041041452 -0.1165692 4291477400
-0.32747403 0.042975482 -0.11563342 4291609243
-0.32644755 0.0448962 -0.11470425 4291675037
-0.32504323 0.046838887 -0.11308143 4291741086
-0.3221443 0.048886806 -0.10872448 4291806367
-0.31968042 0.050858866 -0.10514013 4291871647
-0.31762579 0.052767411 -0.1022867 4291806624
-0.31560564 0.05464419 -0.099481203 4291872672
-0.31431621 0.056455247 -0.098005183 4291938207
-0.31338605 0.058234081 -0.097182877 4292464036
-0.31246209 0.060001396 -0.096366145 4292528296
-0.31154415 0.061757315 -0.095554821 4291932058
-0.31131271 0.063490555 -0.096012548 4292584835
-0.3104015 0.065229706 -0.095205188 4292907893
-0.31050971 0.066957787 -0.096293822 4292309094
-0.31061819 0.068691835 -0.097386122 4291776348
-0.31072703 0.070431866 -0.09848205 4291970892
-0.31152189 0.072195299 -0.10086977 4291970371
-0.31232467 0.073976643 -0.10328148 4292036161
-0.31313545 0.075776197 -0.10571755 4291713373
-0.31360176 0.077576287 -0.10751118 4292129941
-0.31478176 0.07943099 -0.11066421 4292068773
-0.31561747 0.081286788 -0.1131756 4292003495
-0.31609932 0.083134227 -0.11502246 4291937702
-0.31916252 0.085213959 -0.1218041 4292003238
-0.32117617 0.087252535 -0.12660675 4291937702
-0.3240113 0.089414425 -0.13300502 4291936161
-0.32769436 0.03320336 -0.1151365 4290359949
-0.32705596 0.035104666 -0.11491434 4290820497
-0.32680982 0.036946934 -0.11540096 4291083157
-0.32617402 0.038838908 -0.11517884 4291477658
-0.32554039 0.040724505 -0.11495756 4291741086
-0.32452416 0.042646255 -0.11403407 4291807136
-0.32351503 0.044554889 -0.11311709 4291741601
-0.32213551 0.046486028 -0.11151389 4291741345
-0.3200281 0.048461117 -0.10856174 4291872162
-0.31759399 0.050430968 -0.10499135 4291872418
-0.31591979 0.052312151 -0.10280706 4291807395
-0.31391713 0.054189749 -0.10000204 4292004259
-0.31298515 0.055981919 -0.099170439 4292398757
-0.31171504 0.057777692 -0.097703524 4292595879
-0.31079796 0.059543721 -0.096886463 4292396710
-0.30954897 0.061307624 -0.095442995 4292266405
-0.30931821 0.063035309 -0.095899329 4292463782
-0.30875134 0.064766802 -0.095724449 4292856485
-0.30852088 0.066492155 -0.096180163 4292722848
-0.30862564 0.068219863 -0.097268753 4292650638
-0.30873069 0.069953486 -0.098361067 4292641651
-0.30951288 0.071708821 -0.10074043 4292173407
-0.31099018 0.073503792 -0.10444999 4292168786
-0.31179416 0.075301081 -0.10689204 4292049516
-0.3122558 0.077099711 -0.10868976 4292133794
-0.31342658 0.078951314 -0.1118509 4292200617
-0.31425524 0.080804788 -0.11436849 4292135081
-0.31401581 0.082597174 -0.11484193 4292003497
-0.31630275 0.084600382 -0.12018453 4292069288
-0.31790051 0.086584248 -0.12421857 4292069288
-0.32028359 0.088679463 -0.12978975 4292134823
-0.33248174 0.091894671 -0.15443319 4291935901
-0.32410926 0.034829758 -0.11331968 4291017879
-0.32348248 0.036712084 -0.11310278 4291412379
-0.32247865 0.038637359 -0.11219056 4291740574
-0.32261416 0.04041186 -0.1133686 4291807137
-0.32161498 0.042321507 -0.1124571 4291741859
-0.32062271 0.044218205 -0.11155201 4291676323
-0.31926748 0.046137929 -0.10996805 4291807653
-0.31683692 0.048134692 -0.10637728 4291938470
-0.31516489 0.050034449 -0.10418002 4291938213
-0.31351531 0.051908948 -0.10201231 4292004518
-0.31188771 0.053758714 -0.099873625 4292268457
-0.31096542 0.055546511 -0.099045306 4292465578
-0.3097094 0.057338599 -0.097583964 4292398250
-0.3091391 0.059087437 -0.097405329 4292398764
-0.30790025 0.060850844 -0.095961809 4292399275
-0.30733654 0.062582962 -0.095787123 4292596653
-0.30677468 0.064309664 -0.095613055 4292793263
-0.3062146 0.066030972 -0.095439665 4292858543
-0.30631495 0.06774956 -0.096521839 4292791210
-0.30674726 0.069478169 -0.098241068 4292723106
-0.3075169 0.071225516 -0.1006121 4292651156
-0.3089726 0.073010579 -0.1043084 4292380029
-0.31045261 0.07482589 -0.10806675 4292583560
-0.31090963 0.076623015 -0.10986856 4292331944
-0.31207111 0.078471541 -0.11303782 4292266924
-0.31253824 0.080299929 -0.11487503 4292135340
-0.31229907 0.082089402 -0.11534779 4292135341
-0.31348193 0.083995111 -0.11858743 4292200875
-0.31468105 0.08592739 -0.12187172 4292266410
-0.31663355 0.087959751 -0.12664193 4292266153
-0.32848847 0.091098502 -0.1508335 4292066468
-0.3212032 0.034558591 -0.11174735 4291149209
-0.3205857 0.036428485 -0.11153487 4291478176
-0.31959864 0.038341571 -0.1106344 4291675554
-0.31861836 0.040241793 -0.10974027 4291742116
-0.31728029 0.042171683 -0.10817368 4291808165
-0.31667775 0.044004086 -0.10797042 4291807654
-0.31571728 0.045866426 -0.10709466 4291873190
-0.31405276 0.047781389 -0.10489262 4291938468
-0.31241053 0.049670868 -0.10272019 4291938212
-0.31148034 0.051483907 -0.10187685 4292070824
-0.31021333 0.053307824 -0.10039166 4292399787
-0.30929807 0.055094276 -0.099563152 4292333226
-0.30838874 0.056869149 -0.098740146 4292333999
-0.30748543 0.05863259 -0.097922683 4292530865
-0.30658802 0.060384713 -0.097110651 4292596659
-0.30602637 0.062117726 -0.096934199 4292597171
-0.30513805 0.063850366 -0.096129507 4292924852
-0.30490848 0.065567516 -0.096583255 4292925366
-0.30500656 0.067285433 -0.097667411 4292859061
-0.30510494 0.069009274 -0.098755255 4292793268
-0.30586511 0.070751518 -0.10112505 4292726193
-0.3073045 0.07252983 -0.10481958 4292525735
-0.30842632 0.07432583 -0.10791271 4292592549
-0.30887485 0.0761154 -0.10970802 4292464814
-0.31001857 0.077954352 -0.11286566 4292267694
-0.31012839 0.079753213 -0.11401462 4292266927
-0.31023854 0.081558436 -0.11516747 4292266928
-0.31105062 0.083426051 -0.1177024 4292398255
-0.31187099 0.085313089 -0.12026342 4292332461
-0.3137807 0.087325141 -0.12498405 4292331947
-0.32418188 0.090277143 -0.14652103 4292328614
-0.31796941 0.034347165 -0.10951252 4290952603
-0.31772843 0.036148693 -0.10998867 4291347105
-0.3163949 0.038099144 -0.1084208 4291478690
-0.31543374 0.039984137 -0.10754196 4291610275
-0.31412309 0.041899096 -0.10599994 4291741349
-0.31353086 0.043716583 -0.10580225 4291807399
-0.3122386 0.04560034 -0.10427956 4291807656
-0.31130573 0.047432717 -0.10342809 4291610532
-0.31003535 0.049282636 -0.10193015 4291741599
-0.30945867 0.051061586 -0.10174249 4292135842
-0.30820581 0.052881707 -0.10026301 4292332714
-0.30763593 0.054643426 -0.10007943 4292399023
-0.30673349 0.056417007 -0.099256255 4292465842
-0.30616876 0.058164738 -0.099075392 4292662452
-0.30527556 0.059918515 -0.09825971 4292728246
-0.30471596 0.061652388 -0.098081484 4292728760
-0.30415812 0.063380875 -0.097903922 4292990905
-0.3036021 0.065103941 -0.097727053 4292991674
-0.30369794 0.066821255 -0.098813199 4292991161
-0.30379406 0.068544447 -0.099903047 4292925368
-0.3042185 0.070279017 -0.10163651 4292859063
-0.30597597 0.072059073 -0.10598288 4292596407
-0.30675045 0.073840506 -0.10842079 4292399796
-0.30719253 0.075625591 -0.11021497 4292465588
-0.30832282 0.077458248 -0.11337078 4292464817
-0.30877462 0.079274192 -0.11520009 4292398769
-0.30922946 0.081102751 -0.11704182 4292398514
-0.31003758 0.082971342 -0.11959077 4292464305
-0.31050062 0.084828727 -0.12146351 4292398513
-0.31203678 0.086801521 -0.12548111 4292332720
-0.31655601 0.089118004 -0.1354727 4292461737
-0.31514937 0.034083266 -0.10799078 4291476377
-0.31455138 0.035925545 -0.10778822 4291610276
-0.31289187 0.03790997 -0.10557765 4291412901
-0.31125465 0.039867945 -0.10339689 4291478950
-0.30998236 0.04175799 -0.10189646 4291676070
-0.30974758 0.043512478 -0.10236026 4291807400
-0.30848911 0.045375399 -0.10087262 4291741607
-0.30859515 0.047088623 -0.10198335 4291806883
-0.30802172 0.048868157 -0.10179593 4292004004
-0.30745018 0.05064201 -0.10160919 4292136361
-0.30654538 0.052434333 -0.10077824 4292333229
-0.30597901 0.054194026 -0.10059423 4292464560
-0.30541453 0.055948146 -0.10041095 4292531381
-0.30485186 0.057696778 -0.10022831 4292662710
-0.30396289 0.05945221 -0.099408962 4292729016
-0.30373198 0.061177537 -0.099865064 4292860091
-0.3035011 0.062903136 -0.10032122 4292991676
-0.30294418 0.064632758 -0.10013989 4292992190
-0.30271357 0.066356011 -0.10059544 4293123005
-0.30313438 0.068083271 -0.10233123 4293057468
-0.3032299 0.069817416 -0.10343245 4292991163
-0.30464715 0.071588248 -0.1071464 4292793530
-0.30541489 0.073367454 -0.10959026 4292596409
-0.30585238 0.075151041 -0.11138848 4292595894
-0.30663255 0.076963745 -0.11387448 4292661685
-0.30673602 0.078755133 -0.11502145 4292530100
-0.30718231 0.080575861 -0.11685654 4292464564
-0.30763158 0.082409233 -0.1187041 4292529843
-0.30808392 0.084255338 -0.12056435 4292529844
-0.30994439 0.086246334 -0.12526397 4292398772
-0.31293145 0.088391051 -0.13225508 4292397742
-0.31415153 0.090396337 -0.13570565 4292459161
-0.31510463 0.03162678 -0.11075248 4289883498
-0.31272036 0.033766627 -0.10715986 4290280309
-0.31212938 0.035600204 -0.10695983 4290550160
-0.31084192 0.037527401 -0.10542868 4290686109
-0.3092238 0.039481495 -0.10325641 4291148705
-0.30762717 0.04140988 -0.10111307 4291741091
-0.30739343 0.043155726 -0.10157469 4292070054
-0.30581939 0.045047548 -0.099456742 4292136105
-0.3062543 0.046715483 -0.10120252 4292069544
-0.30568749 0.048486941 -0.10101745 4292134825
-0.30545479 0.050225113 -0.10147705 4292267695
-0.30489016 0.051988341 -0.10129195 4292399280
-0.30465779 0.053724185 -0.1017509 4292464561
-0.30409536 0.055479228 -0.10156585 4292596918
-0.30353475 0.057228722 -0.10138143 4292597432
-0.303303 0.058959622 -0.1018391 4292794809
-0.30307126 0.060690764 -0.10229681 4292990908
-0.30283946 0.062422127 -0.10275461 4293123262
-0.30228168 0.064158373 -0.10256881 4293123776
-0.3020502 0.065887429 -0.10302597 4293188800
-0.30214387 0.067617849 -0.10412839 4293123263
-0.30223778 0.069354236 -0.10523452 4293057215
-0.30364904 0.071124248 -0.10896979 4292991165
-0.30407909 0.072894275 -0.11075994 4292924602
-0.30417737 0.07466349 -0.11189216 4292727222
-0.3049477 0.076470822 -0.11437665 4292661945
-0.30471092 0.078239471 -0.11484429 4292596408
-0.30514872 0.080052443 -0.11667265 4292596149
-0.3055895 0.081877962 -0.11851352 4292595892
-0.30569151 0.083687693 -0.11967453 4292530357
-0.30751777 0.085662767 -0.12434106 4292399030
-0.31009346 0.087751105 -0.13055319 4292267444
-0.31128502 0.089738019 -0.13396794 4292397227
-0.31578815 0.029013967 -0.1149327 4290279537
-0.31301922 0.031259973 -0.11058368 4289941071
-0.31066406 0.03339643 -0.10700507 4290202698
-0.30973166 0.035278086 -0.10614007 4290598997
-0.30812088 0.037247136 -0.10396309 4290862941
-0.30720627 0.039097562 -0.10311706 4290997096
-0.30562821 0.041022193 -0.10098191 4291132018
-0.30539516 0.042762373 -0.10144211 4291334277
-0.30449846 0.044576999 -0.10061301 4291404439
-0.30393636 0.046345972 -0.10042961 4291540386
-0.30370432 0.048078325 -0.10088775 4292069290
-0.30347228 0.049810894 -0.10134593 4292399027
-0.30324021 0.051543746 -0.10180421 4292465076
-0.30300808 0.053276833 -0.10226255 4292530099
-0.30277592 0.055010185 -0.10272096 4292661940
-0.30221736 0.056760602 -0.10253476 4292728505
-0.3019855 0.058491595 -0.10299255 4292926140
-0.30175364 0.060222857 -0.1034504 4293056958
-0.30184692 0.061946139 -0.10455526 4293123007
-0.30161458 0.063680783 -0.105014 4293123521
-0.30138224 0.065415666 -0.1054728 4293189058
-0.30114982 0.067150794 -0.1059317 4293123010
-0.30124214 0.068889402 -0.10704271 4293057218
-0.30231756 0.070652455 -0.11013567 4292991680
-0.30241251 0.072411902 -0.11126312 4292991165
-0.30250776 0.074177481 -0.11239437 4292662201
-0.30293524 0.075964302 -0.1142023 4292662975
-0.30269912 0.077727161 -0.11466852 4292793789
-0.30312857 0.079532444 -0.11649029 4292727481
-0.30356088 0.081350185 -0.11832438 4292531128
-0.30365902 0.083153054 -0.11948134 4292530871
-0.30511567 0.085085064 -0.12342776 4292464565
-0.30729434 0.0871199 -0.12887502 4292267442
-0.30845809 0.08908876 -0.13225451 4292266411
-0.31440628 0.028520307 -0.11614212 4290538083
-0.31165373 0.030772341 -0.11177877 4290265410
-0.30896628 0.03297139 -0.10751867 4290461245
-0.30769888 0.034905326 -0.1059901 4290723904
-0.30644417 0.036820136 -0.1044769 4290986307
-0.30520195 0.038716089 -0.10297888 4291052358
-0.30397204 0.040593453 -0.1014958 4291119692
-0.30340979 0.042371556 -0.10131059 4291319385
-0.30252251 0.044181615 -0.10048482 4291323754
-0.30196539 0.045945562 -0.10030233 4291465865
-0.301734 0.047672313 -0.10075909 4292200617
-0.30150259 0.04939932 -0.10121591 4292399285
-0.30127114 0.05112657 -0.10167278 4292530357
-0.30136356 0.052830894 -0.1027727 4292595635
-0.30080816 0.054581877 -0.10258677 4292727220
-0.3005766 0.056309909 -0.10304388 4292794298
-0.30034503 0.058038175 -0.10350102 4292926142
-0.30043575 0.059754882 -0.10460421 4292926143
-0.30052677 0.06147752 -0.1057111 4292992190
-0.30029431 0.063212276 -0.10616996 4292991936
-0.30006182 0.0649473 -0.1066289 4293123779
-0.2998293 0.06668257 -0.10708791 4293123012
-0.29991934 0.068420522 -0.10820097 4292925894
-0.30033395 0.070169821 -0.10997695 4292991940
-0.30042514 0.071922757 -0.11110049 4292991424
-0.30051669 0.073681779 -0.11222787 4292662717
-0.30060846 0.075446919 -0.11335908 4292860098
-0.30070049 0.07721819 -0.1144941 4292925375
-0.30112171 0.079015873 -0.11630935 4292727737
-0.30121496 0.080802582 -0.11745515 4292530616
-0.30130857 0.082595572 -0.11860494 4292464824
-0.30273774 0.084513158 -0.12252396 4292398775
-0.30453336 0.08649724 -0.12722011 4292398771
-0.30601743 0.088485502 -0.1312881 4292397227
-0.31159061 0.028294042 -0.11456497 4290470750
-0.30923781 0.030471679 -0.11092764 4290264380
-0.30693251 0.032605585 -0.10736389 4290394939
-0.30601707 0.034480639 -0.10650229 4290723133
-0.30510777 0.036343411 -0.1056466 4290985536
-0.30387211 0.038241871 -0.10414287 4291116865
-0.30232105 0.040166039 -0.1020082 4291248707
-0.30176237 0.041942034 -0.10182262 4291577161
-0.30055931 0.043788727 -0.1003577 4291644501
-0.30032822 0.045512524 -0.10081377 4291787641
-0.29977638 0.047268871 -0.10063151 4292330406
-0.29986596 0.048960853 -0.10172609 4292399542
-0.29963478 0.050685417 -0.10218235 4292465077
-0.29972419 0.052386332 -0.10328137 4292595892
-0.29949257 0.054114226 -0.10373852 4292662199
-0.29894102 0.055860609 -0.10355155 4292794555
-0.2990292 0.057570767 -0.10465302 4292859581
-0.29879746 0.059299447 -0.10511038 4292794559
-0.29888549 0.061018616 -0.10621641 4292926398
-0.2989738 0.062743716 -0.10732614 4292992449
-0.29842111 0.064482898 -0.10713296 4292926404
-0.29850855 0.066214219 -0.10824434 4293188805
-0.29859626 0.067951523 -0.10935944 4293057223
-0.29836318 0.069690302 -0.10981946 4293188552
-0.29845074 0.071436763 -0.1109392 4293122499
-0.29853857 0.073189266 -0.1120627 4292661177
-0.29830459 0.074934572 -0.11252446 4292988084
-0.29839221 0.076696314 -0.11365254 4293383095
-0.29912797 0.078502625 -0.11612979 4293121466
-0.29921752 0.080282629 -0.11727164 4292792505
-0.29963425 0.082094245 -0.11909946 4292660918
-0.30104676 0.084004492 -0.12301622 4292464051
-0.30282179 0.085980088 -0.12770948 4292267442
-0.30463359 0.087996885 -0.13250005 4292397225
-0.31021774 0.027803613 -0.11576653 4290405730
-0.30822539 0.029923415 -0.11279894 4290264382
-0.30592629 0.032066569 -0.10921031 4290264124
-0.30501264 0.03394673 -0.10834127 4290591804
-0.30377114 0.035866592 -0.10681654 4290919998
-0.30254203 0.037767548 -0.1053071 4291117122
-0.30132508 0.039649893 -0.10381271 4291314502
-0.30076697 0.041429795 -0.10362392 4291577161
-0.29988819 0.043243196 -0.10279079 4291709264
-0.29933515 0.045008939 -0.10260475 4291914861
-0.29878393 0.046769105 -0.10241945 4292196252
-0.29855266 0.048493523 -0.10287576 4292334006
-0.29864019 0.050190691 -0.10397598 4292465334
-0.29840848 0.051918443 -0.10443319 4292596407
-0.29817674 0.053646483 -0.10489046 4292531130
-0.29794496 0.05537476 -0.1053478 4292859836
-0.29771313 0.057103299 -0.10580522 4292794045
-0.2974813 0.058832068 -0.1062627 4292794044
-0.29788575 0.060540039 -0.1080234 4292794046
-0.29765305 0.062275037 -0.10848252 4292992196
-0.29742032 0.064010307 -0.10894173 4293123267
-0.29718757 0.065745808 -0.10940097 4293123528
-0.29759225 0.067483351 -0.11117814 4293123272
-0.29735863 0.069225125 -0.11163907 4293188295
-0.29712504 0.070967168 -0.11210005 4293252287
-0.29689136 0.072709434 -0.11256111 4292648860
-0.29697642 0.074464433 -0.11368749 4292309884
-0.29674232 0.076210126 -0.11414944 4292183690
-0.29746848 0.078011155 -0.11662515 4292259750
-0.29787788 0.079808958 -0.1184448 4292921777
-0.29828998 0.081619136 -0.12027669 4293121205
-0.29969099 0.083525456 -0.12420353 4292660660
-0.30145201 0.085496277 -0.12890908 4292397742
-0.30359349 0.087543786 -0.13444209 4292330916
-0.3088446 0.027313063 -0.1169683 4290274660
-0.30686384 0.029437194 -0.11399062 4290264896
-0.30491647 0.031525664 -0.11106324 4290264381
-0.30366912 0.033467289 -0.10951718 4290591803
-0.30276591 0.035336822 -0.1086502 4290985534
-0.30153966 0.037243728 -0.10712919 4291248452
-0.30065092 0.03908572 -0.10627744 4291445832
-0.29976812 0.040915746 -0.10543143 4291577161
-0.29889101 0.042733956 -0.10459107 4291642957
-0.29833859 0.04450357 -0.10440189 4291715682
-0.29778796 0.046267617 -0.1042134 4291930000
-0.29755619 0.047994982 -0.10467061 4292202679
-0.29732439 0.049722619 -0.10512788 4292464823
-0.29709256 0.051450517 -0.10558522 4292596409
-0.29686069 0.053178649 -0.10604262 4292596666
-0.29662877 0.05490705 -0.10650009 4292663231
-0.29639685 0.056635704 -0.10695763 4292794558
-0.29616487 0.058364622 -0.10741524 4292794045
-0.29656485 0.06007117 -0.10917988 4292726972
-0.29633206 0.061806295 -0.10963912 4292729798
-0.29609922 0.063541681 -0.11009844 4293123269
-0.29618272 0.065274552 -0.11121678 4293057991
-0.2962665 0.067013443 -0.11233897 4293058248
-0.29635054 0.068758354 -0.11346491 4293254597
-0.29611638 0.070503369 -0.11392678 4292787884
-0.29620022 0.072257496 -0.11505733 4292770163
-0.29596561 0.074005954 -0.1155201 4292694096
-0.29573098 0.075754665 -0.11598295 4292562257
-0.29613319 0.077538848 -0.11779448 4292630109
-0.29653803 0.079335228 -0.11961816 4292506999
-0.29694551 0.081143908 -0.12145411 4292192669
-0.29833502 0.083046362 -0.12539105 4292462261
-0.30245134 0.085231215 -0.13517408 4292463278
-0.30463117 0.087300688 -0.14085181 4292199075
-0.30712295 0.026891259 -0.11747336 4290016875
-0.30516008 0.029015498 -0.11449657 4290136134
-0.30356604 0.03104361 -0.11224519 4290329916
-0.3023254 0.032987762 -0.1106933 4290657595
-0.30142659 0.034859058 -0.1098225 4290985791
-0.30053368 0.036718089 -0.10895756 4291248709
-0.29964676 0.038564991 -0.10809846 4291445834
-0.29876563 0.040399928 -0.10724515 4291511628
-0.29789031 0.042222977 -0.10639749 4291577167
-0.29702073 0.044034272 -0.10555553 4291517279
-0.29647213 0.045799211 -0.10536526 4291598474
-0.29624024 0.047526702 -0.10582259 4292071607
-0.29600832 0.049254462 -0.10627998 4292267959
-0.29577637 0.050982479 -0.10673745 4292465338
-0.29554439 0.052710734 -0.10719498 4292596922
-0.29531237 0.054439276 -0.10765259 4292729023
-0.2950803 0.05616805 -0.10811026 4292794816
-0.29484823 0.057897069 -0.10856798 4292926143
-0.2946161 0.059626363 -0.10902578 4292661178
-0.29469684 0.061346695 -0.11013872 4292860612
-0.29477784 0.063072965 -0.11125538 4293057991
-0.29454488 0.064808741 -0.11171488 4293057478
-0.29494053 0.06654343 -0.11349998 4293189318
-0.29502225 0.068287671 -0.11462798 4293318073
-0.29510418 0.070037976 -0.11575974 4293169029
-0.29486948 0.071786314 -0.11622258 4292958042
-0.29463476 0.073534891 -0.11668549 4292757835
-0.29440001 0.075283721 -0.11714846 4292692041
-0.29448095 0.077049613 -0.11828664 4292757323
-0.2951979 0.078861378 -0.12079173 4292497241
-0.29721802 0.080784708 -0.12610692 4292114561
-0.2989535 0.082727395 -0.13083218 4292526252
-0.30140525 0.084772207 -0.13712434 4292331951
-0.30357593 0.08683981 -0.14283618 4292001699
-0.30380034 0.02852991 -0.11568666 4290010455
-0.30221537 0.030561436 -0.11342736 4290330688
-0.30098143 0.032508168 -0.11186964 4290657597
-0.30008698 0.034381166 -0.11099502 4290986304
-0.29919845 0.036241915 -0.11012629 4291183174
-0.29831582 0.038090546 -0.10926345 4291249229
-0.29775959 0.03988231 -0.10906505 4291315536
-0.29688606 0.041710209 -0.10821014 4291446865
-0.29601821 0.043526307 -0.10736092 4291449948
-0.29547027 0.045295108 -0.10716751 4291395971
-0.29523787 0.047025569 -0.10762572 4292005300
-0.29500544 0.04875629 -0.108084 4292071862
-0.29477298 0.050487276 -0.10854235 4292399803
-0.29454049 0.052218523 -0.10900076 4292530618
-0.29399571 0.05397138 -0.10880529 4292662719
-0.29376352 0.055700276 -0.10926308 4292663230
-0.29353133 0.057429444 -0.10972094 4292991938
-0.29329908 0.059158858 -0.11017888 4292925892
-0.29337755 0.060878541 -0.11129383 4293123526
-0.29314488 0.062611319 -0.11175264 4293320394
-0.29322314 0.064340055 -0.11287217 4293385673
-0.29361433 0.066073343 -0.11466122 4293580992
-0.29369372 0.067816928 -0.11579128 4293041309
-0.29377329 0.06956657 -0.1169251 4292895081
-0.29385313 0.0713223 -0.11806282 4292954701
-0.29393321 0.073084116 -0.11920439 4292887622
-0.29369757 0.074838907 -0.11966905 4292887621
-0.29409403 0.076626264 -0.12149919 4292756806
-0.29545459 0.078483932 -0.12542327 4292495954
-0.29618609 0.080327943 -0.12799883 4292111992
-0.29824567 0.082295686 -0.13347366 4292592812
-0.30035526 0.084311515 -0.13908169 4292331440
-0.30251673 0.086377233 -0.14482774 4291934365
-0.30086446 0.03007916 -0.11460976 4290269268
-0.2996372 0.032028455 -0.11304618 4290657858
-0.29874715 0.033903204 -0.11216777 4290920514
-0.29786298 0.035765681 -0.11129524 4291052102
-0.29698467 0.037616022 -0.11042863 4291183949
-0.2964305 0.039408684 -0.11022844 4291316306
-0.2958782 0.041195642 -0.11002903 4291447636
-0.29532766 0.042976953 -0.10983028 4291449436
-0.29446483 0.044789258 -0.10897591 4291587962
-0.29454562 0.046488963 -0.11009211 4291868839
-0.29431233 0.048225526 -0.11055204 4291742903
-0.29407901 0.04996236 -0.111012 4292136889
-0.29362407 0.051920734 -0.11075689 4292266936
-0.29339269 0.053655963 -0.11121418 4292531390
-0.29285035 0.05541027 -0.11101289 4292860608
-0.29261929 0.057143163 -0.11146958 4293057731
-0.292079 0.058889363 -0.11126833 4293254858
-0.29184824 0.060619932 -0.11172441 4293321164
-0.29161745 0.062350731 -0.11218055 4293320651
-0.29169467 0.064077295 -0.11329704 4293449924
-0.29208177 0.065808132 -0.11508262 4292913064
-0.29216006 0.067549527 -0.11620961 4292833656
-0.29255056 0.069301046 -0.1180139 4292956244
-0.29262996 0.071057446 -0.11915153 4292953929
-0.29270956 0.072819933 -0.12029298 4292822343
-0.29373756 0.074627742 -0.12349992 4292822085
-0.29413852 0.076427728 -0.1253534 4292691271
-0.29486385 0.078259498 -0.12792224 4292497751
-0.29592219 0.080132872 -0.13123061 4292379261
-0.29732594 0.082058348 -0.13531071 4292595122
-0.29942989 0.084077328 -0.14094898 4292396459
-0.29804197 0.031803742 -0.11351527 4290661202
-0.29716021 0.033676568 -0.11263478 4290921028
-0.29660457 0.035484936 -0.11242779 4291052102
-0.2957319 0.037336666 -0.11155543 4291183692
-0.29518133 0.039130475 -0.1113514 4291316564
-0.29494855 0.040875554 -0.1118114 4291448919
-0.29440016 0.042661041 -0.11160748 4291319392
-0.29385352 0.044440862 -0.11140424 4291328636
-0.29393518 0.046146702 -0.1125263 4291935390
-0.2937026 0.047889937 -0.11298582 4291742646
-0.29347005 0.049633425 -0.11344539 4291873203
-0.29292479 0.051402722 -0.11323939 4291807155
-0.29238132 0.053166416 -0.11303411 4291873723
-0.29183963 0.054924574 -0.11282963 4292136893
-0.2912997 0.05667717 -0.11262587 4292268481
-0.29106846 0.058410414 -0.11308276 4292597705
-0.29053059 0.060154922 -0.11287905 4292794826
-0.29029968 0.061885841 -0.11333531 4293056964
-0.29037461 0.063611761 -0.11445383 4292522413
-0.29075721 0.065341204 -0.11624338 4292639358
-0.2908332 0.067081951 -0.1173724 4292893021
-0.29121917 0.06883204 -0.11918069 4292954958
-0.29223374 0.070606716 -0.12236951 4292887881
-0.29262823 0.072386794 -0.12421289 4292756807
-0.29302534 0.074179128 -0.12606885 4292756806
-0.29374492 0.075999327 -0.12864137 4292560460
-0.29447177 0.077838369 -0.13124022 4292368740
-0.29553279 0.079718612 -0.13458845 4292912785
-0.29660836 0.081625029 -0.13798285 4292529844
-0.2983723 0.08361657 -0.14292125 4292197539
-0.29614267 0.03314551 -0.11448031 4290729048
-0.29558769 0.034957916 -0.11427002 4290987599
-0.29503453 0.03676454 -0.11406048 4291184721
-0.29448318 0.038565397 -0.11385178 4291251289
-0.2942495 0.04031644 -0.11431345 4291059561
-0.29401579 0.042067729 -0.11477517 4291201920
-0.29346696 0.043857533 -0.1145658 4291739818
-0.29354826 0.045571085 -0.11569884 4291742649
-0.2933144 0.047323138 -0.11616079 4291743163
-0.29276663 0.049104996 -0.1159493 4291677625
-0.29222062 0.050881181 -0.11573856 4291809722
-0.2913664 0.052675143 -0.11486033 4292006591
-0.29113397 0.054416653 -0.11531948 4292202943
-0.29028606 0.05619356 -0.11444562 4292400062
-0.29005435 0.057929818 -0.11490338 4292728257
-0.28951716 0.059678108 -0.11469647 4292924609
-0.28928575 0.061412007 -0.11515362 4293317560
-0.289359 0.063140117 -0.11627708 4292451481
-0.28973877 0.064870983 -0.11807578 4292502377
-0.28981307 0.066613942 -0.11920985 4292824401
-0.29081646 0.068370707 -0.12239353 4292822860
-0.29151884 0.070145771 -0.1249259 4292822344
-0.29222831 0.071939044 -0.12748396 4292756807
-0.29262596 0.073739052 -0.12936054 4292756805
-0.29334706 0.075566456 -0.1319631 4292561230
-0.29407549 0.077412836 -0.13459246 4292109681
-0.2951391 0.079299971 -0.13798119 4293051561
-0.29621741 0.081213556 -0.14141691 4292462508
-0.2948862 0.03437471 -0.11679686 4291196269
-0.29465091 0.036137134 -0.1172616 4290996329
-0.2940973 0.037948206 -0.11704664 4291070332
-0.29386231 0.039708141 -0.11751076 4291210395
-0.29362732 0.041468378 -0.11797494 4291082410
-0.29339227 0.043228857 -0.11843918 4291478964
-0.29315716 0.04498959 -0.11890351 4291808185
-0.29260683 0.046784151 -0.11868642 4291676857
-0.29205829 0.048572958 -0.11847013 4291742648
-0.29120025 0.050383449 -0.11757846 4291875004
-0.29034787 0.052182198 -0.11669278 4291940030
-0.2898075 0.053948019 -0.11648179 4292202687
-0.28926885 0.055708297 -0.11627155 4292268735
-0.28873199 0.057463005 -0.11606213 4292465599
-0.28819686 0.059212185 -0.11585343 4292661951
-0.28796533 0.060946196 -0.11631071 4293120699
-0.28803629 0.062673688 -0.11743622 4292519843
-0.2890228 0.064395122 -0.12059227 4292437359
-0.28940386 0.066142082 -0.12241755 4292692047
-0.29009789 0.067902826 -0.12494589 4292757323
-0.2907989 0.069681607 -0.12749979 4292757065
-0.29150698 0.071478717 -0.13007973 4292757576
-0.29222226 0.073294431 -0.13268603 4292757319
-0.29294485 0.07512904 -0.13531916 4292562770
-0.2940006 0.07700032 -0.13871293 4292311161
-0.29474109 0.078876898 -0.14140937 4292791218
-0.29582214 0.080797665 -0.14488706 4292328865
-0.29402649 0.037274938 -0.12096265 4291016353
-0.2941097 0.039000001 -0.12212188 4291347119
-0.29355305 0.040819131 -0.12189748 4291413173
-0.2933163 0.042591605 -0.12236499 4291479737
-0.29307953 0.044364344 -0.12283257 4291676344
-0.2925255 0.046172164 -0.12260759 4291610807
-0.29165858 0.04800576 -0.12169456 4291742135
-0.29079747 0.049827348 -0.12078778 4291939515
-0.28994203 0.051637065 -0.1198871 4291874237
-0.28909221 0.053435024 -0.11899243 4292071360
-0.28824803 0.05522133 -0.11810381 4292071361
-0.28771183 0.056979857 -0.11789109 4292268735
-0.28717738 0.058732856 -0.11767917 4292399808
-0.28694537 0.060469851 -0.11813732 4292661951
-0.28731695 0.062191885 -0.11994237 4292524979
-0.28769094 0.063925594 -0.12175944 4292572539
-0.28806743 0.065671131 -0.12358876 4292757583
-0.28968561 0.067432761 -0.12821531 4292757835
-0.29038796 0.0692183 -0.13079895 4292823114
-0.29141548 0.071029507 -0.13412715 4292758093
-0.29213509 0.07285548 -0.13677225 4292628561
-0.29286206 0.074700586 -0.13944471 4292568420
-0.29392439 0.076582015 -0.14289071 4292779150
-0.29466951 0.078469619 -0.14562789 4292593586
-0.29395446 0.036592461 -0.12493214 4291083692
-0.29371604 0.038376573 -0.12540284 4291347123
-0.29347759 0.040160965 -0.1258736 4291479222
-0.29291907 0.041987751 -0.12564188 4291676856
-0.29268095 0.043769624 -0.12611197 4291676344
-0.29180756 0.045623608 -0.12518103 4291611064
-0.29125458 0.047432743 -0.12495188 4291676857
-0.29039034 0.049265571 -0.1240297 4291939002
-0.28953189 0.051086389 -0.12311374 4292005310
-0.28867906 0.052895311 -0.12220396 4292005825
-0.28783193 0.054692455 -0.12130034 4292071106
-0.28699037 0.056477923 -0.12040276 4292202688
-0.28555551 0.058280051 -0.11816799 4292334272
-0.2856223 0.060003117 -0.11929674 4292465344
-0.28568923 0.061732113 -0.1204293 4292659640
-0.28605711 0.063461579 -0.12224516 4292904580
-0.28764689 0.065191992 -0.12683503 4292889171
-0.28895664 0.066957578 -0.13080926 4292758096
-0.28997257 0.06875018 -0.13413194 4292693588
-0.29100242 0.070567638 -0.13750023 4292630363
-0.2920464 0.072410412 -0.14091495 4292374126
-0.29277781 0.074266113 -0.14362764 4292582029
-0.29351684 0.076141469 -0.14636874 4292789681
-0.29355788 0.035953298 -0.12824436 4291216306
-0.29331812 0.037746679 -0.12871757 4291281842
-0.29275694 0.03958679 -0.12847996 4291413685
-0.29251751 0.041377634 -0.1289525 4291610808
-0.29195854 0.043208979 -0.12871496 4291545018
-0.29140148 0.045034364 -0.12847829 4291479994
-0.29084626 0.046853796 -0.12824251 4291545530
-0.28997886 0.048698016 -0.12730466 4291873468
-0.28911731 0.050530054 -0.12637322 4292070847
-0.2882615 0.052350082 -0.125448 4292006080
-0.28649795 0.054221354 -0.12246924 4292136896
-0.28506154 0.056044228 -0.12021346 4292267969
-0.28482893 0.057784103 -0.12067255 4292334017
-0.28459626 0.059524242 -0.12113173 4292334529
-0.28466153 0.061255455 -0.12226937 4292793020
-0.28593102 0.062967159 -0.12615904 4292976020
-0.28722185 0.064707927 -0.13011432 4292763239
-0.28884768 0.066477947 -0.13485494 4292631141
-0.29018781 0.068282202 -0.13895953 4292438134
-0.29122788 0.070112221 -0.14239036 4292643207
-0.29195622 0.071959034 -0.14511551 4292919972
-0.29269215 0.073825456 -0.14786924 4292791225
-0.29343584 0.075711802 -0.15065207 4291999650
-0.29315698 0.035307474 -0.13159086 4291347384
-0.29291588 0.037110213 -0.13206665 4291281843
-0.29235238 0.038960986 -0.13182221 4291413173
-0.29147097 0.040850099 -0.13086234 4291545017
-0.29123098 0.042644385 -0.13133591 4291545018
-0.2900407 0.044552922 -0.12967056 4291611067
-0.28948763 0.046373319 -0.1294329 4291676091
-0.28862473 0.048219293 -0.12849113 4291873724
-0.28776762 0.050053071 -0.12755583 4292005310
-0.2869162 0.05187482 -0.12662679 4292137151
-0.2857672 0.053706549 -0.12501322 4292137406
-0.28492948 0.055501506 -0.12410056 4292202688
-0.28409728 0.057284795 -0.12319402 4292333761
-0.28386375 0.059030831 -0.12365484 4292400065
-0.28422654 0.06075703 -0.12548763 4292662462
-0.28549862 0.062473293 -0.12942401 4292721065
-0.28710136 0.064214446 -0.13414162 4292712849
-0.28937036 0.065988824 -0.14042394 4293175705
-0.2904065 0.067806005 -0.14387091 4292987830
-0.291457 0.06964881 -0.14736594 4292793795
-0.29219282 0.071509473 -0.15014124 4292792762
-0.29293638 0.073390096 -0.15294589 4292527019
-0.29242754 0.034710221 -0.13424401 4291610039
-0.29218546 0.036519311 -0.13472158 4291479477
-0.29130003 0.038426377 -0.13374689 4291412915
-0.29042062 0.040320668 -0.13277899 4291545273
-0.2895472 0.04220229 -0.13181776 4291545529
-0.28836733 0.044109959 -0.13015288 4291742140
-0.28719935 0.045998592 -0.12850496 4291938748
-0.28656161 0.047581073 -0.12831958 4291939515
-0.28632289 0.049351588 -0.12878926 4292071356
-0.28608418 0.051122401 -0.12925902 4292136638
-0.28523666 0.0529406 -0.12832659 4292137151
-0.28469622 0.054726444 -0.1280966 4292203201
-0.28355852 0.056541402 -0.12648073 4292334017
-0.28362066 0.058281083 -0.12763897 4292399552
-0.2839832 0.060015257 -0.12949958 4292399809
-0.28525981 0.061735094 -0.13349858 4292465604
-0.28812271 0.06345477 -0.14122297 4292597702
-0.28978953 0.065246731 -0.14618039 4292662467
-0.29083744 0.067076206 -0.14970599 4292858557
-0.29190004 0.068931706 -0.15328127 4292791991
-0.29264396 0.07080698 -0.15611973 4292066470
-0.29160872 0.033878922 -0.13694897 4291278506
-0.2910417 0.035747442 -0.13669673 4291410347
-0.29015696 0.037660211 -0.13571595 4291410600
-0.28896224 0.039606951 -0.13401909 4291610549
-0.28809205 0.041490819 -0.13305591 4291611320
-0.2863014 0.043481626 -0.12996978 4291807931
-0.28545034 0.045330748 -0.12903175 4292004539
-0.28490776 0.047134504 -0.12879959 4292005051
-0.28527716 0.048841354 -0.13067631 4292136893
-0.28534296 0.050587673 -0.13185523 4292136639
-0.28479859 0.052389402 -0.13161774 4292136896
-0.28455925 0.05416384 -0.13208856 4292203202
-0.28462374 0.055919953 -0.13327008 4292465345
-0.28499395 0.057666551 -0.13517188 4292662210
-0.28475326 0.059450783 -0.1356453 4292597189
-0.28667465 0.06116676 -0.14121266 4292597188
-0.28864267 0.062924713 -0.14691542 4292793279
-0.29033244 0.064730071 -0.15198508 4292791993
-0.29139513 0.066575415 -0.15558921 4292461486
-0.29054576 0.033327531 -0.13889834 4290610057
-0.28965953 0.035255086 -0.1379066 4290805894
-0.28846323 0.037220746 -0.13619269 4291204749
-0.28603956 0.039354861 -0.13163117 4291803555
-0.28488162 0.041267157 -0.12997805 4291870894
-0.28403673 0.0431205 -0.12904163 4291937975
-0.2831974 0.044961669 -0.12811153 4292069817
-0.2829597 0.046723291 -0.12857904 4292070586
-0.2833212 0.048423149 -0.13044888 4292135867
-0.2845965 0.050049234 -0.13446932 4292136382
-0.28405145 0.051858116 -0.13422675 4292267454
-0.28442025 0.053593501 -0.13613501 4292399039
-0.28602886 0.055261374 -0.14098045 4292530623
-0.28672323 0.057015795 -0.14368162 4292596672
-0.28774244 0.058774628 -0.14716536 4292596672
-0.28942263 0.060535885 -0.15223764 4292661178
-0.29047886 0.062351186 -0.15584357 4292462258
-0.28292724 0.040873799 -0.12975262 4291333009
-0.28209156 0.042722378 -0.12882021 4291472298
-0.28185374 0.044483855 -0.12928781 4291935149
-0.28161591 0.046245597 -0.12975545 4292528048
-0.28257152 0.047879901 -0.13304503 4292856495
-0.28384471 0.049507055 -0.1371014 4292527792
-0.28390834 0.051269889 -0.13830166 4292397495
-0.28397214 0.053039029 -0.13950603 4292530109
-0.28621116 0.054667588 -0.14590824 4292661692
-0.28723022 0.056416024 -0.14941965 4292595896
-0.28891087 0.05815842 -0.15453367 4292266418
-0.28996709 0.059963182 -0.15816869 4291803301
