# .PCD v0.7 - Point Cloud Data file format
VERSION 0.7
FIELDS x y z rgba
SIZE 4 4 4 4
TYPE F F F U
COUNT 1 1 1 1
WIDTH 978
HEIGHT 1
VIEWPOINT 0 0 0 1 0 0 0
POINTS 978
DATA ascii
-0.35599071 0.040327173 -0.11529052 4290149217
-0.35350716 0.042105969 -0.11171857 4290012244
-0.35106903 0.043852553 -0.10821196 4290008655
-0.35416901 0.038009144 -0.11563418 4289881944
-0.35262656 0.039891127 -0.11358078 4289811526
-0.35019189 0.041661043 -0.11005079 4290005566
-0.34824666 0.043447617 -0.10732004 4289939522
-0.34676972 0.045260087 -0.1053564 4290012759
-0.35189208 0.035664558 -0.11521043 4289879116
-0.35036775 0.037552416 -0.11316705 4289809217
-0.34886017 0.039419834 -0.11114612 4289873469
-0.34736905 0.041267108 -0.10914733 4290004285
-0.34545466 0.043046996 -0.10643805 4290200898
-0.3444351 0.044902664 -0.10521469 4290206037
-0.35008797 0.033367831 -0.11555243 4289879371
-0.34857631 0.035264775 -0.11351098 4289809213
-0.34752843 0.03717852 -0.11224149 4289742397
-0.34648815 0.039078597 -0.11098132 4289938235
-0.34501523 0.040921219 -0.10899078 4290135616
-0.34355825 0.042744145 -0.10702185 4290466894
-0.34254715 0.044597723 -0.10579867 4290605928
-0.33701134 0.067168862 -0.1021229 4291127144
-0.33645463 0.068996117 -0.1016456 4291319636
-0.33631152 0.070912734 -0.10187482 4291252557
-0.335347 0.072632186 -0.10069609 4290996574
-0.34874403 0.031105988 -0.11665779 4289945684
-0.3472397 0.033015262 -0.11461033 4289743936
-0.34619662 0.03493714 -0.11333691 4289807675
-0.34516111 0.036845259 -0.1120728 4289872701
-0.34413311 0.03873983 -0.11081793 4290005314
-0.34267816 0.040577743 -0.10883562 4290404177
-0.34166837 0.042442359 -0.10760383 4290740845
-0.34109342 0.044343386 -0.10710771 4290946950
-0.3405205 0.046237879 -0.10661345 4291016593
-0.33952561 0.048069723 -0.10539851 4291017106
-0.33853769 0.049888793 -0.10419221 4291082641
-0.33839342 0.051819809 -0.10442325 4291279503
-0.33741304 0.05361969 -0.10322482 4291410575
-0.33685368 0.055475622 -0.10274372 4291213458
-0.335473 0.057182163 -0.10085338 4291017367
-0.33533013 0.059093878 -0.10108212 4291145613
-0.33437079 0.060850307 -0.09990821 4291134319
-0.33422843 0.062755845 -0.10013621 4291384659
-0.33368042 0.064577624 -0.099665761 4291250244
-0.33353823 0.066480376 -0.099893436 4291249729
-0.33299235 0.06829299 -0.099424317 4291315010
-0.33244839 0.070099562 -0.09895689 4291248961
-0.33190629 0.071900107 -0.098491088 4291119687
-0.331366 0.073694624 -0.098026969 4291063903
-0.34694895 0.028821765 -0.11699655 4289818977
-0.34545714 0.030739965 -0.11495107 4289679686
-0.34442237 0.032666538 -0.11367883 4289677373
-0.34339517 0.034579314 -0.11241586 4289872701
-0.34237534 0.036478531 -0.1111621 4290070597
-0.34179488 0.038403429 -0.11065602 4290209624
-0.34078634 0.04027912 -0.10941546 4290548594
-0.33978501 0.042141579 -0.10818387 4290817672
-0.33879086 0.043991014 -0.10696116 4290951056
-0.33822402 0.045879517 -0.10646907 4291016848
-0.33724067 0.047706265 -0.10525902 4291148176
-0.33626434 0.049520317 -0.10405768 4291213968
-0.33488429 0.051260754 -0.10215705 4291214225
-0.33392477 0.053046908 -0.10097722 4291345297
-0.33297196 0.054820783 -0.099805757 4291345810
-0.33202583 0.056582548 -0.098642498 4291410832
-0.33148447 0.058404878 -0.098177142 4291405184
-0.33094499 0.060221158 -0.097713426 4290998621
-0.33040738 0.062031373 -0.097251438 4290922307
-0.33026639 0.063917473 -0.09747719 4290922562
-0.33052114 0.065889284 -0.098391905 4291053634
-0.32998425 0.067690462 -0.097928822 4291249729
-0.32944912 0.069485687 -0.097467311 4291315266
-0.32930824 0.071369611 -0.097692832 4291446339
-0.32916734 0.07325384 -0.097918369 4291381318
-0.32941973 0.075239852 -0.098832481 4291193946
-0.3436811 0.028472941 -0.1152906 4289814096
-0.34221789 0.03037926 -0.11326947 4289677889
-0.34163556 0.032321539 -0.11275769 4289676863
-0.3410553 0.034257066 -0.11224783 4289939525
-0.34047717 0.036185883 -0.11173984 4290209111
-0.33947325 0.038069434 -0.11049548 4290484341
-0.33847657 0.039939735 -0.10926007 4290687626
-0.33790818 0.041841861 -0.10876211 4290754191
-0.33734182 0.04373749 -0.10826597 4290951055
-0.33635977 0.045575038 -0.10704751 4290951312
-0.33538473 0.04739977 -0.10583773 4291017104
-0.33400679 0.049154434 -0.10392435 4291148433
-0.33264336 0.050890818 -0.10203119 4291214225
-0.3312943 0.052609228 -0.10015798 4291345554
-0.32995927 0.054309983 -0.098304376 4291411602
-0.32863811 0.0559933 -0.09647011 4291542676
-0.32810724 0.057801049 -0.096012697 4291802513
-0.3275781 0.059602804 -0.09555684 4291594615
-0.32705081 0.061398655 -0.095102593 4291119688
-0.32691085 0.063268639 -0.095326543 4290987328
-0.32715759 0.06522245 -0.096229792 4291314753
-0.32701737 0.067096241 -0.096454173 4291314753
-0.32726467 0.069060624 -0.097361028 4291379776
-0.32712415 0.0709382 -0.097585872 4291380547
-0.32698363 0.072816014 -0.097810738 4291576638
-0.3272312 0.074794538 -0.098721564 4291643974
-0.32747963 0.076780222 -0.099635623 4291261792
-0.34132752 0.028170688 -0.11511103 4289816152
-0.34031317 0.030096076 -0.11384534 4289944654
-0.33930621 0.032007851 -0.11258885 4290009423
-0.33830646 0.03390608 -0.11134148 4290143061
-0.33816016 0.035859656 -0.11157551 4290417778
-0.3371681 0.037737798 -0.11033631 4290621320
-0.3361831 0.039602738 -0.10910607 4290819471
-0.33603778 0.04154316 -0.10933853 4290950800
-0.33506033 0.043388441 -0.10811631 4291016848
-0.33450189 0.045271594 -0.10762408 4291017105
-0.33353505 0.047094353 -0.10641453 4291017362
-0.33216926 0.048847653 -0.10450161 4291214227
-0.33081785 0.050582763 -0.10260887 4291345556
-0.32908511 0.052237917 -0.10004057 4291411861
-0.3273764 0.053870413 -0.097507901 4291477653
-0.32607532 0.055547453 -0.095687352 4291608726
-0.32555145 0.057346784 -0.095233746 4292002456
-0.32464835 0.059067473 -0.094108373 4292061831
-0.32450902 0.06092773 -0.09433125 4291191900
-0.32399049 0.062709413 -0.093882412 4291446852
-0.32423034 0.064649045 -0.094777063 4291707970
-0.32409099 0.066510096 -0.095000014 4291642687
-0.32433143 0.068460114 -0.095898248 4291642174
-0.32419175 0.070324928 -0.096121661 4291380033
-0.32443276 0.072285451 -0.097023405 4291576126
-0.32467452 0.074252971 -0.097928278 4291708737
-0.32530126 0.076330483 -0.099522524 4291578440
-0.32554576 0.078315824 -0.10043648 4291529068
-0.33798847 0.029790238 -0.1136727 4290154098
-0.3365716 0.031669445 -0.11168244 4290415985
-0.33600542 0.03358905 -0.11117928 4290418549
-0.33544129 0.035502035 -0.110678 4290489222
-0.33487919 0.037408482 -0.11017856 4290753935
-0.33431903 0.039308377 -0.10968096 4290951057
-0.33417386 0.041245513 -0.10991313 4291082386
-0.33320463 0.043088689 -0.10869109 4291083155
-0.33265042 0.044969179 -0.10819892 4291149204
-0.33169171 0.046789933 -0.10698952 4291280277
-0.33033794 0.048541933 -0.10507705 4291411607
-0.32860243 0.050217044 -0.10248256 4291543194
-0.32689106 0.051869147 -0.099924222 4291543706
-0.32520327 0.053498674 -0.097401194 4291675291
-0.32391778 0.055172037 -0.095587581 4291806619
-0.32302171 0.05689713 -0.09446305 4292003230
-0.32213172 0.058610722 -0.093346179 4292000153
-0.32161978 0.060387123 -0.092901386 4291397243
-0.32148129 0.062235106 -0.09312287 4291775559
-0.3213428 0.064083375 -0.09334439 4291710280
-0.32120425 0.065931916 -0.093565941 4291774275
-0.32143798 0.067867793 -0.094455637 4291773758
-0.32167253 0.069810569 -0.095348477 4291642690
-0.32190785 0.071760274 -0.096244425 4291642687
-0.32252064 0.073814809 -0.097821929 4291642431
-0.32313764 0.075883813 -0.099410377 4291772992
-0.32337746 0.077861682 -0.10032114 4291449943
-0.33997107 0.023741826 -0.1195789 4290030736
-0.33809596 0.025661144 -0.11677446 4289570444
-0.33667073 0.027572565 -0.11475655 4289701514
-0.33526087 0.029463615 -0.11276052 4289833868
-0.33428079 0.031360805 -0.11151941 4290096267
-0.33330777 0.033244688 -0.11028726 4290226826
-0.33316255 0.035181101 -0.11051945 4290490766
-0.33260635 0.037081469 -0.11002218 4290885521
-0.33205208 0.038975324 -0.10952669 4291017106
-0.3319073 0.04090571 -0.10975815 4291214228
-0.33135533 0.042789984 -0.10926415 4291215255
-0.33080521 0.044667818 -0.10877189 4291281049
-0.32985464 0.046486564 -0.1075628 4291477658
-0.32811633 0.048181877 -0.10494177 4291675037
-0.32640225 0.049853843 -0.10235737 4291675552
-0.32471192 0.051502872 -0.099808849 4291741601
-0.32304487 0.053129494 -0.097295485 4291938208
-0.32140058 0.054734115 -0.094816484 4292003743
-0.32051757 0.056452025 -0.093700446 4292069281
-0.31964049 0.058158547 -0.092591964 4292199841
-0.31913525 0.059926856 -0.0921508 4292389005
-0.31863171 0.061689433 -0.091711164 4292038483
-0.31849402 0.063525327 -0.091931291 4291972681
-0.31835631 0.065361515 -0.092151463 4291775302
-0.31858355 0.067283444 -0.093032852 4291773762
-0.31881151 0.069212183 -0.093917318 4291707460
-0.31940848 0.071240433 -0.095473595 4291838528
-0.32000944 0.073282823 -0.097040512 4291772993
-0.32061455 0.075339481 -0.098618194 4291642432
-0.32122383 0.077410594 -0.10020683 4291446607
-0.33906984 0.021504566 -0.12144576 4290226570
-0.33805606 0.02346812 -0.12014783 4289832592
-0.33577478 0.025370428 -0.11659109 4289635980
-0.33436713 0.02727668 -0.11458158 4289701770
-0.33297461 0.029162688 -0.11259376 4289768075
-0.33118933 0.031003341 -0.1098993 4290096779
-0.33063859 0.032903947 -0.109405 4290227339
-0.33049399 0.034830205 -0.10963606 4290556560
-0.32994542 0.0367212 -0.1091431 4291082901
-0.32939872 0.038605805 -0.10865195 4291280535
-0.3292546 0.040526073 -0.1088823 4291346840
-0.32911044 0.042446613 -0.10911267 4291478429
-0.32816747 0.044269893 -0.10790458 4291543712
-0.32762673 0.046132311 -0.10741834 4291674784
-0.32591 0.047824323 -0.10480763 4291806368
-0.32421714 0.049493108 -0.10223331 4291872930
-0.32254761 0.051139094 -0.099694543 4291939237
-0.32052773 0.052701112 -0.096514419 4292070052
-0.31927684 0.054364577 -0.094720982 4292135331
-0.31803861 0.056011427 -0.092945784 4292069541
-0.31717426 0.057710938 -0.091845617 4292200871
-0.31667563 0.059471179 -0.091408022 4292656796
-0.31617865 0.061225787 -0.090971999 4291984755
-0.31604153 0.063052565 -0.091191135 4292234574
-0.31554642 0.064798735 -0.090756215 4292235083
-0.31612623 0.066791162 -0.092286065 4291841609
-0.31598881 0.068621822 -0.092505679 4291773250
-0.3165721 0.070634492 -0.094046764 4291969345
-0.31752366 0.072756194 -0.096267268 4291773250
-0.31848496 0.074899934 -0.098510601 4291642177
-0.3190847 0.076962568 -0.10009348 4291315795
-0.33672383 0.021226041 -0.1212436 4289768338
-0.33572218 0.023183607 -0.11995126 4289636749
-0.33347014 0.025081767 -0.11640928 4289570698
-0.33166838 0.026964504 -0.11366814 4289702283
-0.33029768 0.028842241 -0.111696 4289833611
-0.32854074 0.030675525 -0.10902234 4290227340
-0.32759979 0.032538839 -0.10781448 4290292621
-0.32745612 0.034451637 -0.10804404 4290688147
-0.32691664 0.036330137 -0.10755747 4291149208
-0.32677317 0.038240112 -0.10778669 4291478172
-0.3262358 0.040109187 -0.10730153 4291675551
-0.32609254 0.042016376 -0.10753041 4291806880
-0.32516664 0.043828499 -0.10633646 4291806627
-0.32463482 0.045678828 -0.10585649 4291872421
-0.32295075 0.047362372 -0.10327495 4292004004
-0.32166773 0.049078804 -0.10141851 4292004516
-0.32002425 0.050719302 -0.098898552 4292005031
-0.31840315 0.05233768 -0.096413031 4292070312
-0.31716722 0.053997528 -0.0946263 4292201638
-0.3163043 0.055706598 -0.093518689 4292266920
-0.31544709 0.05740441 -0.092418514 4292398508
-0.31459573 0.059091102 -0.091325827 4292923567
-0.31410375 0.060840607 -0.090891458 4292128925
-0.31361347 0.062584504 -0.090458632 4292578163
-0.31312478 0.064322837 -0.090027228 4292504677
-0.31369343 0.06630379 -0.091547042 4292431708
-0.31355658 0.068125404 -0.091765657 4292101958
-0.31412861 0.070126384 -0.09329658 4291969859
-0.31506285 0.072234876 -0.095502138 4291904325
-0.31636965 0.074463293 -0.098403983 4291838788
-0.31732655 0.076619901 -0.10066227 4291450458
-0.33439463 0.020949498 -0.12104316 4289701776
-0.33340499 0.022901105 -0.11975638 4289570957
-0.33118182 0.024795126 -0.11622907 4289505418
-0.32899833 0.026655655 -0.11276474 4289571211
-0.327649 0.028525183 -0.11080801 4289767821
-0.32591993 0.030351127 -0.10815489 4290096271
-0.32460338 0.032178827 -0.10624654 4290162067
-0.32446063 0.034078356 -0.10647458 4290754199
-0.32393003 0.035944503 -0.10599432 4291281310
-0.3234013 0.037804384 -0.10551579 4291544739
-0.32287437 0.039658066 -0.10503893 4291807652
-0.32234925 0.041505564 -0.10456377 4292135589
-0.32259011 0.043439757 -0.10549293 4292201126
-0.32092592 0.045132887 -0.10292291 4292004519
-0.32003209 0.046906784 -0.10176361 4292070311
-0.31840256 0.048559237 -0.099245697 4292201638
-0.31752649 0.050303791 -0.098110944 4292201640
-0.31593052 0.051916897 -0.095643528 4292201899
-0.31543127 0.053695388 -0.095197424 4292333226
-0.31457555 0.055402771 -0.094089828 4292726955
-0.31372553 0.057098906 -0.092989765 4292859566
-0.3128812 0.05878393 -0.091897041 4292529070
-0.31239289 0.060531165 -0.091462612 4292528810
-0.31155717 0.062196806 -0.090380549 4292789669
-0.31107345 0.063930139 -0.089950867 4293049760
-0.31163323 0.065903328 -0.091465473 4292973963
-0.31149676 0.067718975 -0.091683455 4292376167
-0.31205979 0.069712043 -0.093209013 4292235097
-0.31298029 0.071811482 -0.095406778 4292166730
-0.31426841 0.074029595 -0.098298244 4291838796
-0.31557411 0.076278359 -0.10122928 4291718760
-0.33291858 0.020689229 -0.12237218 4289767567
-0.33151853 0.022631254 -0.12032054 4289570701
-0.32890967 0.024510533 -0.11605033 4289570442
-0.32675403 0.026367089 -0.11260007 4289636492
-0.3254213 0.028231692 -0.11065125 4289833615
-0.3233265 0.030030128 -0.1072968 4289965711
-0.32203025 0.031850088 -0.10540304 4289966229
-0.32188812 0.033739828 -0.10563 4290689178
-0.32098475 0.035564188 -0.10445316 4291478432
-0.32046464 0.037411965 -0.10398071 4291741606
-0.31994635 0.039253622 -0.10350993 4292004519
-0.31942984 0.041089192 -0.10304087 4292135847
-0.31854263 0.042873587 -0.10188317 4292070312
-0.31803116 0.044693988 -0.10141939 4292070826
-0.31678641 0.046406504 -0.099591747 4292136619
-0.31591722 0.0481553 -0.098457776 4292136874
-0.31505394 0.049892448 -0.097331591 4292202153
-0.31383902 0.051559106 -0.095546447 4292398509
-0.31334487 0.05333237 -0.095102094 4292596401
-0.31249893 0.055035368 -0.0939987 4292728753
-0.31200951 0.056794368 -0.093559273 4292727213
-0.31152168 0.058547746 -0.09312132 4292530611
-0.31103551 0.060295522 -0.092684954 4292661940
-0.31020424 0.061962098 -0.091598906 4292924342
-0.30972266 0.063695997 -0.091167308 4293121462
-0.30958652 0.065505467 -0.091384634 4292921518
-0.30979523 0.067399636 -0.092251986 4292721053
-0.31035152 0.069388427 -0.093777068 4292710536
-0.31126174 0.071482867 -0.09597411 4292373348
-0.31289178 0.073791817 -0.099537976 4291974750
-0.31418797 0.076039106 -0.10247759 4291989378
-0.33102599 0.020422213 -0.12293376 4289702289
-0.32922858 0.022352215 -0.12012585 4289636237
-0.32665351 0.024227886 -0.11587317 4289570444
-0.32452539 0.026080552 -0.11243676 4289636237
-0.32282117 0.027920544 -0.10977706 4289701775
-0.32075989 0.029712439 -0.10644793 4289964940
-0.3194837 0.031524695 -0.10456856 4290164629
-0.31896701 0.033375908 -0.1040968 4290756252
-0.31807986 0.035189081 -0.10293346 4291347619
-0.31756827 0.037024908 -0.10246702 4291610536
-0.31632373 0.038778879 -0.10063083 4291807144
-0.31618381 0.040637478 -0.10085416 4292004264
-0.31567892 0.04245222 -0.10039461 4292004522
-0.31481346 0.044214122 -0.099257924 4292004781
-0.31395385 0.045964293 -0.098129071 4292136108
-0.3131001 0.047702875 -0.097007871 4292136105
-0.31225204 0.049429961 -0.095894292 4292135338
-0.31176132 0.051203694 -0.095450185 4292266418
-0.31127226 0.052971732 -0.095007665 4292333749
-0.31078482 0.0547341 -0.094566621 4292727984
-0.31029895 0.056490805 -0.094127059 4292662709
-0.31016189 0.058311544 -0.09434583 4292794041
-0.3096779 0.060059838 -0.09390752 4292794299
-0.30919546 0.061802577 -0.093470655 4292859579
-0.30837157 0.063461781 -0.092383988 4293121979
-0.30823535 0.065271415 -0.092601426 4292991162
-0.30809912 0.067081332 -0.092818886 4293055926
-0.30864871 0.069065891 -0.094343387 4292986541
-0.30954868 0.07115531 -0.096539713 4292651154
-0.31186971 0.073650621 -0.10145573 4292185984
-0.32832024 0.020143811 -0.12196726 4289701517
-0.32655188 0.022065531 -0.11918157 4289636749
-0.32441318 0.023947239 -0.11569742 4289571214
-0.3223123 0.025795992 -0.11227491 4289636495
-0.32062945 0.027631676 -0.10962576 4289767565
-0.31859428 0.029420001 -0.10630967 4290292617
-0.31733361 0.031227658 -0.10443763 4290347900
-0.31645349 0.033044998 -0.10327517 4290546822
-0.31557941 0.034850106 -0.1021208 4291410590
-0.31507459 0.036677215 -0.10165825 4291939496
-0.31313157 0.038350455 -0.098483361 4292004777
-0.31263605 0.040153574 -0.098031782 4291938987
-0.31143525 0.041865729 -0.096246153 4292004523
-0.3112973 0.043696713 -0.096466258 4292070316
-0.31080815 0.045479484 -0.096021198 4292004780
-0.31032065 0.047256477 -0.095577724 4292069545
-0.30983472 0.049027789 -0.095135756 4292199852
-0.3093504 0.050793447 -0.094695255 4292200886
-0.30921328 0.052613501 -0.094914034 4292465588
-0.30907616 0.054433797 -0.09513285 4292662708
-0.30893901 0.056254406 -0.095351696 4292794810
-0.30880183 0.05807526 -0.095570579 4292925373
-0.30832002 0.059824128 -0.095130317 4292991421
-0.30783975 0.061567415 -0.094691515 4293122750
-0.30736104 0.063305117 -0.094254211 4293123007
-0.30688396 0.065037325 -0.093818426 4293057726
-0.3070879 0.066931002 -0.094690062 4293056699
-0.30763492 0.068918541 -0.096223518 4292990651
-0.30818558 0.070919678 -0.097767271 4292857523
-0.3264491 0.019879639 -0.12252597 4289898122
-0.32429972 0.021790911 -0.11899322 4289637265
-0.3217997 0.02365627 -0.11479045 4289571217
-0.32011446 0.025513377 -0.11211438 4289636496
-0.31845278 0.027344776 -0.10947578 4290161040
-0.31681412 0.029151022 -0.10687383 4290157711
-0.31556475 0.030957133 -0.10500219 4290078309
-0.31469214 0.032772403 -0.10383996 4290269522
-0.31382546 0.034575492 -0.10268569 4290668132
-0.31260625 0.036333073 -0.10085797 4291004287
-0.31104603 0.038036853 -0.098376371 4291142808
-0.3102048 0.039795589 -0.097258218 4291607973
-0.30902225 0.041501064 -0.095485628 4292201640
-0.30853924 0.043278381 -0.095044531 4292333483
-0.30840212 0.045097534 -0.095263287 4292398510
-0.30757812 0.046816047 -0.094166942 4292463280
-0.30744141 0.048629615 -0.094385028 4292331954
-0.30764705 0.050499912 -0.095260397 4292399541
-0.30751005 0.052317061 -0.095478922 4292662967
-0.3077161 0.054197203 -0.096357591 4292728505
-0.30757886 0.056017965 -0.096576534 4292926141
-0.30744156 0.057838965 -0.096795522 4292991680
-0.30730426 0.059660237 -0.097014554 4293057215
-0.3068248 0.061406869 -0.096572019 4293189056
-0.30634689 0.063147895 -0.096130952 4293189057
-0.30620998 0.064963907 -0.096349336 4293189058
-0.30607307 0.066780165 -0.09656775 4293123008
-0.30627623 0.06868352 -0.097447075 4292925375
-0.30682218 0.070684031 -0.098995075 4292925117
-0.30876046 0.073078237 -0.10325852 4292662203
-0.32378697 0.019606069 -0.1215691 4289897611
-0.32206342 0.021518208 -0.11880644 4289571476
-0.31997934 0.023391746 -0.11535051 4289636753
-0.31793183 0.025232704 -0.11195523 4289636241
-0.31666341 0.027077816 -0.11003746 4290555538
-0.3150399 0.028882936 -0.10743624 4290478715
-0.31380174 0.030687468 -0.10556505 4290137682
-0.31293657 0.032500688 -0.104403 4290395969
-0.31171975 0.03427181 -0.10256343 4290724679
-0.31086898 0.036057934 -0.10142157 4291055697
-0.30897436 0.037725359 -0.098270312 4291255643
-0.30779788 0.039441142 -0.096492693 4291260011
-0.3066332 0.041140009 -0.094732933 4291069565
-0.30649641 0.042952914 -0.094951056 4291273879
-0.30568141 0.04467275 -0.093859456 4291868585
-0.30520788 0.046430703 -0.093424909 4292199341
-0.30540869 0.048287861 -0.094294362 4292464820
-0.30594912 0.050207309 -0.095823795 4292597176
-0.30615214 0.052080676 -0.096701719 4292794044
-0.3063558 0.053960569 -0.097582534 4292794300
-0.30621842 0.055781439 -0.097801603 4293057471
-0.30642253 0.057671271 -0.09868592 4293123522
-0.3062849 0.059495751 -0.098905407 4293123266
-0.30580619 0.061245732 -0.098458998 4293189314
-0.30566871 0.063067704 -0.098678201 4293255107
-0.30519184 0.0648093 -0.098233066 4293320133
-0.30505458 0.066628739 -0.098451957 4293254340
-0.30559635 0.068622224 -0.10000339 4293056962
-0.3057996 0.070538744 -0.1008931 4292925376
-0.30738282 0.072840296 -0.10449916 4292859068
-0.32193688 0.019344656 -0.122125 4289831818
-0.31984273 0.021247394 -0.11862122 4289637780
-0.31778547 0.023116861 -0.11517921 4289637011
-0.31613699 0.024968304 -0.11251467 4289636755
-0.31488004 0.026811732 -0.11059743 4290292888
-0.31363618 0.02863631 -0.10870017 4290474090
-0.31240514 0.030442266 -0.10682258 4290330946
-0.31154469 0.032256484 -0.10565631 4290526526
-0.31033486 0.034028977 -0.10381041 4290920001
-0.30913737 0.03578366 -0.1019834 4291248707
-0.30726039 0.037450757 -0.098832853 4291380037
-0.30575407 0.039127644 -0.096394204 4291316043
-0.30460337 0.040822566 -0.094640911 4291122262
-0.30413157 0.042586517 -0.094205104 4291388261
-0.30366126 0.044344913 -0.093770787 4291788666
-0.30352524 0.046146467 -0.093987621 4291800723
-0.30372283 0.048000202 -0.094856694 4292531637
-0.30425662 0.049915668 -0.096385546 4292794300
-0.30445635 0.051785525 -0.097263046 4292859837
-0.30499524 0.053723857 -0.098807722 4292859836
-0.30519721 0.055610094 -0.099693798 4293123265
-0.30505946 0.057434481 -0.099913374 4293254851
-0.30526182 0.059330668 -0.10080283 4293123782
-0.30512381 0.061158642 -0.10102286 4293320643
-0.30464613 0.062909193 -0.10057231 4293320901
-0.30417001 0.064654142 -0.10012328 4293320134
-0.30437046 0.06656035 -0.10101175 4293189062
-0.30457154 0.068473265 -0.10190323 4292991942
-0.3047733 0.070392877 -0.10279768 4292926149
-0.30635041 0.072697289 -0.10642624 4292925378
-0.32009315 0.019084129 -0.12267914 4289896843
-0.31763753 0.020978447 -0.1184375 4289702806
-0.31560677 0.022843864 -0.11500937 4289702036
-0.31434816 0.024704779 -0.11307243 4289964693
-0.31346884 0.02656362 -0.11186808 4290093722
-0.31187004 0.028369473 -0.10925899 4290275176
-0.3110083 0.030196993 -0.10808031 4290460733
-0.31015253 0.032012232 -0.10690983 4290591547
-0.30894971 0.033786122 -0.10505763 4290985022
-0.30775917 0.03554219 -0.10322437 4291247938
-0.30589372 0.037211478 -0.10006346 4291379268
-0.30405948 0.03885312 -0.096955508 4291511368
-0.30291903 0.040546704 -0.095202446 4291708747
-0.30245066 0.042308357 -0.094766542 4291970894
-0.30198389 0.044064417 -0.094332166 4292107355
-0.30151859 0.045814961 -0.093899235 4291862661
-0.30204231 0.047713485 -0.095417351 4292597431
-0.30256951 0.049624946 -0.096945703 4292925630
-0.3031002 0.051549431 -0.098484248 4292991165
-0.30363443 0.053487118 -0.10003315 4292990652
-0.30383399 0.05537311 -0.10092138 4293123009
-0.30369616 0.057197638 -0.10114107 4293254598
-0.3038961 0.059093606 -0.10203271 4293189831
-0.30375797 0.060921725 -0.10225283 4293254852
-0.30361983 0.062750131 -0.10247298 4293255109
-0.30314454 0.064498395 -0.10202014 4293320133
-0.30334345 0.066407733 -0.1029134 4293254342
-0.30354303 0.068323754 -0.10380963 4293123528
-0.30374327 0.070246533 -0.10470901 4293057735
-0.30496994 0.072458841 -0.10766945 4292926149
-0.31825575 0.018824477 -0.12323159 4289895307
-0.31620139 0.02072542 -0.11973058 4289834392
-0.31418315 0.022593213 -0.11629121 4289702293
-0.31293187 0.024455592 -0.11434766 4290293656
-0.31169364 0.026298827 -0.11242443 4290156691
-0.31046823 0.028123179 -0.11052119 4290141281
-0.30961123 0.029951695 -0.10933828 4290460476
-0.30876011 0.031767931 -0.1081636 4290656827
-0.30756435 0.033543222 -0.10630508 4290984766
-0.30638075 0.03530068 -0.10446555 4291247426
-0.30486742 0.037006296 -0.10196839 4291379270
-0.30303857 0.038652554 -0.098839387 4291576907
-0.30157012 0.040310849 -0.096417107 4291905102
-0.30110386 0.042073034 -0.095979296 4292101455
-0.30063918 0.043829657 -0.095543027 4292105818
-0.30050316 0.04562854 -0.095759735 4291860100
-0.30069515 0.047478624 -0.096630447 4292597178
-0.30121776 0.049389452 -0.098162934 4292990910
-0.30174381 0.051313296 -0.099705681 4293056447
-0.30193943 0.053189222 -0.10059046 4292990654
-0.30213565 0.055071693 -0.10147817 4293123267
-0.30233258 0.056960769 -0.10236899 4293057991
-0.30253011 0.058856457 -0.1032628 4293123780
-0.30239186 0.060684733 -0.10348304 4293123783
-0.3022536 0.062513277 -0.10370331 4293189063
-0.30211535 0.064342104 -0.10392359 4293254599
-0.30197704 0.066171199 -0.10414393 4293189065
-0.30251083 0.068173684 -0.10572277 4293123274
-0.30270952 0.070099615 -0.10662703 4293123015
-0.30358922 0.07222037 -0.10891287 4293188035
-0.31680664 0.018568952 -0.12453634 4289694853
-0.31476498 0.020472314 -0.1210239 4289636759
-0.31312874 0.022352353 -0.11830446 4289637018
-0.31151533 0.024206359 -0.11562311 4290030745
-0.31028438 0.026051015 -0.11369334 4290090893
-0.30906615 0.027876833 -0.11178364 4290142046
-0.30821386 0.02970635 -0.11059649 4290460732
-0.30736744 0.031523574 -0.10941759 4290657084
-0.30617872 0.033300299 -0.10755274 4290919231
-0.30500206 0.035059143 -0.10570697 4291247684
-0.30349791 0.03676654 -0.10320153 4291445321
-0.30168045 0.038414955 -0.1000623 4291577421
-0.30054978 0.04011384 -0.098290995 4291839311
-0.30008435 0.041879434 -0.097849458 4291970384
-0.29962045 0.04363944 -0.09740942 4291908698
-0.2994841 0.04544143 -0.097626567 4291726210
-0.29967463 0.047294453 -0.098502025 4292465852
-0.29986575 0.049153905 -0.099380404 4292925375
-0.30038717 0.051077139 -0.10092732 4292991169
-0.30058041 0.052952789 -0.10181426 4292925635
-0.30077425 0.05483501 -0.10270414 4293057476
-0.30063641 0.05665677 -0.10292368 4292926408
-0.30083066 0.058548931 -0.10381707 4293122500
-0.30102554 0.060447719 -0.10471345 4293057479
-0.30088717 0.062276408 -0.10493384 4293123786
-0.30074877 0.064105377 -0.10515425 4293189323
-0.30061036 0.065934628 -0.10537469 4293123786
-0.30113938 0.067936458 -0.10695782 4293123786
-0.30133569 0.069862127 -0.10786426 4293123272
-0.30153263 0.071794592 -0.10877375 4293187523
-0.31332833 0.020219186 -0.12231744 4289701779
-0.31170207 0.02210113 -0.11958901 4289637532
-0.30973691 0.023944503 -0.11617512 4289833626
-0.30816084 0.02577181 -0.11353188 4290027407
-0.30695769 0.027592927 -0.11162971 4290146663
-0.30646527 0.029439079 -0.11114994 4290397507
-0.30562618 0.031254254 -0.10997122 4290657342
-0.30444825 0.033029471 -0.10810686 4290919489
-0.30362314 0.034817532 -0.10694862 4291182150
-0.3021282 0.03652671 -0.1044349 4291380300
-0.30065331 0.038213223 -0.10195493 4291577679
-0.2995258 0.039916132 -0.10017131 4291774032
-0.29906121 0.041685142 -0.099726073 4291774032
-0.2989243 0.043493036 -0.099944025 4291776858
-0.29878739 0.045301206 -0.10016202 4291658627
-0.29865044 0.047109626 -0.10038004 4292400831
-0.29916772 0.049025886 -0.10193038 4292793535
-0.29935881 0.050898001 -0.10281907 4292925890
-0.2995505 0.052776672 -0.10371072 4292860357
-0.29941258 0.054598302 -0.10393034 4292992454
-0.29927462 0.056420203 -0.10414997 4292992455
-0.29946646 0.058312114 -0.10504554 4293057733
-0.29932824 0.060137611 -0.10526562 4292860356
-0.29918998 0.061963398 -0.10548574 4292992459
-0.29905173 0.06378945 -0.10570589 4293124045
-0.29924342 0.065697998 -0.10660569 4293189838
-0.29976773 0.067699209 -0.10819307 4293123788
-0.2999616 0.069624625 -0.10910172 4293123272
-0.2998223 0.071464114 -0.10932349 4292989114
-0.30001652 0.073399723 -0.1102356 4292780439
-0.29987696 0.075242884 -0.11045782 4292510851
-0.31189141 0.019966006 -0.12361123 4289898898
-0.31027514 0.021849889 -0.1208738 4289768860
-0.30868149 0.023707746 -0.11817471 4289834140
-0.30675596 0.025524816 -0.11479685 4290029974
-0.30555996 0.027347334 -0.11288825 4290154113
-0.30472246 0.029172711 -0.11170167 4290337884
-0.30389065 0.030985836 -0.11052326 4290657859
-0.3030645 0.032786839 -0.10935284 4290919747
-0.30224392 0.034575894 -0.10819051 4291182663
-0.30075821 0.036286857 -0.10566849 4291315020
-0.29962251 0.038010795 -0.10385422 4291512400
-0.29849815 0.039717715 -0.10205819 4291643730
-0.29836071 0.041531526 -0.10227696 4291643987
-0.29789716 0.043301214 -0.10182755 4291842138
-0.29775989 0.045112547 -0.10204601 4291786882
-0.29794824 0.046974577 -0.10293345 4292269504
-0.2978107 0.048789486 -0.10315236 4292596414
-0.29832673 0.050718244 -0.10471732 4292794819
-0.29818872 0.052539747 -0.104937 4292729798
-0.29805067 0.054361548 -0.10515674 4293058248
-0.29791257 0.056183595 -0.10537651 4293189064
-0.29777449 0.058005925 -0.1055963 4293123528
-0.29763639 0.059828524 -0.10581612 4292859329
-0.29749826 0.061651368 -0.10603599 4292926664
-0.29768696 0.06355302 -0.10693491 4293123789
-0.29787624 0.065461352 -0.10783688 4293123790
-0.29839581 0.067461915 -0.10942855 4293189066
-0.29858726 0.069387078 -0.1103394 4293253056
-0.29877928 0.071319036 -0.11125331 4293044637
-0.29863963 0.073162064 -0.1114756 4292765806
-0.29883203 0.075104274 -0.1123931 4292564056
-0.29969445 0.077259146 -0.11471672 4292307306
-0.30022728 0.079329148 -0.11635402 4292317070
-0.3111929 0.019723313 -0.12640941 4289964436
-0.30921119 0.021607142 -0.12289941 4289834653
-0.30726415 0.023458358 -0.11945087 4289834653
-0.30535081 0.025277747 -0.11606206 4289965466
-0.30381554 0.027083905 -0.11343811 4290290838
-0.30298534 0.028907174 -0.11225173 4290411645
-0.30216077 0.030718258 -0.11107357 4290596440
-0.30134183 0.032517277 -0.10990345 4290854728
-0.30052838 0.034304362 -0.10874126 4291117642
-0.29938799 0.036046956 -0.1069023 4291249743
-0.29858795 0.03780764 -0.10576012 4291446610
-0.29779324 0.039556779 -0.10462558 4291579477
-0.29732904 0.041335572 -0.10417087 4291645014
-0.2971912 0.043152843 -0.10439014 4291842910
-0.29705337 0.044970389 -0.10460946 4291719552
-0.29724103 0.046838608 -0.10550424 4292071611
-0.29710293 0.048659727 -0.10572396 4292268734
-0.29729098 0.05053781 -0.10662226 4292729028
-0.29715264 0.052362546 -0.10684244 4292991942
-0.29701421 0.054187555 -0.10706265 4293123016
-0.2965503 0.055946935 -0.10660326 4293188810
-0.29641211 0.057769414 -0.10682315 4293254348
-0.29627389 0.059592158 -0.1070431 4292992201
-0.29646042 0.061490241 -0.10794381 4293057996
-0.29632193 0.063316584 -0.10816418 4293123534
-0.29683527 0.065306403 -0.10975433 4293188811
-0.29735214 0.067309968 -0.11135536 4293384643
-0.29754198 0.069238275 -0.11227108 4293242279
-0.29773244 0.071173415 -0.11318997 4292964473
-0.29792354 0.073115446 -0.11411203 4292824917
-0.29844841 0.075163826 -0.11574166 4292692298
-0.29864168 0.077123165 -0.11667288 4292627789
-0.29950896 0.079303689 -0.11903467 4292435297
-0.30072683 0.081619129 -0.12214621 4292450704
-0.31011903 0.019473972 -0.12846664 4289963666
-0.30850649 0.021371679 -0.12568058 4289834911
-0.30655867 0.023231577 -0.12219561 4289834910
-0.30429444 0.025044993 -0.11804816 4289965724
-0.30241969 0.026838636 -0.11469495 4290228381
-0.30125394 0.02864253 -0.11280021 4290421912
-0.30010006 0.030428234 -0.11092485 4290541436
-0.29929075 0.032222282 -0.10975927 4290726746
-0.29848689 0.034004461 -0.10860169 4290987087
-0.29801747 0.035807002 -0.10813636 4291250000
-0.29754966 0.037603743 -0.10767262 4291447637
-0.29708341 0.03939471 -0.10721055 4291580251
-0.2969448 0.041221052 -0.10743102 4291646043
-0.29680616 0.043047648 -0.10765152 4291713125
-0.29666755 0.044874527 -0.10787203 4291328391
-0.29652888 0.046701673 -0.10809261 4291609777
-0.29639021 0.048529074 -0.10831318 4291611582
-0.29625148 0.050356749 -0.10853382 4291940291
-0.29611278 0.052184701 -0.10875447 4292530112
-0.29597402 0.054012928 -0.10897517 4292990916
-0.29551098 0.055775732 -0.10851193 4293255626
-0.29537243 0.057601418 -0.10873231 4293386701
-0.29523388 0.059427373 -0.10895272 4293255376
-0.29509526 0.061253581 -0.10917317 4293189842
-0.29495665 0.063080087 -0.10939366 4293254863
-0.29546529 0.065069251 -0.11098807 4293319110
-0.29597738 0.067072168 -0.11259339 4293177515
-0.2964929 0.069088928 -0.11420957 4292965504
-0.29701197 0.071119748 -0.11583684 4292956250
-0.29720235 0.073068425 -0.11676664 4292822858
-0.29772648 0.075123847 -0.1184111 4292692041
-0.2982541 0.077193655 -0.12006686 4292692042
-0.29912373 0.079385996 -0.12245856 4292497495
-0.30000237 0.081601478 -0.12487526 4292513920
-0.30940989 0.019228108 -0.13129772 4289832080
-0.30779651 0.021134458 -0.1284817 4289900703
-0.3054913 0.022992196 -0.12421703 4289900704
-0.30323416 0.024811413 -0.12004139 4289966497
-0.3013652 0.026610309 -0.11666527 4290097570
-0.29986489 0.028398646 -0.11405094 4290294947
-0.29871801 0.030185748 -0.1121693 4290552986
-0.29791325 0.031980764 -0.11099961 4290606720
-0.29711398 0.033763912 -0.10983792 4290989409
-0.29664674 0.035567004 -0.10937062 4291251284
-0.29683521 0.037434075 -0.11028115 4291382875
-0.29669583 0.039269567 -0.11050281 4291187048
-0.29655641 0.0411053 -0.1107245 4291062129
-0.29674497 0.042985722 -0.11163893 4291728262
-0.29627752 0.044777632 -0.11116799 4292200368
-0.29581159 0.046563763 -0.11069863 4292138434
-0.29567233 0.048397478 -0.11092008 4292203970
-0.29520819 0.050175052 -0.110452 4292334786
-0.29474562 0.051946886 -0.10998558 4292465087
-0.29460675 0.053775229 -0.1102064 4292400064
-0.29414591 0.05553858 -0.1097412 4292335303
-0.29400724 0.057364412 -0.10996169 4292664011
-0.29386854 0.059190512 -0.11018223 4292926927
-0.29372984 0.061016895 -0.11040279 4293189069
-0.29359114 0.062843554 -0.11062336 4293121476
-0.29409504 0.064832062 -0.11222204 4292980136
-0.29525334 0.067004375 -0.1152292 4292835458
-0.29544005 0.068939053 -0.11615487 4292826208
-0.29595625 0.070972964 -0.11779165 4292888396
-0.29647601 0.073021077 -0.11943971 4292822344
-0.29699925 0.075083531 -0.12109907 4292691529
-0.29786226 0.07726483 -0.12349621 4292560976
-0.29839483 0.079360403 -0.12518409 4292238952
-0.30832654 0.018976469 -0.13337526 4289570453
-0.30708119 0.020895526 -0.13130303 4289900960
-0.3047753 0.022762468 -0.12699357 4289900706
-0.30251765 0.024590624 -0.12277439 4289966756
-0.30064833 0.026397804 -0.11936314 4290098341
-0.29914767 0.028193897 -0.11672132 4290229670
-0.2980004 0.029988304 -0.11481968 4290427048
-0.29719529 0.03179026 -0.11363712 4290884004
-0.29672465 0.033608872 -0.11316026 4291269516
-0.29625562 0.035421591 -0.11268507 4291199349
-0.29644427 0.037298065 -0.11360597 4291529598
-0.29630405 0.039143059 -0.11382888 4291603093
-0.29616383 0.040988341 -0.1140518 4291411114
-0.29635257 0.0428783 -0.11497673 4291477426
-0.29555562 0.04463229 -0.11379784 4291939515
-0.29508924 0.046424869 -0.11332256 4292005826
-0.29462442 0.04821163 -0.11284897 4292071104
-0.29416114 0.049992658 -0.11237695 4292202433
-0.29369941 0.05176793 -0.11190656 4292268996
-0.29323927 0.053537507 -0.11143783 4292203975
-0.29310027 0.055366304 -0.11165879 4292400840
-0.29296124 0.057195351 -0.11187977 4292794311
-0.29282224 0.059024684 -0.11210076 4293121990
-0.29268318 0.060854282 -0.11232181 4293252544
-0.2925441 0.062684156 -0.1125429 4292851115
-0.29368982 0.064838089 -0.11554716 4292509574
-0.29419822 0.066850767 -0.11717637 4292630626
-0.29438335 0.068788625 -0.11810707 4292692819
-0.29489669 0.070825614 -0.11975341 4292756810
-0.29574433 0.072973341 -0.12213133 4292757063
-0.29626676 0.075042896 -0.1238058 4292626249
-0.29746607 0.077336691 -0.12696156 4292300633
-0.29799989 0.079443648 -0.12867044 4292314755
-0.30723903 0.01872387 -0.13546054 4289239948
-0.30599719 0.020647867 -0.13337357 4289833117
-0.30405399 0.022531094 -0.12979005 4289900194
-0.3017959 0.024368238 -0.12552679 4289966754
-0.30026889 0.026200175 -0.12281007 4290098342
-0.29876295 0.02800709 -0.12013085 4290295464
-0.29761165 0.029811861 -0.11820196 4290361256
-0.29680362 0.031623855 -0.11700186 4290820777
-0.29633114 0.033452228 -0.11651692 4291280817
-0.29586023 0.035274614 -0.11603367 4290689198
-0.29604909 0.037160631 -0.11696513 4291016616
-0.29623854 0.039053366 -0.11789984 4291412144
-0.29576692 0.04087013 -0.11741349 4291545272
-0.29562584 0.042725299 -0.11763772 4291610812
-0.29515606 0.044533238 -0.1171527 4291741886
-0.29436171 0.046284985 -0.11596461 4291808446
-0.29357269 0.048025128 -0.11478458 4292005568
-0.29311034 0.049809609 -0.11430863 4292137155
-0.29264948 0.051588368 -0.11383429 4292203203
-0.29219016 0.053361375 -0.1133616 4292334534
-0.29205081 0.055193398 -0.11358302 4292400326
-0.29159325 0.056957882 -0.11311167 4292662470
-0.29145414 0.058787376 -0.11333278 4292859333
-0.29163268 0.060691096 -0.1142475 4293121471
-0.29213151 0.062679082 -0.11586411 4292585893
-0.29263365 0.064680852 -0.11749168 4292241782
-0.29313928 0.06669654 -0.1191304 4292693332
-0.29364827 0.068726286 -0.12078033 4292692047
-0.29448938 0.070863046 -0.12316362 4292691274
-0.2953392 0.073022239 -0.12557162 4292691783
-0.29619786 0.075204186 -0.12800476 4292561483
-0.29740492 0.077515297 -0.13121206 4292041319
-0.30490905 0.020399237 -0.13545173 4289372820
-0.30332726 0.022298023 -0.1326066 4289768867
-0.30141771 0.024157248 -0.12904887 4290032550
-0.29988521 0.026000425 -0.12629338 4290164648
-0.29837397 0.027818285 -0.12357616 4290230444
-0.29755482 0.029655853 -0.12234509 4290230701
-0.29674125 0.031481002 -0.1211225 4290493358
-0.29593328 0.033293888 -0.1199084 4291019445
-0.29579145 0.035157677 -0.12013375 4290890173
-0.29564953 0.037021734 -0.12035917 4291083953
-0.29583916 0.03892415 -0.12130463 4291413176
-0.29536572 0.040750653 -0.12081005 4291677116
-0.29489389 0.042571176 -0.12031718 4291676861
-0.29442367 0.04438572 -0.11982609 4291741885
-0.29362896 0.046144094 -0.11862487 4291808189
-0.29283965 0.04789079 -0.11743191 4291873728
-0.29237682 0.049681731 -0.11694995 4292005572
-0.29223645 0.051525813 -0.11717293 4292137156
-0.29145581 0.053246237 -0.11599106 4292268484
-0.29131588 0.055084616 -0.11621334 4292268229
-0.29085788 0.056855384 -0.11573599 4292333765
-0.29040143 0.058620486 -0.11526029 4292400326
-0.2905784 0.060527284 -0.11617998 4292794308
-0.2910744 0.062518246 -0.11780595 4292522413
-0.2915737 0.064523049 -0.11944302 4292177019
-0.29239979 0.066626884 -0.12180729 4292691792
-0.29323438 0.068752699 -0.12419595 4292691275
-0.29407761 0.070900813 -0.12660939 4292625994
-0.29526359 0.073169552 -0.12979029 4292495178
-0.29612768 0.075367697 -0.13226269 4292366162
-0.29734266 0.077696398 -0.13552262 4291916149
-0.30259511 0.022063242 -0.13544345 4289571479
-0.30103523 0.023943972 -0.13260862 4289967014
-0.29949722 0.02579852 -0.12981367 4290098603
-0.29832172 0.027646502 -0.12780045 4290295982
-0.29715848 0.029475424 -0.12580828 4290426798
-0.29634196 0.031310868 -0.12456743 4290558127
-0.29553103 0.033133887 -0.12333525 4290952884
-0.29505643 0.034976002 -0.12283548 4291283131
-0.29491395 0.036846645 -0.12306177 4291084211
-0.29510283 0.03875548 -0.12401529 4291347384
-0.29429895 0.040547699 -0.12278938 4291545275
-0.29415664 0.042415939 -0.12301538 4291676348
-0.29335865 0.044190016 -0.12179714 4291807420
-0.29256612 0.045952212 -0.1205873 4291873724
-0.29210132 0.047755502 -0.12009754 4291742400
-0.29163808 0.049552925 -0.11960955 4291874245
-0.29149711 0.051403444 -0.11983341 4292006086
-0.29039788 0.053068612 -0.11793277 4292137413
-0.28994057 0.054845687 -0.11745184 4292137158
-0.2894848 0.05661704 -0.1169725 4292202693
-0.28903049 0.058382656 -0.11649483 4292334533
-0.28920507 0.06028923 -0.11741672 4292728516
-0.28969628 0.062279534 -0.11904699 4292588977
-0.29019079 0.064283669 -0.1206884 4292178304
-0.291655 0.0665567 -0.12450276 4292560975
-0.29281595 0.068779357 -0.12764716 4292626252
-0.29399306 0.071033202 -0.13083538 4292560463
-0.29518658 0.073318899 -0.13406825 4292431189
-0.29605627 0.075533442 -0.13658077 4292108648
-0.30029714 0.023716001 -0.13543579 4289900698
-0.29910484 0.025594447 -0.13337152 4290098856
-0.29758295 0.027434601 -0.13057624 4290229933
-0.2967577 0.029293083 -0.12930803 4290361263
-0.29593819 0.031138908 -0.12804861 4290492592
-0.29512438 0.032972168 -0.12679805 4290886834
-0.2946479 0.034824289 -0.12628978 4291610295
-0.29417306 0.036670294 -0.12578335 4291150262
-0.29402995 0.038547818 -0.12601057 4291282104
-0.29322821 0.040344015 -0.12477574 4291413946
-0.29275823 0.042171806 -0.12427461 4291611069
-0.29196492 0.04394684 -0.12305216 4291676349
-0.29117703 0.04571005 -0.12183815 4291808189
-0.29071447 0.047513891 -0.12134639 4291808191
-0.29025349 0.049311884 -0.12085638 4291874500
-0.28947666 0.051045701 -0.11965812 4291940807
-0.28933609 0.052890342 -0.11988134 4292071878
-0.28887969 0.054670874 -0.11939637 4292071878
-0.28842482 0.056445666 -0.11891311 4292202950
-0.28797147 0.058214735 -0.11843144 4292334533
-0.28814444 0.060124397 -0.11935829 4292728004
-0.28863272 0.062117673 -0.12099801 4292523955
-0.28976104 0.064286768 -0.12408626 4291982724
-0.29155427 0.066657804 -0.128685 4292431444
-0.29272249 0.068896748 -0.13188054 4292497494
-0.29390702 0.07116735 -0.13512079 4292301668
-0.29510826 0.07347028 -0.13840684 4292110712
-0.29870805 0.025388153 -0.1369675 4289966493
-0.29718077 0.02723965 -0.13413218 4290230187
-0.29635248 0.029108776 -0.1328449 4290426800
-0.29552999 0.03096509 -0.13156661 4290558384
-0.29471317 0.032808706 -0.13029732 4290952623
-0.29390207 0.034639787 -0.12903692 4291741106
-0.29342672 0.036492668 -0.12852402 4291348409
-0.29295304 0.038339406 -0.12801294 4291216311
-0.29215354 0.040139552 -0.12676921 4291347899
-0.29135951 0.041927595 -0.12553409 4291545532
-0.29057091 0.043703642 -0.12430743 4291610814
-0.28978771 0.045467831 -0.12308922 4291676862
-0.28900978 0.047220245 -0.12187938 4291808447
-0.28918597 0.049125936 -0.12281986 4291940035
-0.28841138 0.050863486 -0.12161305 4291940550
-0.28827041 0.052711438 -0.12183678 4292137669
-0.28812945 0.054559641 -0.12206053 4292202692
-0.28798845 0.056408111 -0.12228432 4292268485
-0.2875334 0.058186397 -0.12179463 4292399813
-0.28739259 0.060032301 -0.12201811 4292596164
-0.28787991 0.062032208 -0.12367266 4292394165
-0.28932658 0.064289846 -0.12751938 4291724694
-0.29112452 0.06667342 -0.13217795 4292109692
-0.29296029 0.069107451 -0.13693467 4292640895
-0.29711843 0.027060853 -0.13849971 4290098082
-0.29594269 0.028922455 -0.13641952 4290361005
-0.29511717 0.030789385 -0.135122 4290489772
-0.2942974 0.032643475 -0.13383368 4290554019
-0.29348335 0.034484915 -0.13255441 4291077276
-0.29267493 0.03631378 -0.13128403 4291014057
-0.29154462 0.038093183 -0.12928115 4291081904
-0.29042599 0.039854422 -0.12729903 4291347898
-0.28963917 0.04164052 -0.12606432 4291479228
-0.288223 0.043323662 -0.12339577 4291676352
-0.28776607 0.045128554 -0.12290243 4291742143
-0.28731063 0.046927549 -0.12241074 4291677377
-0.28779849 0.048884399 -0.12406929 4291874243
-0.28765696 0.050738525 -0.12429386 4292006086
-0.2875154 0.052592903 -0.12451845 4292137413
-0.28800562 0.054576684 -0.12619005 4292202949
-0.28786355 0.056437973 -0.12641549 4292334278
-0.2870906 0.058157735 -0.12519246 4292400072
-0.2872636 0.060087189 -0.12614059 4292399559
-0.28743714 0.062023498 -0.12709202 4292529346
-0.28888735 0.064292938 -0.13098831 4292659391
-0.29201016 0.06704022 -0.13875495 4292660675
-0.29320204 0.069321811 -0.1420785 4292463549
-0.29441085 0.071636252 -0.14544949 4292593335
-0.2951867 0.02871285 -0.13925622 4290292632
-0.29436085 0.030587278 -0.13794427 4290415758
-0.29320565 0.032421201 -0.13587813 4290214015
-0.29206261 0.034236148 -0.13383371 4290407539
-0.29093146 0.036032446 -0.13181065 4290605436
-0.28981203 0.037810378 -0.12980862 4291006355
-0.28838488 0.039531022 -0.12709604 4291345070
-0.28635105 0.041145179 -0.12298457 4291543225
-0.28620997 0.042992055 -0.12320834 4291872958
-0.28575787 0.044791527 -0.12271705 4291939264
-0.28561699 0.046635821 -0.12294053 4291808706
-0.28672451 0.048697315 -0.12604214 4291939780
-0.28658259 0.050554752 -0.12626721 4292070853
-0.2870703 0.052534807 -0.12794769 4292267972
-0.28756142 0.054528777 -0.12963983 4292268996
-0.28710145 0.056331705 -0.12913178 4292334790
-0.28695872 0.058199823 -0.12935814 4292465863
-0.28776893 0.060292657 -0.13179873 4292465863
-0.28826573 0.062328447 -0.13351604 4292465350
-0.29105666 0.064965606 -0.14058162 4292530114
-0.29325631 0.067506388 -0.14628606 4292726716
-0.29447412 0.069824278 -0.14971159 4292330929
-0.29144591 0.032143898 -0.13640128 4290664279
-0.29031393 0.033957284 -0.13435778 4290858831
-0.28919375 0.035752062 -0.13233562 4291120466
-0.28649965 0.037350651 -0.12666929 4291384929
-0.28541988 0.039095011 -0.12472439 4291003271
-0.28435108 0.040821914 -0.12279925 4291535522
-0.28421035 0.042662673 -0.12302238 4292197807
-0.2840696 0.044503711 -0.12324556 4292265655
-0.28392884 0.046345033 -0.12346876 4292135871
-0.28564656 0.048509561 -0.12802199 4292135618
-0.2858175 0.050427992 -0.12897822 4292136131
-0.28662038 0.05247606 -0.13141263 4292267714
-0.2874316 0.054545715 -0.13387237 4292333250
-0.28825125 0.056637261 -0.13635789 4292399300
-0.28842971 0.058604509 -0.13734554 4292465349
-0.29124293 0.061200548 -0.14452238 4292596417
-0.29176524 0.063294068 -0.14633098 4292595644
-0.29331136 0.065664828 -0.15055412 4292002483
-0.28760573 0.03359133 -0.13263085 4290796889
-0.28619114 0.035343722 -0.12989438 4290925652
-0.28479585 0.037072457 -0.12719531 4291252305
-0.28372654 0.038815394 -0.12525113 4291382098
-0.28297272 0.040581256 -0.12404041 4291711064
-0.28283188 0.042422161 -0.12426368 4291847019
-0.282691 0.044263352 -0.12448697 4291658891
-0.28285515 0.046154656 -0.12542753 4291731622
-0.28518999 0.048429783 -0.13148135 4291867571
-0.28567606 0.050416194 -0.13319165 4291805885
-0.28648368 0.052478574 -0.13566501 4292005057
-0.28794563 0.054695267 -0.13969119 4292399296
-0.28943339 0.056951437 -0.14378855 4292464317
-0.29094762 0.059248071 -0.14795892 4292135352
-0.29214871 0.061505854 -0.15139656 4291673006
-0.28295577 0.038648225 -0.12794459 4290669665
-0.2815941 0.04034058 -0.12528181 4291060575
-0.28175631 0.042224813 -0.1262238 4291320414
-0.28161508 0.044069272 -0.12644757 4291386980
-0.28177756 0.045963604 -0.12739322 4291650926
-0.28553244 0.050404206 -0.13746394 4291802021
-0.2863448 0.052481096 -0.13997711 4291609526
-0.28814244 0.054780688 -0.14485045 4291410863
