# .PCD v0.7 - Point Cloud Data file format
VERSION 0.7
FIELDS x y z rgba
SIZE 4 4 4 4
TYPE F F F U
COUNT 1 1 1 1
WIDTH 1013
HEIGHT 1
VIEWPOINT 0 0 0 1 0 0 0
POINTS 1013
DATA ascii
-0.34359092 0.046514552 -0.090511158 4290885260
-0.34322867 0.048205584 -0.089537181 4290623629
-0.34330159 0.050130565 -0.089237519 4290753678
-0.34294051 0.051812734 -0.088267386 4290820239
-0.34604564 0.023872551 -0.10338861 4289883232
-0.34567147 0.025634898 -0.10237243 4289613640
-0.34574559 0.027594764 -0.10206746 4289546308
-0.34581974 0.029554894 -0.10176243 4289741633
-0.34544668 0.031304583 -0.10075091 4289937984
-0.3455207 0.033261754 -0.10044634 4290135365
-0.34470463 0.034785904 -0.098738663 4290336851
-0.34389442 0.036299355 -0.097043224 4290475620
-0.34309006 0.037802249 -0.095359914 4290811769
-0.34272659 0.039516732 -0.094372302 4290883980
-0.34236446 0.041225355 -0.09338814 4290819984
-0.34200358 0.042928159 -0.092407435 4290885518
-0.34164408 0.044625208 -0.091430224 4291081870
-0.34128577 0.046316478 -0.090456411 4291016590
-0.34092879 0.048002038 -0.089485988 4291016846
-0.3405731 0.049681939 -0.088519 4290950286
-0.34021866 0.051356182 -0.087555386 4290623374
-0.34029099 0.053268336 -0.087257825 4290754447
-0.34532371 0.020602327 -0.10675818 4290358926
-0.34405676 0.021987591 -0.10430133 4289962633
-0.34280354 0.023358116 -0.10187103 4289759092
-0.3424378 0.025108891 -0.10086498 4289624425
-0.34207335 0.026853623 -0.099862494 4289687141
-0.34171024 0.028592361 -0.098863572 4289880929
-0.34178349 0.030531891 -0.098561861 4290074970
-0.34142157 0.032261506 -0.09756697 4290274401
-0.341061 0.033985201 -0.096575603 4290480500
-0.3407017 0.035703059 -0.095587716 4290686344
-0.3407746 0.037633318 -0.09528745 4290753424
-0.34041643 0.039342158 -0.094303489 4290884752
-0.34005961 0.041045193 -0.093323082 4290885008
-0.33970404 0.042742491 -0.092346042 4290885518
-0.33934972 0.04443403 -0.091372445 4291016590
-0.33899671 0.046119854 -0.090402275 4291017103
-0.33864495 0.047800031 -0.089435466 4291147406
-0.33829439 0.04947453 -0.088472001 4290950799
-0.33794513 0.051143438 -0.087511905 4290950799
-0.3375971 0.052806742 -0.086555168 4290885265
-0.33808908 0.054954886 -0.086918987 4290556564
-0.33858278 0.057110902 -0.087284066 4290418052
-0.33865494 0.059020713 -0.086986959 4290802030
-0.34043002 0.061966266 -0.089355528 4291059802
-0.3431038 0.065491989 -0.093123332 4290993750
-0.34317723 0.067436941 -0.092820778 4290732637
-0.3445732 0.070217125 -0.094581485 4290478958
-0.34377474 0.018905358 -0.10839096 4290227346
-0.34295878 0.020490898 -0.10664246 4290097045
-0.34127107 0.02167939 -0.10348637 4289768333
-0.34047294 0.023238372 -0.10177429 4289702283
-0.33968055 0.024786504 -0.10007447 4289834125
-0.33889386 0.026323844 -0.09838675 4290030989
-0.33853889 0.028051343 -0.097397618 4290357383
-0.33776045 0.02956944 -0.095728301 4290420351
-0.33783284 0.031488758 -0.09542983 4290421122
-0.33748168 0.033198755 -0.094451092 4290555276
-0.33755395 0.035115253 -0.094153039 4290818959
-0.33762622 0.037032016 -0.093854971 4290819984
-0.33769852 0.038949057 -0.093556836 4290754448
-0.33777085 0.040866368 -0.093258664 4290819728
-0.33784312 0.042783994 -0.092960469 4290885263
-0.33749267 0.044472676 -0.091987602 4290950799
-0.33714345 0.046155661 -0.091018103 4291016079
-0.33637688 0.047599439 -0.08938548 4291082128
-0.33561569 0.049033392 -0.087764315 4291147664
-0.33527282 0.050694484 -0.086810566 4291147919
-0.33493122 0.052350067 -0.085860118 4290951824
-0.33541584 0.054486316 -0.086220883 4291014281
-0.33590215 0.056630354 -0.086582899 4290408288
-0.33555886 0.058279261 -0.085631028 4290400074
-0.33729953 0.061198998 -0.087973364 4290530117
-0.33779266 0.063370898 -0.088340923 4290595913
-0.33999345 0.066622838 -0.09139926 4290530378
-0.34049672 0.068828277 -0.091776781 4290272086
-0.34100181 0.07104186 -0.092155576 4290413685
-0.34267029 0.01739488 -0.11075239 4290161298
-0.34097537 0.018611914 -0.1075494 4290030487
-0.34017387 0.020190107 -0.1058135 4289899664
-0.33894587 0.021565529 -0.10338397 4289702797
-0.33773109 0.022926489 -0.10098051 4289702285
-0.33652925 0.024273172 -0.09860263 4289833613
-0.33575916 0.02580161 -0.096932121 4289964941
-0.33499458 0.027319549 -0.09527342 4290227341
-0.33423534 0.028827073 -0.09362632 4290096525
-0.33389351 0.030526636 -0.092659496 4290096781
-0.33396503 0.03242619 -0.092364185 4290621838
-0.33403659 0.034326002 -0.092068829 4290885265
-0.33452198 0.036439225 -0.092442937 4290951568
-0.33459368 0.038342964 -0.09214697 4291016848
-0.33508095 0.040467545 -0.092521794 4291016593
-0.33473709 0.042151272 -0.091554925 4291016336
-0.3348088 0.044055849 -0.091258839 4291016848
-0.33446604 0.045730896 -0.090295821 4290885776
-0.33371276 0.047168799 -0.088674389 4291016591
-0.33337376 0.048830163 -0.087720834 4291214225
-0.33262822 0.050250288 -0.086116746 4291213713
-0.33269921 0.052136354 -0.085823543 4291147921
-0.33277026 0.054022677 -0.085530281 4291279505
-0.33243471 0.055664606 -0.084587052 4290547327
-0.33291236 0.057796214 -0.084943645 4290597452
-0.3329834 0.059683364 -0.084650263 4290594369
-0.33305448 0.061570827 -0.084356837 4290660675
-0.33353412 0.063717313 -0.084713593 4290661190
-0.33692673 0.067738444 -0.089699961 4290530122
-0.33742085 0.06993065 -0.09007176 4290471002
-0.34111837 0.015694709 -0.11238827 4290358930
-0.33987167 0.017108984 -0.10989656 4290096793
-0.33863854 0.018508185 -0.10743187 4289899667
-0.33784828 0.020081267 -0.10570275 4289834127
-0.33663705 0.021452533 -0.10328258 4289702543
-0.33543882 0.022809431 -0.10088825 4289767821
-0.33425337 0.024152182 -0.098519348 4289833869
-0.33308044 0.025480986 -0.096175499 4289964941
-0.33232918 0.026992239 -0.094528288 4290161549
-0.33117667 0.028295077 -0.092225753 4290097040
-0.33084244 0.029983908 -0.09126813 4290032272
-0.33050936 0.031667117 -0.090313837 4290557327
-0.33098429 0.033757165 -0.090681739 4290820497
-0.33105525 0.035644189 -0.090388477 4290951313
-0.331532 0.037745398 -0.090757072 4291082386
-0.33201039 0.039854232 -0.091126889 4291214228
-0.33167419 0.041527491 -0.090169303 4291214228
-0.33174533 0.043418925 -0.08987534 4291148947
-0.33181643 0.045310661 -0.089581355 4291148948
-0.3310762 0.046742704 -0.087970927 4291280276
-0.33074349 0.04839633 -0.087023675 4291280534
-0.33001083 0.049810767 -0.085430413 4291345814
-0.3300814 0.051687211 -0.085138783 4291345815
-0.32975212 0.053324554 -0.084201224 4291411605
-0.32982257 0.055198289 -0.083910026 4291210383
-0.32989302 0.057072315 -0.083618782 4291058774
-0.32996351 0.058946628 -0.083327487 4290923079
-0.33003399 0.06082119 -0.083036162 4290726212
-0.33050492 0.062951699 -0.083388172 4290660933
-0.33097756 0.065089874 -0.083741412 4290660421
-0.33267078 0.068033181 -0.086050056 4290596682
-0.33315137 0.070199534 -0.086410917 4290606435
-0.33832803 0.015417936 -0.1115237 4290295454
-0.33753446 0.017010367 -0.10977052 4290097816
-0.33631831 0.018405285 -0.10731547 4289834385
-0.33511522 0.019785458 -0.10488672 4289768593
-0.33392501 0.021151202 -0.10248392 4289768335
-0.33316264 0.022693288 -0.10079694 4289768076
-0.33158246 0.023840109 -0.097754516 4289833613
-0.3304297 0.025163781 -0.095427081 4289965198
-0.32928896 0.026473852 -0.09312398 4290096782
-0.32816017 0.027770527 -0.090844825 4290032017
-0.32743758 0.029251076 -0.089241669 4290163344
-0.32750779 0.031121431 -0.088951088 4290688142
-0.32757804 0.032992065 -0.088660471 4291017364
-0.32804447 0.035070352 -0.089022942 4291214231
-0.32811484 0.036944799 -0.088731736 4291279767
-0.32858306 0.039034143 -0.089094922 4291280025
-0.32865357 0.040912356 -0.088803113 4291346330
-0.32872412 0.042790886 -0.088511273 4291280793
-0.32879463 0.044669677 -0.088219397 4291280793
-0.32806996 0.04609422 -0.086624935 4291542938
-0.32774454 0.047737714 -0.08568655 4291543451
-0.32742029 0.049375825 -0.08475139 4291608988
-0.32709718 0.051008597 -0.083819427 4291609243
-0.32716718 0.052872594 -0.083529837 4291609244
-0.32723716 0.054736871 -0.083240204 4291870361
-0.32730716 0.056601409 -0.082950532 4291260262
-0.32737717 0.058466226 -0.082660817 4290989902
-0.32744721 0.060331292 -0.082371071 4290922822
-0.32791114 0.062450122 -0.082720183 4290791237
-0.32837674 0.064576544 -0.083070487 4290725698
-0.32884398 0.066710599 -0.083421998 4290660162
-0.3289144 0.068586454 -0.083130561 4290533201
-0.33139691 0.072091356 -0.086734317 4290610548
-0.33642629 0.015507028 -0.11211769 4290294171
-0.33564094 0.017096443 -0.11036556 4290031255
-0.33486125 0.018674711 -0.10862608 4289899923
-0.33366591 0.020053659 -0.10619035 4289899408
-0.33206797 0.021229122 -0.10308267 4289833356
-0.33090228 0.022577981 -0.10070649 4289899146
-0.3297489 0.023912871 -0.098355368 4289964940
-0.32820636 0.025041629 -0.095356673 4290030734
-0.32708114 0.026347997 -0.093062013 4290162064
-0.32557565 0.027446801 -0.090136006 4290163347
-0.32486558 0.028921012 -0.088543639 4290294930
-0.32493532 0.030781895 -0.088254631 4290885522
-0.32500511 0.032643057 -0.087965578 4291215514
-0.32507488 0.034504503 -0.087676473 4291346587
-0.32514468 0.036366202 -0.087387338 4291412125
-0.32560444 0.038440313 -0.087745734 4291412125
-0.32567438 0.040305793 -0.087456003 4291346846
-0.3257443 0.042171545 -0.08716625 4291412638
-0.32581428 0.044037562 -0.086876437 4291478685
-0.32549381 0.045678888 -0.085941002 4291544482
-0.32517445 0.047314811 -0.085008718 4291544226
-0.32485613 0.048945434 -0.084079586 4291610016
-0.32492578 0.050802939 -0.083791107 4291740831
-0.32499543 0.05266073 -0.083502576 4291740834
-0.32506508 0.054518774 -0.083214007 4292134301
-0.32474762 0.056135375 -0.082289405 4291332480
-0.32481718 0.057990797 -0.082001247 4291189336
-0.32488674 0.059846502 -0.081713051 4291053895
-0.32573268 0.062205929 -0.082696013 4290921796
-0.3261928 0.064324789 -0.083045162 4290790977
-0.32665452 0.066451229 -0.083395414 4290660159
-0.32711786 0.068585306 -0.08374688 4290529607
-0.32758284 0.070727065 -0.084099524 4290537570
-0.33653608 0.012566808 -0.11698996 4289627007
-0.33531407 0.013998168 -0.11447345 4289891715
-0.33453119 0.015595837 -0.11270978 4289898895
-0.33375397 0.017182292 -0.11095874 4289900692
-0.33298236 0.018757595 -0.10922026 4289965715
-0.33179915 0.020133844 -0.10678585 4289899665
-0.33021721 0.021306828 -0.10367947 4289833870
-0.32947046 0.022843285 -0.10199434 4289833614
-0.3279216 0.023985431 -0.098954342 4289964944
-0.32639435 0.025111916 -0.095956728 4290030481
-0.32488832 0.026223039 -0.093000636 4290096530
-0.32340303 0.027319152 -0.090085253 4290228628
-0.32270271 0.028788891 -0.088498548 4290557076
-0.32238907 0.030445918 -0.087565571 4291082902
-0.32207644 0.032097518 -0.086635664 4291347615
-0.32214564 0.033946395 -0.086348623 4291347104
-0.321834 0.035589758 -0.085422307 4291543457
-0.3222841 0.03764502 -0.085774392 4291674784
-0.32235333 0.039494734 -0.085487202 4291478432
-0.32242259 0.041344728 -0.085199974 4291609761
-0.32287449 0.043414168 -0.085552163 4291675554
-0.32256112 0.045045506 -0.084625416 4291807395
-0.32263041 0.04689632 -0.084338062 4291675812
-0.3226997 0.048747379 -0.08405067 4291675811
-0.32276899 0.050598752 -0.083763242 4291872675
-0.32283834 0.05245037 -0.083475746 4291872419
-0.32252559 0.054064851 -0.082553931 4292266143
-0.32259479 0.055913877 -0.08226686 4291600529
-0.32266402 0.057763148 -0.081979744 4291519841
-0.32273325 0.059612703 -0.081692599 4291382345
-0.32356888 0.06196348 -0.082672246 4291053382
-0.32402357 0.064074829 -0.08302018 4290856001
-0.32447991 0.06619373 -0.0833693 4290725183
-0.32493782 0.068320207 -0.083719566 4290594626
-0.32578826 0.070722446 -0.084714457 4290664786
-0.32703978 0.073415831 -0.086365923 4290941300
-0.336285 0.011393925 -0.12087142 4290604635
-0.33505756 0.012839473 -0.11831996 4290138962
-0.33427122 0.014450016 -0.11653271 4290412908
-0.33349061 0.016049165 -0.11475838 4290226316
-0.33229384 0.017452126 -0.11227214 4289900181
-0.33152735 0.019026654 -0.110529 4289965459
-0.3299388 0.02021377 -0.10737941 4290030737
-0.32837275 0.021384297 -0.10427439 4289899663
-0.32763374 0.022917964 -0.10259023 4289899408
-0.32610038 0.024057772 -0.099551439 4289964945
-0.32458839 0.025181977 -0.096554942 4289965458
-0.32309738 0.026290892 -0.093599953 4290096019
-0.32124504 0.027192378 -0.090035029 4290358931
-0.32055444 0.028657753 -0.08845403 4290557843
-0.31986853 0.030113386 -0.086883776 4291083672
-0.31956172 0.031757306 -0.085959837 4291478946
-0.3188827 0.033195578 -0.084405884 4291543970
-0.31857914 0.034826517 -0.083490819 4291544483
-0.31901976 0.036863223 -0.08383666 4291675811
-0.31908834 0.038697451 -0.083551973 4291675555
-0.31953064 0.040744759 -0.08389844 4291741351
-0.31959933 0.042582624 -0.083613195 4291807142
-0.32004327 0.044640586 -0.08396028 4291938724
-0.32011211 0.046482105 -0.083674461 4291872933
-0.32018092 0.048323937 -0.083388612 4291741862
-0.32062665 0.050395969 -0.083735801 4291938726
-0.32069567 0.052241489 -0.083449356 4292004262
-0.32038751 0.05385102 -0.082530774 4292397734
-0.32008049 0.055455387 -0.081615269 4291999132
-0.32014924 0.057295423 -0.081329696 4291853423
-0.32059419 0.05938055 -0.081672557 4291581011
-0.32104072 0.06147306 -0.082016565 4291185226
-0.32186899 0.063826628 -0.082995616 4290987073
-0.32231998 0.065938033 -0.083343573 4290855744
-0.32315689 0.068319619 -0.084332176 4290725698
-0.32399964 0.070717894 -0.085327514 4290662988
-0.3252396 0.073406771 -0.086979374 4290674283
-0.33436558 0.011490916 -0.12145531 4290536791
-0.3335788 0.013112212 -0.11965018 4289876053
-0.3323727 0.014540989 -0.11711929 4290086005
-0.33160028 0.01613711 -0.11534615 4290030224
-0.33041582 0.017537236 -0.11286128 4289834647
-0.32924402 0.018922623 -0.11040305 4289900181
-0.32808483 0.020293452 -0.10797105 4289965715
-0.32693794 0.021649964 -0.10556492 4290030994
-0.32580325 0.022992415 -0.10318422 4290030738
-0.3242853 0.024129927 -0.10014667 4289964691
-0.32278851 0.02525185 -0.097151376 4290161557
-0.32131237 0.026358563 -0.09419734 4290356624
-0.31985649 0.027450349 -0.09128385 4290086781
-0.31842053 0.028527552 -0.08841005 4290346102
-0.31811604 0.030174077 -0.087483644 4291277716
-0.31707227 0.031420626 -0.08529111 4291873704
-0.31640497 0.03285294 -0.083747312 4291610280
-0.31574219 0.034275908 -0.082213923 4291544485
-0.31581008 0.036094628 -0.08193174 4291675556
-0.31587797 0.037913647 -0.081649512 4291806885
-0.31631103 0.039942559 -0.081989937 4291807399
-0.31711334 0.042192779 -0.082957849 4291872681
-0.31718159 0.044021796 -0.082674079 4292004264
-0.31761909 0.046072178 -0.083017863 4291938728
-0.31768751 0.047904838 -0.082733504 4292004522
-0.31812662 0.049965817 -0.083077841 4292070314
-0.31856725 0.052034058 -0.083423309 4292136364
-0.31826371 0.053638689 -0.082507975 4292135597
-0.31796122 0.055238154 -0.081595711 4292133796
-0.31802964 0.057072181 -0.081311151 4292061066
-0.31846941 0.059150029 -0.081652857 4291918704
-0.31891066 0.061235223 -0.081995703 4291647577
-0.31972879 0.06358017 -0.082971476 4291315527
-0.32055247 0.065941371 -0.08395382 4290987073
-0.32138184 0.068319067 -0.084942877 4290790979
-0.32221693 0.070713416 -0.085938744 4290597196
-0.3238343 0.073672011 -0.088242769 4290541677
-0.33245292 0.011587626 -0.12203729 4290405207
-0.33167443 0.013205803 -0.12023339 4289810774
-0.33090162 0.014812479 -0.11844257 4289956217
-0.3297165 0.016224779 -0.11593201 4290030738
-0.3285442 0.017622106 -0.1134485 4289965976
-0.32738453 0.019004762 -0.11099163 4289966232
-0.3262372 0.020372912 -0.10856093 4289965717
-0.32470265 0.021538567 -0.10545871 4290030996
-0.32397896 0.023066683 -0.10377637 4289965205
-0.32247633 0.024201855 -0.10074008 4290030998
-0.32138062 0.025513072 -0.09841764 4290227351
-0.31991407 0.026618144 -0.095454954 4290218620
-0.31846774 0.027708363 -0.092532873 4290008660
-0.31741315 0.028977795 -0.090295918 4290007123
-0.31636927 0.030234605 -0.088081725 4290476656
-0.31497124 0.031282846 -0.085258529 4291012755
-0.31395194 0.032513816 -0.083095595 4291542950
-0.31330061 0.033930931 -0.081572153 4291808170
-0.31336805 0.035740741 -0.081291452 4291676073
-0.31307757 0.037346508 -0.080393806 4291806888
-0.31386226 0.039569106 -0.081348404 4291872935
-0.31429037 0.041594457 -0.08168716 4291938472
-0.31471997 0.043626886 -0.082027085 4291807144
-0.31515104 0.045666423 -0.082368076 4291675818
-0.31558353 0.047713105 -0.082710147 4292136109
-0.3163847 0.049994707 -0.08368209 4292070575
-0.31682155 0.052059665 -0.084028043 4292136365
-0.31652135 0.053661734 -0.083113328 4292005039
-0.31658971 0.055495668 -0.082828879 4292004523
-0.31629044 0.057089765 -0.081917584 4292200613
-0.31635869 0.058921121 -0.081633531 4292261529
-0.31679481 0.060999062 -0.081975281 4292183933
-0.31760284 0.063335396 -0.082947686 4291844189
-0.31841642 0.065687932 -0.083926708 4291249480
-0.31923553 0.068056844 -0.084912352 4290921798
-0.32044008 0.070709012 -0.08654806 4290663506
-0.32242876 0.073937297 -0.08950638 4290611317
-0.33012447 0.011507942 -0.12186716 4290338389
-0.32977673 0.013299108 -0.12081476 4289875540
-0.32859549 0.014722088 -0.11828688 4290019702
-0.32783929 0.016312184 -0.11651605 4290095763
-0.32627115 0.017523028 -0.1133125 4289965978
-0.3251276 0.018901441 -0.11086514 4289965977
-0.32399625 0.020265482 -0.1084438 4289965975
-0.3228769 0.021615377 -0.10604802 4290031254
-0.32176933 0.022951327 -0.10367745 4290031255
-0.32106087 0.024464305 -0.10201316 4290294425
-0.31958887 0.025582347 -0.099010184 4290614914
-0.31851554 0.026877791 -0.096712783 4290271575
-0.31745335 0.028160194 -0.094439022 4290134340
-0.31640205 0.029429693 -0.092188522 4290265670
-0.31499422 0.0304904 -0.089318387 4290596689
-0.31360534 0.031537097 -0.086486921 4290864996
-0.31223515 0.032570031 -0.083693422 4291331450
-0.31159052 0.033984795 -0.082170531 4291341977
-0.31130341 0.03559076 -0.081273042 4291674791
-0.31137052 0.037394956 -0.080993302 4292004779
-0.31143767 0.03919943 -0.080713525 4291938730
-0.31221545 0.041424945 -0.081667587 4291807400
-0.31264001 0.04345046 -0.082006395 4291740840
-0.31342578 0.04570204 -0.082969531 4291478446
-0.31421682 0.047969051 -0.083939105 4292136110
-0.31501326 0.050251678 -0.08491528 4292070834
-0.31508148 0.052085262 -0.084630996 4292136367
-0.31514972 0.053919103 -0.084346652 4292202416
-0.31521797 0.055753212 -0.084062271 4292136881
-0.3149209 0.057347059 -0.083148956 4292201904
-0.31498909 0.059178598 -0.082864963 4292201903
-0.31505725 0.061010417 -0.082580939 4292197539
-0.31585795 0.063343026 -0.083553836 4292053637
-0.3166641 0.065691784 -0.084533304 4291647070
-0.31747574 0.068056822 -0.085519418 4291184204
-0.31904647 0.070971876 -0.087800965 4290730332
-0.32822946 0.011604187 -0.12244573 4290206546
-0.32788569 0.013392105 -0.12139421 4290071120
-0.32671672 0.014812209 -0.11886783 4290411632
-0.32556039 0.016217282 -0.11636867 4290292114
-0.32401404 0.017424677 -0.11317771 4289966492
-0.3232848 0.018983275 -0.11145026 4289966234
-0.32177094 0.020158898 -0.10832778 4289966232
-0.32105732 0.021691965 -0.10663555 4289966232
-0.31996116 0.023025358 -0.10426608 4290556570
-0.31887648 0.024345098 -0.10192132 4290878607
-0.31818289 0.025843205 -0.10027473 4290471016
-0.31711677 0.027137484 -0.097970843 4290331457
-0.31606168 0.028418733 -0.095690675 4290330431
-0.31538728 0.029883154 -0.094087839 4290527299
-0.31398383 0.030942783 -0.091199949 4290855753
-0.31259936 0.031988353 -0.088351063 4291119692
-0.31123349 0.033020183 -0.085540369 4291384660
-0.31023788 0.034236927 -0.08338695 4291260010
-0.30995291 0.035842624 -0.082487524 4291203716
-0.30966887 0.037443273 -0.08159101 4291410080
-0.310087 0.039451677 -0.081928119 4292200876
-0.31050652 0.041467052 -0.082266279 4291938989
-0.31092745 0.043489464 -0.082605578 4291872425
-0.31206346 0.045956954 -0.084194541 4291807153
-0.31248987 0.048001066 -0.084539264 4292201904
-0.313279 0.050280131 -0.085515819 4292333490
-0.31407353 0.05257494 -0.086498976 4292268213
-0.31414178 0.054412063 -0.086214229 4292333750
-0.31384596 0.056010801 -0.085295893 4292333492
-0.31391415 0.057845376 -0.085011512 4292333236
-0.3136192 0.059436124 -0.084096633 4292201907
-0.31368726 0.061268147 -0.083812676 4292136112
-0.31411868 0.0633507 -0.084158182 4292132007
-0.31491745 0.065695681 -0.085138097 4291923082
-0.31572172 0.068056896 -0.086124681 4291516259
-0.3184064 0.071772859 -0.090356037 4290865772
-0.32634103 0.011700118 -0.1230224 4290140754
-0.32559004 0.013306757 -0.12122823 4290136142
-0.32484448 0.014902056 -0.11944696 4290410350
-0.32329759 0.016123133 -0.11622259 4290225809
-0.32177272 0.0173271 -0.11304412 4290032284
-0.32066098 0.018697182 -0.11061565 4290097563
-0.319561 0.020053064 -0.10821278 4290163355
-0.31847259 0.021394998 -0.10583513 4290360221
-0.31777662 0.022910863 -0.10416642 4290555804
-0.31708556 0.024416439 -0.10250928 4290609788
-0.3160232 0.025720328 -0.1001899 4290397515
-0.31534415 0.02720375 -0.098560601 4290330174
-0.31466976 0.028677315 -0.096942529 4290396223
-0.31400001 0.030141035 -0.095335491 4290658627
-0.31260589 0.031199101 -0.09243919 4290921032
-0.31123066 0.03224314 -0.089581974 4291249482
-0.30987388 0.033273421 -0.086763084 4291446859
-0.30923593 0.03468857 -0.085227557 4291512910
-0.30895203 0.036296394 -0.084323585 4291058268
-0.30866912 0.037899144 -0.083422601 4290869878
-0.30873609 0.039703976 -0.083142936 4292060306
-0.30915323 0.041719951 -0.083483204 4291871145
-0.30992448 0.043958295 -0.084448285 4292005037
-0.31070092 0.046211947 -0.085419759 4292202419
-0.31148258 0.048481043 -0.086397737 4292268470
-0.31263098 0.050995581 -0.088019446 4292334006
-0.31306189 0.053066302 -0.088373557 4292334265
-0.31313017 0.054906763 -0.088088386 4292465337
-0.31319845 0.05674747 -0.087803178 4292465079
-0.31290367 0.0583454 -0.086880572 4292334005
-0.31297186 0.060183551 -0.086595766 4292202421
-0.31231707 0.061525896 -0.085044615 4292201909
-0.31274605 0.063609101 -0.085392296 4292135346
-0.31317651 0.065699592 -0.085741051 4291935141
-0.31397337 0.068056993 -0.086728051 4291334537
-0.3162584 0.071497731 -0.090307526 4291334271
-0.3244592 0.011795753 -0.12359725 4290206544
-0.32371628 0.01339933 -0.12180428 4290072142
-0.32257593 0.014812146 -0.11928944 4290280558
-0.32144782 0.016210074 -0.1168016 4290291856
-0.31993872 0.017411467 -0.11362467 4290097565
-0.31883857 0.0187789 -0.11119751 4290032028
-0.31736633 0.01994806 -0.10809885 4290097564
-0.31629309 0.021286044 -0.10573015 4290359453
-0.31560707 0.022797205 -0.10406769 4290356629
-0.31492579 0.024298159 -0.10241663 4290278512
-0.31387818 0.025598319 -0.10010581 4290460992
-0.31320873 0.0270773 -0.098482542 4290395456
-0.31291008 0.028740827 -0.097531311 4290526784
-0.3122474 0.03020204 -0.09592507 4290789443
-0.31122774 0.03145548 -0.093678623 4291051592
-0.30986172 0.032497976 -0.090813123 4291248714
-0.30886611 0.033725612 -0.088618822 4291446348
-0.30823034 0.035141803 -0.08707457 4291577678
-0.30794758 0.036751736 -0.086166039 4291446606
-0.30766577 0.038356572 -0.085260503 4291446863
-0.30773276 0.04016462 -0.084980436 4291520362
-0.30814886 0.04218493 -0.085324444 4291539356
-0.30856636 0.044212293 -0.085669555 4292136627
-0.30969217 0.046687957 -0.087276787 4292268984
-0.31047165 0.048962716 -0.088262759 4292334263
-0.31125644 0.051253136 -0.089255393 4292334007
-0.31204659 0.053559437 -0.090254761 4292334523
-0.31211486 0.055403188 -0.089969173 4292400059
-0.3121832 0.057247236 -0.089683525 4292400058
-0.3118895 0.058847219 -0.088756241 4292268730
-0.31195772 0.060688663 -0.088470995 4292202425
-0.3113052 0.062031757 -0.086910971 4292136378
-0.31137317 0.063867532 -0.086626627 4292136119
-0.3118012 0.065958649 -0.086977541 4291937969
-0.31223071 0.068057157 -0.087329626 4291542442
-0.31449381 0.071492158 -0.090909198 4291870370
-0.32258391 0.011891116 -0.12417024 4290010197
-0.32184902 0.013491648 -0.12237852 4290141529
-0.32111937 0.01508096 -0.12059964 4290220160
-0.31960443 0.016296765 -0.11737873 4290228378
-0.31811094 0.017495602 -0.1142034 4290097823
-0.31702232 0.01886037 -0.11177751 4290032030
-0.31556529 0.020027103 -0.10868031 4290097565
-0.31412852 0.021177897 -0.10562617 4290228123
-0.31345224 0.022684369 -0.10396983 4290159249
-0.31278068 0.024180727 -0.10232493 4290212463
-0.31174764 0.025477208 -0.10002259 4290460738
-0.31145138 0.027143413 -0.099068843 4290460993
-0.31115621 0.028804209 -0.098118365 4290723394
-0.3105005 0.030262889 -0.096512884 4290985795
-0.30984932 0.031711899 -0.094918311 4291182921
-0.30849251 0.032752845 -0.09204448 4291446092
-0.30785468 0.034179371 -0.090481013 4291511885
-0.30757102 0.035798974 -0.089562289 4291577167
-0.30728832 0.037413388 -0.088646591 4291642700
-0.30665883 0.038815603 -0.087104812 4291773260
-0.3067258 0.040626831 -0.08682435 4291517286
-0.30714083 0.042651493 -0.087172091 4291999903
-0.3075572 0.044683196 -0.08752089 4292399288
-0.30867973 0.047165632 -0.089140251 4292465596
-0.30945706 0.049446054 -0.09013433 4292399547
-0.31023964 0.051742189 -0.091135047 4292399546
-0.31066701 0.053818099 -0.091495223 4292399804
-0.31109589 0.055901367 -0.091856584 4292465597
-0.31080344 0.057506267 -0.090924129 4292465595
-0.31087166 0.059350751 -0.090638503 4292269243
-0.31058013 0.060947623 -0.08970961 4292137660
-0.30993214 0.06229005 -0.088145457 4292202683
-0.31000006 0.064126015 -0.08786118 4292202424
-0.31042564 0.06621775 -0.088214263 4292070069
-0.31049368 0.068057351 -0.087929405 4291675826
-0.31607991 0.073933065 -0.097457163 4291937196
-0.32111678 0.012161528 -0.12549002 4290076509
-0.32038704 0.013761283 -0.12369362 4290343017
-0.31926647 0.015169973 -0.12117326 4290289808
-0.31776729 0.016383188 -0.11795402 4290098082
-0.3162894 0.017579498 -0.11478038 4290032289
-0.31521219 0.018941602 -0.11235576 4290032033
-0.31377029 0.020105951 -0.10925999 4290163104
-0.31197867 0.021070555 -0.10552306 4290228381
-0.31131208 0.022572391 -0.10387292 4290226838
-0.31065011 0.024064168 -0.10223408 4290414203
-0.30999264 0.025545957 -0.10060642 4290332493
-0.30969986 0.027209388 -0.099653423 4290526786
-0.30940804 0.028867405 -0.098703593 4290854725
-0.30911723 0.030520016 -0.097756959 4291117640
-0.30847067 0.031968366 -0.096158221 4291249485
-0.30747518 0.033207119 -0.093922101 4291577934
-0.30683959 0.034634713 -0.092349648 4291642958
-0.30655709 0.036256444 -0.09142635 4291577421
-0.30627552 0.037872992 -0.090506069 4291839564
-0.3059949 0.039484382 -0.089588813 4291969870
-0.30606201 0.041301899 -0.089307472 4291651691
-0.30612916 0.043119662 -0.089026071 4292264872
-0.30654451 0.045155764 -0.089378722 4292596153
-0.30766365 0.047644977 -0.091010302 4292530877
-0.30843875 0.049931053 -0.09201242 4292595899
-0.30886224 0.052000269 -0.092373587 4292530876
-0.30964541 0.054313418 -0.093385421 4292596671
-0.30971363 0.056160696 -0.09309946 4292531135
-0.30978188 0.058008254 -0.092813462 4292465599
-0.3098501 0.059856072 -0.092527442 4292334527
-0.30991837 0.061704189 -0.092241362 4292268734
-0.30927029 0.06304875 -0.090663314 4292268477
-0.3089819 0.064637393 -0.089735948 4292136635
-0.3094064 0.06673377 -0.09009289 4292004535
-0.31055182 0.069361925 -0.091744371 4291807413
-0.31317827 0.07310085 -0.096051298 4292069296
-0.31925038 0.012256112 -0.12605903 4290016619
-0.31852862 0.013852873 -0.1242639 4290283130
-0.31741995 0.015258735 -0.12174505 4290226840
-0.3163231 0.016649887 -0.11925309 4290032803
-0.31485534 0.017844506 -0.11607033 4290032547
-0.31378561 0.019205395 -0.11363894 4289967012
-0.31198126 0.020184532 -0.10983787 4290098084
-0.31020817 0.021146985 -0.1061025 4290228641
-0.3091864 0.022461202 -0.10377691 4290293917
-0.30853388 0.023948416 -0.10214405 4290420366
-0.30788583 0.025425756 -0.10052235 4290208614
-0.30759749 0.027083892 -0.099572785 4290657862
-0.30766559 0.028930426 -0.099287041 4290920777
-0.30737817 0.030580336 -0.098341137 4291118669
-0.30709174 0.032224879 -0.097398348 4291316050
-0.30610317 0.033462513 -0.095156007 4291512145
-0.30582079 0.035091624 -0.094224893 4291577424
-0.30553943 0.036715515 -0.093296885 4291642958
-0.30560678 0.038541857 -0.09301427 4291709263
-0.30532628 0.040157743 -0.092089824 4291839315
-0.30539355 0.041981559 -0.091807604 4291656818
-0.30546081 0.043805629 -0.091525324 4292002989
-0.30587628 0.045849957 -0.091883376 4292400061
-0.30664393 0.048126008 -0.092886902 4292465597
-0.30706355 0.050188553 -0.093249016 4292530876
-0.30783913 0.052491531 -0.09426219 4292597183
-0.30826297 0.054572631 -0.094628446 4292596928
-0.30868825 0.056661088 -0.094995849 4292400064
-0.3087565 0.058511987 -0.094709434 4292203969
-0.30882478 0.06036317 -0.094422966 4292138432
-0.30889305 0.062214602 -0.094136469 4292203712
-0.3082473 0.063559934 -0.092549406 4292202944
-0.30831537 0.065405622 -0.092263803 4292136638
-0.30838344 0.067251563 -0.091978155 4291939514
-0.30952549 0.069887087 -0.09364219 4291742393
-0.31177589 0.07336536 -0.097312108 4291873206
-0.31706876 0.014122107 -0.12557711 4290091914
-0.31596783 0.015526746 -0.12305126 4290097052
-0.31487864 0.016916633 -0.1205524 4290033316
-0.31342104 0.018109579 -0.11736047 4290033316
-0.31273499 0.019653177 -0.11563389 4290033317
-0.31056678 0.020446256 -0.11111015 4290098854
-0.30844349 0.021223208 -0.10668012 4290163621
-0.3074325 0.022534961 -0.10435562 4290229412
-0.30643186 0.023833539 -0.10205489 4290293151
-0.30614594 0.025494324 -0.10110279 4290282627
-0.30550924 0.026959298 -0.099492945 4290661204
-0.30557701 0.028799739 -0.099208236 4290921807
-0.30564478 0.030640455 -0.098923489 4291118930
-0.30536166 0.032282282 -0.097981408 4291382100
-0.30507952 0.033918854 -0.097042471 4291578451
-0.30479836 0.035550147 -0.096106708 4291643474
-0.30486584 0.037382569 -0.095823228 4291512402
-0.30458549 0.039005801 -0.094890974 4291512657
-0.30465287 0.040835682 -0.094607905 4291577947
-0.30437341 0.042450875 -0.09367919 4291794055
-0.30444071 0.044278223 -0.0933965 4291938996
-0.30485508 0.046326973 -0.093758442 4292269245
-0.30562043 0.048608679 -0.094770052 4292400319
-0.30603895 0.050675761 -0.095136054 4292400321
-0.30645892 0.052750163 -0.095503256 4292531906
-0.30723497 0.055070173 -0.096527591 4292465857
-0.30765915 0.057163257 -0.096898988 4292400064
-0.30772743 0.059017502 -0.096612148 4292335042
-0.30815321 0.061121494 -0.096984252 4292203714
-0.30750763 0.062475037 -0.095382117 4292137665
-0.30757582 0.064326935 -0.095095649 4292202688
-0.30764404 0.066179112 -0.094809115 4292136895
-0.30735677 0.067771196 -0.093870074 4291940029
-0.3084954 0.070414081 -0.095546745 4291742909
-0.30964574 0.073084518 -0.097240694 4291742909
-0.31521907 0.014212967 -0.12614343 4290029462
-0.31451544 0.015794776 -0.12435772 4290163874
-0.31343395 0.017183451 -0.12185194 4290164389
-0.31236398 0.01855761 -0.11937278 4290099110
-0.31130534 0.019917523 -0.11691982 4290164646
-0.30951935 0.020892529 -0.11308356 4290229927
-0.30704328 0.021482481 -0.10793953 4290295463
-0.30603942 0.022793083 -0.1056086 4290295718
-0.30469429 0.023904681 -0.10263289 4290427043
-0.30406243 0.025374999 -0.10101793 4290554006
-0.30378187 0.027025143 -0.10007248 4290343023
-0.30384943 0.028862638 -0.09978833 4290988628
-0.30356973 0.030504635 -0.098846488 4291119445
-0.30363718 0.032339573 -0.098562732 4291316823
-0.30370468 0.034174759 -0.098278925 4291579221
-0.30377215 0.036010228 -0.097995095 4291512660
-0.30383965 0.037845969 -0.097711198 4291447380
-0.30390716 0.039681997 -0.097427279 4291643731
-0.30362791 0.041304521 -0.096490793 4291579750
-0.30334958 0.04292183 -0.095557377 4291929498
-0.30341688 0.044752453 -0.095274299 4292201656
-0.30383018 0.04680568 -0.095640078 4292334784
-0.30424485 0.048866104 -0.096007019 4292335043
-0.30466092 0.050933816 -0.09637519 4292400579
-0.30542946 0.053243626 -0.097400904 4292531908
-0.30584967 0.055329919 -0.097773217 4292466117
-0.30662626 0.057667185 -0.098808914 4292399554
-0.30669457 0.059524827 -0.098521642 4292400066
-0.30711916 0.061633427 -0.098897643 4292400580
-0.30683121 0.063240856 -0.097946987 4292268739
-0.30689955 0.065099277 -0.09765958 4292137153
-0.30696788 0.06695798 -0.097372152 4292071359
-0.30668065 0.068554349 -0.096425511 4292071102
-0.30710459 0.070676237 -0.096797161 4291939771
-0.30860838 0.073620878 -0.099164836 4291874752
-0.31376129 0.014481805 -0.12745474 4290030232
-0.31306276 0.01606285 -0.12566444 4290229669
-0.31198895 0.01745028 -0.12315172 4290295462
-0.31130296 0.019007323 -0.1213925 4290230183
-0.31024802 0.020367444 -0.11892456 4290230439
-0.30846801 0.021340391 -0.11506405 4290361512
-0.30600032 0.021926144 -0.10988728 4290361514
-0.30464607 0.023051245 -0.10686182 4290361513
-0.30331036 0.024161266 -0.1038776 4290492583
-0.30233735 0.025443386 -0.10159504 4290621860
-0.30206013 0.027090829 -0.10065028 4290810259
-0.30212745 0.028925398 -0.10036668 4290992487
-0.30219483 0.03076024 -0.10008302 4291054935
-0.30226219 0.032595359 -0.099799335 4291383128
-0.30232957 0.034430731 -0.099515595 4291382869
-0.30239695 0.036266387 -0.099231824 4291447637
-0.30280975 0.038310993 -0.099605821 4291577939
-0.30287725 0.040150322 -0.099321492 4291643734
-0.30259919 0.041775007 -0.098380245 4291387507
-0.30266663 0.043611731 -0.098096296 4291735206
-0.30273405 0.045448747 -0.09781231 4292135865
-0.30280152 0.047286008 -0.097528286 4292269249
-0.30356228 0.04957914 -0.098556302 4292335300
-0.30397853 0.0516553 -0.098930158 4292400836
-0.30439618 0.053738803 -0.09930519 4292466630
-0.30481532 0.0558297 -0.099681512 4292400837
-0.30558956 0.058172893 -0.10072552 4292334017
-0.30601293 0.060282748 -0.10110615 4292399551
-0.30643773 0.062400151 -0.10148801 4292466117
-0.30614981 0.064011954 -0.10052965 4292334532
-0.3062183 0.065876953 -0.10024133 4292137412
-0.30593124 0.067480586 -0.099286638 4292071104
-0.30599964 0.069342941 -0.098998733 4291938231
-0.30571353 0.070938416 -0.098047785 4292003250
-0.30720761 0.073885083 -0.10042415 4291940285
-0.31192034 0.014571982 -0.12801719 4290027916
-0.31122959 0.016150068 -0.12622814 4290294176
-0.31092143 0.017900271 -0.12518919 4290229927
-0.30986276 0.019273469 -0.12268796 4290229927
-0.30918661 0.020818999 -0.12093663 4290295719
-0.30741274 0.021789888 -0.11705178 4290427048
-0.30531093 0.022557452 -0.11253698 4290493098
-0.30360401 0.023495546 -0.10879792 4290427563
-0.30227304 0.024604641 -0.10579544 4290492586
-0.30130357 0.025886863 -0.10349926 4290623401
-0.30068514 0.027346084 -0.10188692 4290949797
-0.30041108 0.028987994 -0.10094333 4291005585
-0.30081967 0.031015892 -0.10131979 4290796904
-0.30088693 0.032851197 -0.10103618 4290728809
-0.30129704 0.034889635 -0.10141338 4290794344
-0.30136445 0.036728609 -0.10112918 4290796139
-0.30177608 0.038777672 -0.10150712 4291127147
-0.30184361 0.040620286 -0.10122237 4291853428
-0.30191118 0.042463195 -0.10093757 4292124303
-0.30163416 0.044087145 -0.099992007 4292001711
-0.30170164 0.045927461 -0.099707603 4291807674
-0.30176911 0.047768053 -0.099423163 4291808962
-0.30252761 0.050066918 -0.10045946 4292138181
-0.30294266 0.052147619 -0.10083722 4292335302
-0.30370906 0.054473829 -0.10188362 4292400838
-0.30412832 0.056573354 -0.10226565 4292400581
-0.30454907 0.058680404 -0.10264903 4292334530
-0.30497128 0.060794946 -0.10303365 4292399550
-0.30539489 0.062917054 -0.10341955 4292400068
-0.30510819 0.064530939 -0.10245629 4292268740
-0.3055321 0.066660032 -0.1028411 4292268226
-0.30524519 0.068268038 -0.10187877 4292068277
-0.30531368 0.070136994 -0.10158995 4291732634
-0.30538222 0.072006233 -0.10130107 4291796633
-0.30977899 0.016417783 -0.12753297 4290030998
-0.30947334 0.018167701 -0.12649177 4290099367
-0.30879486 0.019725345 -0.12471767 4290098855
-0.30812117 0.021272192 -0.12295606 4290230185
-0.30671847 0.022429463 -0.11976422 4290296235
-0.30461651 0.023193209 -0.11520541 4290427821
-0.30290955 0.024129266 -0.11143045 4290558894
-0.3015787 0.025237976 -0.10839967 4290493614
-0.30060938 0.026521519 -0.10608241 4290427820
-0.29999113 0.027983766 -0.10445587 4290821550
-0.29937708 0.029436346 -0.10284033 4291478451
-0.29978451 0.031468663 -0.10322074 4291013276
-0.2998518 0.033307273 -0.10293669 4290947995
-0.2999191 0.035146128 -0.10265262 4291211169
-0.30032817 0.037192434 -0.10303325 4291145893
-0.30039561 0.03903497 -0.1027486 4291146148
-0.30046305 0.040877789 -0.10246391 4291606696
-0.30053049 0.042720888 -0.10217917 4291871922
-0.30059797 0.044564243 -0.10189439 4292136638
-0.30066547 0.046407867 -0.10160956 4292071362
-0.30073294 0.048251778 -0.1013247 4291874498
-0.30148906 0.050556388 -0.10236929 4291875268
-0.3015568 0.052407116 -0.10208336 4292269255
-0.30231839 0.054734427 -0.1031341 4292532168
-0.30273515 0.05683459 -0.10351835 4292466631
-0.3031534 0.05894224 -0.10390396 4292400583
-0.30392572 0.061308935 -0.10496801 4292465346
-0.3043482 0.0634358 -0.10535801 4292399553
-0.30441681 0.065310583 -0.10506839 4292398526
-0.30484092 0.067448623 -0.10545917 4292328883
-0.30455408 0.069060959 -0.104489 4291992206
-0.30497843 0.071206056 -0.10487869 4291847014
-0.30540425 0.073358819 -0.10526962 4291583086
-0.30655208 0.076077983 -0.10703531 4291863199
-0.30832818 0.016685532 -0.12883805 4290027918
-0.308025 0.018435169 -0.12779458 4290294948
-0.30735156 0.019992054 -0.1260159 4290165163
-0.30705175 0.021727048 -0.12498292 4290295978
-0.30565396 0.022883369 -0.12177121 4290362285
-0.30427578 0.024023756 -0.11860449 4290493871
-0.3025628 0.024957638 -0.11478043 4290559664
-0.30087936 0.025875753 -0.11102211 4290625198
-0.29991025 0.0271606 -0.10868351 4290559405
-0.29929212 0.028625831 -0.10704258 4290887600
-0.29867825 0.030081391 -0.1054128 4291151292
-0.29874557 0.03192303 -0.10512838 4290951596
-0.2988129 0.033764943 -0.10484392 4291018927
-0.29888022 0.035607137 -0.10455941 4291281331
-0.29894754 0.037449583 -0.10427487 4291347639
-0.2990149 0.039292339 -0.10399028 4291413690
-0.29908222 0.041135345 -0.10370566 4291545533
-0.2991496 0.042978626 -0.10342098 4291677888
-0.29921696 0.044822164 -0.10313628 4292006084
-0.29962552 0.046889983 -0.10351825 4292137157
-0.30003542 0.048965108 -0.10390142 4292072135
-0.30010307 0.050815739 -0.10361561 4292137927
-0.30051452 0.052901696 -0.10399959 4292400070
-0.3012737 0.055234835 -0.1050587 4292531397
-0.30168933 0.057339668 -0.10544706 4292400581
-0.3024565 0.059700742 -0.10651656 4292400584
-0.30287632 0.061824761 -0.10690933 4292465092
-0.30365166 0.064214207 -0.10798939 4292397755
-0.30407578 0.066357657 -0.10838669 4292457131
-0.30414465 0.068242677 -0.10809558 4291922570
-0.30457041 0.070397444 -0.10849368 4292107098
-0.30499759 0.072559975 -0.10889305 4291972689
-0.30578718 0.075009264 -0.10998932 4291514720
-0.30658227 0.077476002 -0.11109319 4291924362
-0.30657637 0.018702682 -0.12909764 4290095515
-0.30627671 0.020446086 -0.12805557 4290360749
-0.30561066 0.021993548 -0.12627916 4290427050
-0.30494925 0.023530317 -0.12451529 4290559150
-0.30357111 0.024670348 -0.1213182 4290559665
-0.30221218 0.025794748 -0.11816567 4290625459
-0.30052292 0.026710583 -0.11435868 4290690736
-0.2995505 0.027997941 -0.11199082 4290625200
-0.29893038 0.029468022 -0.11033016 4290953650
-0.29797444 0.030730838 -0.10800306 4290954942
-0.29770288 0.032378975 -0.10704277 4290887604
-0.2977702 0.034224216 -0.10675789 4291019702
-0.29783753 0.036069736 -0.10647297 4291216568
-0.29790488 0.037915535 -0.106188 4291348411
-0.29797223 0.039761614 -0.105903 4291479229
-0.29803962 0.041607939 -0.10561795 4291545792
-0.298107 0.04345455 -0.10533285 4291546306
-0.29851419 0.045523431 -0.10571929 4291808706
-0.29858172 0.047373749 -0.10543361 4291940036
-0.29899046 0.049453445 -0.10582085 4292071879
-0.29905814 0.051307458 -0.10553461 4292334793
-0.29946843 0.053398006 -0.10592259 4292465351
-0.3002252 0.055737048 -0.10699021 4292333507
-0.30029324 0.057601441 -0.10670238 4292202177
-0.30105549 0.059963606 -0.10777628 4292398782
-0.30182308 0.06234242 -0.10885762 4292329397
-0.30259597 0.06473802 -0.10994636 4292192157
-0.30337426 0.06715057 -0.11104266 4291782782
-0.30380002 0.069310851 -0.1114474 4292170321
-0.30422729 0.071478978 -0.11185351 4292169035
-0.30501682 0.073932976 -0.11296406 4291972686
-0.30581188 0.076404504 -0.11408241 4291517023
-0.30734867 0.07947433 -0.11664024 4291596933
-0.30483034 0.020713389 -0.12935659 4290426018
-0.30453429 0.022450587 -0.12831604 4290427821
-0.30387545 0.023988662 -0.12654182 4290493102
-0.30286115 0.025321564 -0.12405124 4290625203
-0.30150235 0.026445536 -0.12086864 4290625204
-0.30016249 0.027554162 -0.11773029 4290690481
-0.29884109 0.028647715 -0.11463521 4290756016
-0.2982212 0.030120822 -0.11295985 4291150515
-0.29692668 0.031186169 -0.10992906 4290823099
-0.29665631 0.032836542 -0.10896386 4290953912
-0.29672363 0.034685116 -0.10867856 4291151545
-0.29645416 0.036327258 -0.1077171 4291282618
-0.2965214 0.03817324 -0.1074322 4291348156
-0.29692575 0.040232509 -0.10782241 4291479229
-0.29699317 0.042082176 -0.10753693 4291479743
-0.29739907 0.0441522 -0.10792795 4291480256
-0.29746661 0.046005584 -0.1076419 4291677378
-0.29753411 0.047859222 -0.10735583 4291808964
-0.29794171 0.049943525 -0.10774708 4291940294
-0.29800937 0.051800895 -0.10746042 4292137160
-0.29841846 0.053896051 -0.10785236 4292203467
-0.29882899 0.055998676 -0.10824569 4292268746
-0.29924092 0.058108844 -0.10864031 4292398531
-0.29965428 0.060226534 -0.1090362 4292329391
-0.30041689 0.062606446 -0.11012198 4291658891
-0.30153638 0.065263674 -0.11191039 4292499802
-0.30231223 0.06768249 -0.1130155 4292299857
-0.30273676 0.069847666 -0.11342448 4292101964
-0.30316281 0.072020687 -0.11383478 4291906893
-0.30431065 0.07476154 -0.11566466 4291581269
-0.30547068 0.077531785 -0.11751395 4291457641
-0.3030901 0.022717653 -0.12961507 4290820010
-0.30243626 0.024254974 -0.12783632 4291017899
-0.30214596 0.025977449 -0.12680392 4291347117
-0.3007873 0.027100947 -0.12359083 4291282097
-0.29944763 0.028209047 -0.12042256 4291216048
-0.29812652 0.02930204 -0.11729816 4291215534
-0.29716465 0.030578896 -0.11491112 4291675572
-0.2962127 0.031842861 -0.11254858 4291018678
-0.29560596 0.033295691 -0.11089179 4291084984
-0.29533774 0.034942932 -0.10992497 4291282361
-0.295405 0.036791973 -0.10963971 4291282620
-0.29547229 0.038641289 -0.10935438 4291282621
-0.29587546 0.040705081 -0.10974866 4291479484
-0.29628009 0.042776197 -0.11014424 4291479743
-0.29668605 0.044854671 -0.11054107 4291545535
-0.29675367 0.046714608 -0.11025412 4291677378
-0.29682136 0.048574816 -0.10996712 4291808966
-0.29722902 0.050667696 -0.11036426 4291874759
-0.29695675 0.052296057 -0.10939299 4291940552
-0.29736465 0.054395862 -0.10978907 4292071881
-0.29777396 0.05650318 -0.11018645 4292071879
-0.29818466 0.058618002 -0.11058512 4292202181
-0.29859683 0.060740426 -0.11098517 4292458668
-0.29935697 0.063126415 -0.11207961 4292106856
-0.30047277 0.065791212 -0.11388143 4292104279
-0.3012462 0.068216302 -0.11499549 4292168782
-0.30202502 0.070658661 -0.11611731 4292037198
-0.30280936 0.073118508 -0.11724696 4291646294
-0.30396131 0.075879946 -0.11910477 4291655022
-0.30200678 0.023176894 -0.13166191 4290488986
-0.30135557 0.024715524 -0.12987286 4290880668
-0.30106655 0.026440414 -0.12883504 4291267717
-0.29971302 0.027562825 -0.12560208 4291008144
-0.29872751 0.028868562 -0.12313394 4290878357
-0.29706234 0.029761737 -0.11927072 4290879897
-0.29644519 0.031239012 -0.11757077 4291409066
-0.295156 0.032302536 -0.11449278 4291083185
-0.29455173 0.033756498 -0.11282658 4291084985
-0.29428479 0.035405941 -0.11185484 4291216314
-0.29401875 0.03705002 -0.11088642 4291216831
-0.29441938 0.039110992 -0.1112834 4291282880
-0.29482135 0.041179314 -0.11168174 4291479998
-0.2952247 0.043254986 -0.11208131 4291611327
-0.29596785 0.045562077 -0.11317246 4291611328
-0.29603568 0.047428593 -0.11288458 4291743171
-0.29576483 0.049064975 -0.11190749 4291874502
-0.29617128 0.051162485 -0.11230871 4291940296
-0.29556257 0.052556947 -0.11064665 4292006088
-0.295968 0.054657388 -0.11104494 4292136902
-0.29603571 0.056522083 -0.11075734 4292268229
-0.29644263 0.058633529 -0.11115643 4292266689
-0.29685095 0.060752492 -0.11155681 4292062373
-0.29794782 0.063390985 -0.11334663 4292300120
-0.29905617 0.066057347 -0.11515513 4292102478
-0.30017614 0.068752021 -0.11698262 4292102732
-0.30095252 0.071200788 -0.11811347 4291776081
-0.30209246 0.073947079 -0.11997268 4291651688
-0.29962674 0.026707005 -0.13013008 4290927710
-0.29863465 0.028026415 -0.12762068 4290665057
-0.29765302 0.029332198 -0.12513767 4290469479
-0.29633731 0.030423477 -0.12196419 4290472048
-0.29537955 0.031701487 -0.11954062 4290936966
-0.2940954 0.032763861 -0.11644389 4290946714
-0.2928288 0.033811972 -0.11338945 4291084471
-0.29256517 0.035458695 -0.1124185 4291282108
-0.29263222 0.037308108 -0.11213336 4291283136
-0.29269931 0.039157819 -0.11184817 4291348673
-0.29342991 0.041438684 -0.11293308 4291610815
-0.29383075 0.043514956 -0.11333487 4291742144
-0.29490614 0.046048377 -0.11512508 4291742402
-0.29463673 0.047689859 -0.11414258 4291873988
-0.29470444 0.049556851 -0.11385474 4292005574
-0.29443583 0.051190037 -0.11287598 4291939782
-0.29416814 0.052817881 -0.11190054 4292071109
-0.29423565 0.054679308 -0.11161354 4292136902
-0.29463869 0.056783862 -0.11201353 4292333251
-0.29470634 0.058648996 -0.11172596 4292592567
-0.29544893 0.06101555 -0.11281744 4291917959
-0.29688132 0.06391336 -0.11531378 4292234832
-0.29833373 0.066852011 -0.11784498 4291972174
-0.29980659 0.069832273 -0.12041175 4291906898
-0.30058566 0.072298028 -0.12156082 4291582822
-0.30172962 0.075065017 -0.12344833 4291594368
-0.29818666 0.026973667 -0.13142535 4290666074
-0.29720208 0.028291833 -0.12890917 4291053898
-0.2962279 0.029596403 -0.12641944 4290987593
-0.29492202 0.030686034 -0.12323711 4290987852
-0.29397154 0.031962894 -0.12080698 4291250259
-0.29170215 0.032418352 -0.11561494 4291000690
-0.29111153 0.033867303 -0.11395064 4291276451
-0.29085118 0.035511333 -0.11298051 4291411896
-0.29091805 0.0373578 -0.11269591 4291479998
-0.2909849 0.039204519 -0.11241127 4291480255
-0.29203817 0.041698068 -0.11418466 4291676606
-0.29276887 0.043995947 -0.1152813 4291742145
-0.2938405 0.046536423 -0.11708474 4291742916
-0.29390836 0.048409756 -0.11679599 4291874502
-0.29364008 0.050050456 -0.1158089 4291940038
-0.29337275 0.05168581 -0.11482521 4292005831
-0.29310635 0.053315807 -0.11384483 4292005830
-0.29317391 0.055180591 -0.11355739 4292071622
-0.29324141 0.057045661 -0.11326994 4292135875
-0.29330894 0.058911007 -0.11298244 4292196272
-0.29506058 0.062038209 -0.11617148 4291910517
-0.29684287 0.065220378 -0.11941627 4291776357
-0.29830512 0.068189085 -0.12199424 4291647332
-0.29978815 0.071200199 -0.12460873 4291783530
-0.30093181 0.073971085 -0.12651941 4291528068
-0.29576927 0.028557319 -0.1301979 4290795604
-0.29480255 0.029860687 -0.12770145 4291055182
-0.29216072 0.030147575 -0.12165204 4291185224
-0.29090065 0.031218909 -0.11854628 4291315785
-0.28998369 0.032476041 -0.11617344 4291316305
-0.28972468 0.034125142 -0.1151979 4291195503
-0.28946662 0.035768904 -0.11422571 4291402911
-0.28985843 0.037824471 -0.11462791 4291871927
-0.29025164 0.039887324 -0.1150315 4291808446
-0.29130468 0.04239314 -0.11682454 4291676864
-0.29236859 0.044925217 -0.11863611 4291742402
-0.29344362 0.047483951 -0.12046653 4291873988
-0.29384997 0.049600594 -0.12088713 4291940037
-0.29357985 0.051250834 -0.11988612 4291940550
-0.29331064 0.052895613 -0.11888856 4291940294
-0.29304242 0.054535005 -0.11789448 4292005574
-0.29311034 0.056412876 -0.11760512 4292071366
-0.29317823 0.05829104 -0.11731575 4292135872
-0.29324615 0.060169514 -0.11702631 4292328882
-0.29466793 0.063071594 -0.11956079 4292317586
-0.29645604 0.066279821 -0.12285258 4291923602
-0.29792324 0.069272026 -0.12546863 4291727504
-0.29941136 0.07230714 -0.12812191 4291597449
-0.29202259 0.029324066 -0.12607431 4290408033
-0.29075471 0.030408459 -0.1229166 4290861144
-0.28950423 0.031478148 -0.1198022 4291054419
-0.28859434 0.032734141 -0.11742298 4291315535
-0.28833759 0.034382988 -0.11644541 4291512655
-0.28808177 0.0360265 -0.11547117 4291778915
