# .PCD v0.7 - Point Cloud Data file format
VERSION 0.7
FIELDS x y z rgba
SIZE 4 4 4 4
TYPE F F F U
COUNT 1 1 1 1
WIDTH 1021
HEIGHT 1
VIEWPOINT 0 0 0 1 0 0 0
POINTS 1021
DATA ascii
-0.34873915 0.04250101 -0.1183215 4290404697
-0.34797287 0.044405945 -0.11831419 4290674270
-0.33418608 0.067563549 -0.11018685 4291197032
-0.3330878 0.069409385 -0.10954023 4291059541
-0.33199704 0.071242899 -0.10889814 4291187018
-0.33091354 0.07306423 -0.10826049 4291322453
-0.34681049 0.04023448 -0.11740885 4290468944
-0.34562311 0.042249218 -0.11670894 4290268227
-0.3444441 0.044249978 -0.11601407 4290341206
-0.33309454 0.063518859 -0.10933196 4291326824
-0.33200189 0.065374918 -0.10868934 4291187537
-0.33168447 0.067087851 -0.1093512 4291250498
-0.33060017 0.068926014 -0.10871084 4291249982
-0.32952324 0.070751958 -0.10807496 4291315261
-0.32807821 0.072621457 -0.10680213 4291315521
-0.32664764 0.074472383 -0.10554221 4291255376
-0.34489554 0.03798395 -0.11650278 4290469715
-0.34414133 0.03988307 -0.11649882 4290333760
-0.34296954 0.041888479 -0.115806 4290332736
-0.34180593 0.043880049 -0.11511809 4290338903
-0.33091968 0.061354671 -0.10784132 4291061080
-0.32983986 0.063208476 -0.10720703 4291185220
-0.32952398 0.064912543 -0.10786556 4291184191
-0.32882962 0.066682838 -0.1078778 4291315261
-0.32813752 0.068447426 -0.10789004 4291380540
-0.32707417 0.070265852 -0.10726029 4291446077
-0.32601786 0.072072349 -0.1066348 4291446078
-0.32460231 0.073919974 -0.10538006 4291446592
-0.32356295 0.075699754 -0.10476628 4291318600
-0.32289088 0.077421255 -0.10478397 4291261024
-0.34426165 0.035376396 -0.1176802 4290472796
-0.3430852 0.037404515 -0.1169806 4290334275
-0.34191707 0.039418519 -0.11628613 4290267198
-0.34075707 0.041418627 -0.11559657 4290466894
-0.33960521 0.043404959 -0.114912 4290740334
-0.33805484 0.045482744 -0.11355561 4291145092
-0.33652055 0.047539167 -0.11221348 4291278216
-0.33500215 0.049574509 -0.11088531 4291278473
-0.33310834 0.051681779 -0.10891388 4291344011
-0.3312403 0.053760558 -0.10696947 4291344009
-0.32977691 0.055727094 -0.105693 4291409543
-0.32908222 0.057511766 -0.10570857 4291407746
-0.32838979 0.059290707 -0.10572414 4291000932
-0.32769966 0.061063863 -0.10573977 4290858824
-0.32701185 0.062831283 -0.10575548 4291052863
-0.32669801 0.064523995 -0.10640971 4291183677
-0.32638407 0.066216961 -0.10706403 4291314492
-0.3260701 0.067910187 -0.10771846 4291379771
-0.32501709 0.069724426 -0.10709148 4291380284
-0.32397112 0.071526781 -0.10646886 4291380797
-0.32257035 0.07337109 -0.10521925 4291446077
-0.32154107 0.075146921 -0.10460817 4291512126
-0.32087445 0.076863736 -0.10462622 4291447363
-0.32020998 0.078575134 -0.10464426 4291321946
-0.34202901 0.034925841 -0.11746241 4290271561
-0.34086454 0.03694848 -0.11676627 4290071361
-0.33970818 0.038957126 -0.11607507 4290269514
-0.33896944 0.040838316 -0.11607233 4290739306
-0.33782572 0.04282333 -0.1153874 4290882439
-0.3362872 0.044900663 -0.11403104 4291016332
-0.33476466 0.046956629 -0.1126889 4291147403
-0.33286586 0.049089015 -0.11069835 4291147403
-0.33060828 0.051285364 -0.10808278 4291213197
-0.32876655 0.053356368 -0.10615399 4291278989
-0.3269496 0.055399746 -0.10425128 4291410061
-0.3262642 0.057173084 -0.10426927 4291607180
-0.32558101 0.058940757 -0.10428728 4291270522
-0.32490012 0.060702711 -0.10430542 4290993491
-0.32458776 0.062386762 -0.10495641 4291052862
-0.32427534 0.064071089 -0.10560749 4291249470
-0.32396287 0.06575565 -0.10625868 4291445822
-0.32328564 0.067504264 -0.10627378 4291446079
-0.32261059 0.069247305 -0.10628895 4291445822
-0.3215777 0.071042351 -0.10567224 4291445566
-0.32055166 0.072825752 -0.10505969 4291380285
-0.31953228 0.07459759 -0.10445125 4291380283
-0.31887108 0.076309778 -0.10446966 4291445565
-0.31821197 0.078016534 -0.10448809 4291314242
-0.31755501 0.079717919 -0.10450652 4291189848
-0.341391 0.032317173 -0.11863951 4290341210
-0.33981201 0.03447834 -0.11724641 4290137411
-0.33865926 0.036495551 -0.11655357 4290007114
-0.33751458 0.03849886 -0.11586575 4290344551
-0.3367821 0.04037438 -0.11586351 4290881669
-0.33605218 0.042243611 -0.1158614 4290885004
-0.33412793 0.044426821 -0.11383144 4290820237
-0.33262169 0.046478283 -0.11249509 4291016589
-0.33113095 0.048508819 -0.11117267 4291082381
-0.32889187 0.050706435 -0.10855769 4291148173
-0.32669052 0.052867226 -0.10598693 4291213453
-0.32489344 0.054907124 -0.10409185 4291410318
-0.32384801 0.056757256 -0.10347877 4291542160
-0.32280949 0.05859533 -0.10286987 4291538573
-0.32213759 0.060346253 -0.10289031 4291327078
-0.32182717 0.062019221 -0.10353711 4291251012
-0.32151672 0.063692421 -0.10418399 4291446847
-0.32120621 0.065365873 -0.10483097 4291577664
-0.32053789 0.067103624 -0.1048485 4291577664
-0.32022783 0.068774812 -0.1054946 4291577409
-0.31920785 0.070562609 -0.10488373 4291511873
-0.31819454 0.072338872 -0.10427694 4291511615
-0.31788635 0.073999725 -0.10491905 4291576124
-0.31722879 0.07571017 -0.10493679 4291510333
-0.31657338 0.07741522 -0.10495453 4291314496
-0.31626606 0.079071358 -0.10559483 4291186762
-0.33917218 0.031877872 -0.11841903 4290271307
-0.33761027 0.034033861 -0.11703211 4290268228
-0.33687508 0.035923425 -0.11702777 4290276700
-0.33573848 0.037925337 -0.11633961 4290684545
-0.33501029 0.039798707 -0.11633674 4290885004
-0.33428457 0.041665792 -0.11633392 4290950798
-0.3327696 0.043742124 -0.11497764 4290885519
-0.33127028 0.04579724 -0.11363551 4291016847
-0.32940173 0.04793049 -0.11164554 4291017102
-0.32718104 0.050129395 -0.10903112 4291083151
-0.32499769 0.052291501 -0.10646087 4291214224
-0.32285088 0.054417677 -0.10393374 4291345297
-0.32145575 0.056345485 -0.10269635 4291542163
-0.32043019 0.058175858 -0.1020932 4291870355
-0.31976545 0.05991888 -0.10211498 4291402107
-0.31910285 0.061656408 -0.10213675 4291124820
-0.31879431 0.063318662 -0.10277951 4291446594
-0.31848574 0.064981148 -0.10342236 4291578178
-0.31782624 0.066708162 -0.10344227 4291577921
-0.31751809 0.068368398 -0.10408423 4291643457
-0.31686115 0.070087492 -0.1041032 4291709248
-0.31586042 0.071856655 -0.10350213 4291774271
-0.31589904 0.073456682 -0.10476232 4291707964
-0.31524682 0.075162478 -0.10478041 4291642428
-0.31493995 0.076815754 -0.10541969 4291380288
-0.31463304 0.078469276 -0.10605907 4291122004
-0.31505114 0.081659131 -0.10922345 4291478173
-0.31508833 0.083284743 -0.11049993 4291476888
-0.31547323 0.084881693 -0.11241973 4291477146
-0.31691572 0.086393647 -0.1162981 4291411096
-0.31874198 0.087901525 -0.12090711 4291736974
-0.33977595 0.028859923 -0.12169793 4290538075
-0.33737761 0.03131054 -0.11889237 4290138440
-0.33582783 0.033465847 -0.11750554 4290336590
-0.33469483 0.035476215 -0.11681575 4290680434
-0.33396837 0.037353713 -0.11681207 4290818698
-0.33324438 0.039224897 -0.11680847 4290819470
-0.33252287 0.041089837 -0.11680499 4290885264
-0.33101958 0.043165702 -0.11544876 4290951312
-0.32953176 0.04522036 -0.11410666 4291148432
-0.32805923 0.047254108 -0.11277846 4291148687
-0.32547578 0.04955418 -0.10950318 4291214737
-0.32331038 0.051717583 -0.10693346 4291411860
-0.32046348 0.054017328 -0.10314912 4291477141
-0.319087 0.055937652 -0.10192191 4291608470
-0.31772405 0.05783926 -0.10070691 4291870871
-0.31706801 0.059571467 -0.10073095 4291670417
-0.31641409 0.061298229 -0.10075506 4291458922
-0.31576228 0.063019566 -0.10077912 4291512645
-0.31545609 0.064668559 -0.10141684 4291578179
-0.31480679 0.066382058 -0.10143998 4291644741
-0.31450105 0.068028823 -0.10207684 4291578435
-0.31419525 0.069675811 -0.10271379 4291642943
-0.31354895 0.071379051 -0.10273509 4291774014
-0.31358346 0.072970539 -0.10398798 4291773759
-0.31327754 0.074618272 -0.10462522 4291642944
-0.31331164 0.076218158 -0.10588348 4291446853
-0.31300509 0.077869065 -0.10652195 4291256418
-0.31337991 0.079434447 -0.10841268 4291671954
-0.31341422 0.081050903 -0.10968369 4291609246
-0.31379217 0.082635038 -0.11159444 4291608732
-0.31382722 0.084265314 -0.11287723 4291674523
-0.31490391 0.085802764 -0.11610271 4291608477
-0.3170597 0.087268829 -0.12135907 4291608219
-0.31963229 0.088741414 -0.12742537 4291868562
-0.33796746 0.028293654 -0.12216888 4290339670
-0.3351841 0.030876845 -0.11867253 4290205775
-0.33365113 0.033027016 -0.11729189 4290344290
-0.33292639 0.034908626 -0.11728744 4290619270
-0.33180925 0.03690384 -0.11660223 4290950285
-0.33148438 0.038652986 -0.11727878 4290950798
-0.3307671 0.040515766 -0.11727469 4291017104
-0.32927537 0.042591132 -0.11591852 4291083409
-0.32818219 0.044540238 -0.11524551 4291346323
-0.32671645 0.046577588 -0.1139116 4291411604
-0.32414654 0.048884679 -0.11062493 4291543191
-0.32199225 0.051053807 -0.10804589 4291740312
-0.31880569 0.053448182 -0.10362122 4291675033
-0.31708992 0.05545114 -0.10177357 4291674522
-0.31539661 0.057428066 -0.099950202 4291805080
-0.31440562 0.059228465 -0.099365272 4292067478
-0.31376019 0.060944624 -0.099391542 4291863679
-0.31311682 0.062655427 -0.099417798 4291520857
-0.31281251 0.064293772 -0.10005151 4291645261
-0.31217161 0.065996841 -0.10007684 4291711566
-0.31186771 0.067632996 -0.1007097 4291908172
-0.31156379 0.069269367 -0.10134265 4291775813
-0.31092587 0.070962332 -0.1013662 4291643714
-0.31129032 0.072489046 -0.10322141 4291511874
-0.31132093 0.07407748 -0.10447126 4291511620
-0.31168836 0.075622387 -0.10634595 4291447626
-0.3113822 0.077270694 -0.10698352 4291327593
-0.31175101 0.078831643 -0.10887285 4291806622
-0.31178242 0.080444552 -0.1101426 4291806110
-0.31215426 0.082024172 -0.1120519 4291740318
-0.31252855 0.083614513 -0.1139739 4291674271
-0.31359646 0.085147731 -0.11720682 4291740063
-0.31538284 0.086638168 -0.12180977 4291740064
-0.31829107 0.088069819 -0.12855808 4291871649
-0.32745445 0.089087844 -0.14720371 4292131737
-0.33740059 0.027312133 -0.12476055 4290214249
-0.33420926 0.030048458 -0.12052835 4290347370
-0.33228081 0.032335393 -0.11844803 4290684028
-0.33116391 0.034342907 -0.11775765 4290687884
-0.33044586 0.036216058 -0.1177526 4290884749
-0.3297303 0.03808292 -0.11774773 4291016846
-0.32901713 0.03994358 -0.11774291 4291083410
-0.327921 0.041908421 -0.11706137 4291280788
-0.32645148 0.043966245 -0.11571354 4291478166
-0.32499707 0.046003163 -0.11437965 4291674778
-0.32244885 0.048312292 -0.11109389 4291806364
-0.32031229 0.050482713 -0.1085154 4291872154
-0.3175047 0.052793201 -0.10471921 4291806107
-0.31579739 0.054800592 -0.10286444 4291740572
-0.31377104 0.056861799 -0.10042106 4291806108
-0.31278688 0.058661178 -0.099835686 4292134558
-0.31214499 0.060375601 -0.099861287 4292198811
-0.31150517 0.062084641 -0.099886879 4292127880
-0.31086743 0.063788399 -0.099912554 4292647028
-0.31023163 0.065486871 -0.099938154 4292708720
-0.3099286 0.067117818 -0.1005691 4292112232
-0.30962551 0.068749018 -0.10120013 4291516255
-0.30899265 0.070437416 -0.10122392 4291578964
-0.30934957 0.071957566 -0.10307284 4291643722
-0.30937675 0.073540099 -0.10431848 4291708486
-0.30973655 0.075078309 -0.10618675 4291448916
-0.31009868 0.07662683 -0.10806727 4291926908
-0.31046316 0.078185759 -0.10996028 4291807396
-0.31049231 0.0797977 -0.11123198 4291806626
-0.31085977 0.081375308 -0.11314502 4291871905
-0.31088963 0.083001018 -0.11442848 4291805859
-0.31194475 0.084527701 -0.1176592 4291871139
-0.31371135 0.086009458 -0.12225912 4291805859
-0.31551388 0.087521687 -0.12695284 4291872165
-0.32565984 0.088416927 -0.1476353 4292330911
-0.33091024 0.031643644 -0.11960436 4290556041
-0.3294073 0.033779021 -0.11822644 4290687885
-0.32830602 0.03577143 -0.1175407 4290950799
-0.32759649 0.037632704 -0.1175363 4291083156
-0.3268894 0.039487835 -0.11753207 4291281047
-0.3258042 0.041447591 -0.11685369 4291478680
-0.32435051 0.0435008 -0.11551169 4291675290
-0.32328323 0.045430608 -0.11484627 4291806621
-0.32075664 0.047741745 -0.1115615 4291806878
-0.31899586 0.049819816 -0.10962638 4291872413
-0.31620347 0.05213812 -0.1058174 4291937949
-0.31450462 0.054149937 -0.10395552 4291872159
-0.31248873 0.056216575 -0.10150335 4291871904
-0.31150866 0.058018181 -0.10091458 4291937952
-0.31086874 0.05973373 -0.10093855 4291938206
-0.30989859 0.061515607 -0.10035469 4292002973
-0.3092643 0.06321761 -0.10037962 4292265633
-0.30863202 0.064914376 -0.1004046 4292528550
-0.30800179 0.066605881 -0.10042962 4292593315
-0.30769956 0.068231873 -0.10105874 4292523672
-0.30707172 0.069915794 -0.10108279 4292583044
-0.30742109 0.071429446 -0.10292538 4292378222
-0.30744496 0.073006079 -0.10416692 4291649887
-0.30812663 0.074487075 -0.10664684 4291452781
-0.30848277 0.076031215 -0.108526 4292262038
-0.30917501 0.077539742 -0.11104794 4292003493
-0.30920193 0.079150744 -0.11232156 4291871908
-0.30956504 0.080726303 -0.11423832 4292003235
-0.3092559 0.082389422 -0.11488181 4291872166
-0.30995876 0.083945587 -0.11746085 4291937190
-0.31101099 0.085484013 -0.12072279 4291871911
-0.31242502 0.087012164 -0.12469799 4291872167
-0.31636864 0.088361651 -0.13357872 4292199842
-0.32628736 0.089340374 -0.15408586 4292061588
-0.32804352 0.033090863 -0.11937709 4290622863
-0.32656312 0.035207987 -0.11800777 4291017619
-0.32547718 0.037185505 -0.11732657 4291346070
-0.32477602 0.039035082 -0.11732282 4291675545
-0.32370177 0.04098976 -0.11664769 4291807644
-0.32226369 0.043038439 -0.11531147 4291938718
-0.32120702 0.044963337 -0.11464916 4291873185
-0.31906989 0.047172997 -0.1120277 4291807651
-0.31732324 0.049251508 -0.11009282 4291872930
-0.31455484 0.051572658 -0.10628495 4292069538
-0.31286952 0.053584993 -0.10442316 4291938467
-0.31120619 0.055571225 -0.10258584 4291873959
-0.31023017 0.057375036 -0.10199369 4291939494
-0.30959222 0.059091724 -0.10201603 4292135588
-0.30862612 0.060875796 -0.10142879 4292201382
-0.30766615 0.062648572 -0.1008454 4292267177
-0.30703738 0.064343579 -0.10086976 4292464299
-0.3067351 0.06596946 -0.10149892 4292530090
-0.30610874 0.06765689 -0.10152231 4292529577
-0.30548432 0.069339111 -0.10154574 4292528293
-0.30550489 0.070904598 -0.10277911 4292591774
-0.30584905 0.072421797 -0.10462739 4292259731
-0.30619544 0.073949084 -0.10648783 4291992719
-0.30687189 0.075437434 -0.10898336 4292396708
-0.30722433 0.076987602 -0.11087342 4292200616
-0.30757907 0.078548141 -0.11277603 4292003751
-0.30760318 0.080161154 -0.11405274 4292003751
-0.30762735 0.081779703 -0.1153338 4291872681
-0.30832079 0.083330385 -0.11791096 4292003497
-0.30902112 0.084896751 -0.12051394 4291938218
-0.31007043 0.086447082 -0.12380753 4291937961
-0.31538016 0.08765547 -0.13542068 4292068774
-0.32252678 0.088813752 -0.15069479 4292195740
-0.32629493 0.032529864 -0.11984273 4290755218
-0.32444727 0.034768913 -0.11779649 4291149461
-0.32299796 0.036859527 -0.11644734 4291346840
-0.32193339 0.038814828 -0.11577757 4291741597
-0.320876 0.040757034 -0.11511239 4292135583
-0.31982577 0.042686272 -0.1144519 4292135331
-0.31842181 0.044705871 -0.11314065 4292004260
-0.31703195 0.046705347 -0.11184275 4292004003
-0.3153047 0.048780147 -0.10991572 4291938210
-0.31291139 0.051008951 -0.1067511 4292069795
-0.31123951 0.053021785 -0.10488944 4292071079
-0.30992341 0.054925773 -0.10366853 4292005544
-0.30895144 0.056731768 -0.10307298 4292070313
-0.30831546 0.05844963 -0.1030937 4292201643
-0.30702627 0.060309406 -0.10189368 4292201644
-0.30639741 0.062010832 -0.10191637 4292201902
-0.30577058 0.063706964 -0.10193913 4292333743
-0.30514568 0.065397896 -0.10196186 4292661679
-0.30484372 0.067021497 -0.10259024 4292858288
-0.30422124 0.068704851 -0.10261208 4292727214
-0.30423966 0.070269413 -0.1038473 4292595885
-0.30457959 0.071784683 -0.10569918 4292463788
-0.30492175 0.07330998 -0.10756323 4292199333
-0.30559182 0.074795321 -0.11006418 4292004521
-0.30593994 0.076343454 -0.1119579 4292266925
-0.30596125 0.077947408 -0.11322918 4292069803
-0.30631223 0.079514071 -0.11514284 4292004266
-0.30633414 0.081131674 -0.11642584 4291938730
-0.30668801 0.082717098 -0.11835976 4292004268
-0.30737889 0.084277928 -0.1209608 4292004269
-0.30807665 0.08585462 -0.12358798 4292135084
-0.3098096 0.087355651 -0.12826401 4292134825
-0.31263635 0.088801757 -0.13512418 4292264098
-0.32341734 0.032352217 -0.11826642 4290821015
-0.32160199 0.034577198 -0.1162452 4291281050
-0.31971654 0.036594208 -0.11429759 4291347358
-0.31867036 0.038533282 -0.11364297 4291610273
-0.31799072 0.040348843 -0.11364791 4291938466
-0.3165991 0.042372897 -0.11234728 4292004259
-0.31557387 0.044273701 -0.11170616 4291873188
-0.31420594 0.04626165 -0.11042637 4291938980
-0.31285164 0.048229977 -0.10915945 4291938978
-0.31049287 0.050453499 -0.10602032 4291938980
-0.3095111 0.052285079 -0.10541507 4292069799
-0.308204 0.05418922 -0.10419577 4292135592
-0.30723754 0.055994194 -0.10360153 4292267436
-0.30660367 0.057709709 -0.10362343 4292333230
-0.30564702 0.059494972 -0.10303418 4292398766
-0.30501872 0.061196975 -0.10305708 4292398767
-0.30439243 0.062893733 -0.10308006 4292530865
-0.30408829 0.064518817 -0.10371137 4292793266
-0.30346438 0.06620796 -0.10373338 4292924082
-0.30316067 0.067830868 -0.10436384 4292858802
-0.30285689 0.069454037 -0.10499442 4292661938
-0.30319056 0.070965312 -0.10685189 4292530098
-0.30384827 0.072432622 -0.10934297 4292398512
-0.30418783 0.073966429 -0.11123003 4292004781
-0.30420446 0.075559877 -0.11249782 4292397998
-0.30454677 0.077111974 -0.11440464 4292201133
-0.30456397 0.07871893 -0.11568408 4292070060
-0.30458117 0.080331445 -0.11696777 4292070061
-0.30492684 0.08191026 -0.11890225 4292070062
-0.30527475 0.083499767 -0.12084963 4292070064
-0.30595782 0.08506579 -0.1234694 4292201135
-0.30732244 0.086583778 -0.1274564 4292200877
-0.30974662 0.088037908 -0.13357724 4292200874
-0.31117406 0.089615718 -0.13774005 4292197021
-0.32085603 0.031869903 -0.11742312 4290820501
-0.31870213 0.0342087 -0.11475786 4291281054
-0.31694159 0.036391132 -0.11279016 4291413152
-0.31555763 0.038431387 -0.11149602 4291544226
-0.31488878 0.040231962 -0.11150467 4291741349
-0.31352425 0.042239781 -0.11022583 4291872677
-0.31286317 0.044022493 -0.11023673 4291873188
-0.31151772 0.045998562 -0.10897288 4291610787
-0.31018555 0.047955282 -0.10772169 4291608994
-0.30853271 0.049984623 -0.10585906 4291870885
-0.30756038 0.051811811 -0.10525642 4292069032
-0.3065944 0.053627346 -0.10465785 4292201130
-0.30596048 0.055349402 -0.1046781 4292267435
-0.30532855 0.057066061 -0.1046984 4292333486
-0.30469868 0.058777425 -0.10471877 4292399792
-0.30439305 0.060410026 -0.10535311 4292465073
-0.30376557 0.06211365 -0.10537249 4292727987
-0.30346033 0.063744105 -0.10600598 4292793780
-0.30283532 0.065440059 -0.1060245 4292794038
-0.3025305 0.067068338 -0.10665715 4292859831
-0.30222562 0.068696879 -0.10728989 4292794295
-0.30255824 0.070210688 -0.10916104 4292596150
-0.30257207 0.071789891 -0.11041918 4292464822
-0.30290735 0.073321715 -0.11230987 4292398769
-0.30292177 0.074914202 -0.11357957 4292397997
-0.30261368 0.076559924 -0.11421899 4292398255
-0.3026275 0.07816083 -0.11549402 4292266927
-0.30264139 0.079767205 -0.11677337 4292266928
-0.30265525 0.081379123 -0.11805705 4292201393
-0.30266908 0.082996584 -0.11934497 4292136114
-0.30333459 0.084549859 -0.1219401 4292201649
-0.30400667 0.086118869 -0.12456119 4292201135
-0.3060241 0.087582693 -0.12990226 4292135598
-0.30808949 0.08908163 -0.13537058 4292135338
-0.31091148 0.090564758 -0.14240234 4292067487
-0.3184129 0.031570472 -0.11654696 4291148179
-0.31557858 0.034142662 -0.11259411 4291346848
-0.31385365 0.036307331 -0.11065758 4291413156
-0.31284264 0.038218383 -0.11002531 4291543972
-0.3118383 0.040116914 -0.10939734 4291610021
-0.31084055 0.042003091 -0.1087736 4291676069
-0.30984944 0.043877028 -0.10815413 4291741604
-0.30852982 0.045837641 -0.10691113 4291740579
-0.3075543 0.047684096 -0.10630306 4291673766
-0.3065851 0.04951869 -0.10569901 4291871145
-0.30594912 0.051252678 -0.10571763 4292135595
-0.30498981 0.053067163 -0.10511861 4292201901
-0.30468318 0.054704487 -0.10575487 4292267694
-0.30437648 0.056341998 -0.10639123 4292333745
-0.303747 0.058057427 -0.10640896 4292399792
-0.30376303 0.059617825 -0.10766419 4292530865
-0.30345622 0.061256092 -0.10830082 4292662453
-0.30314937 0.062894583 -0.10893754 4292794295
-0.30252168 0.064600319 -0.10895152 4292794553
-0.30221525 0.066236645 -0.10958738 4292794554
-0.30190876 0.067873195 -0.11022335 4292860345
-0.30160221 0.069509998 -0.11085942 4292662714
-0.30161443 0.071090735 -0.11212255 4292531131
-0.30162665 0.072676875 -0.11338992 4292530615
-0.30131894 0.07431975 -0.11402834 4292201905
-0.30101123 0.075962856 -0.11466685 4292530614
-0.3007035 0.077606209 -0.11530545 4292464051
-0.30071405 0.079206556 -0.11658046 4292398003
-0.30072457 0.080812387 -0.11785969 4292332723
-0.30073509 0.082423709 -0.11914326 4292267698
-0.30106664 0.084004916 -0.12107897 4292332978
-0.3020488 0.085530169 -0.12434047 4292332465
-0.30304402 0.087075986 -0.12764555 4292266415
-0.30539364 0.088527426 -0.13372794 4292265899
-0.30850264 0.089964911 -0.14139785 4292067747
-0.31250715 0.034077596 -0.11046686 4290949272
-0.31115898 0.036108959 -0.10919747 4291411871
-0.3098242 0.03812037 -0.1079408 4291740832
-0.30917454 0.039894834 -0.10795548 4291872930
-0.30785826 0.041874785 -0.10671341 4291938980
-0.30688491 0.04373385 -0.10610594 4291938727
-0.30591789 0.045580983 -0.10550248 4291938471
-0.30495715 0.0474163 -0.10490309 4291872423
-0.30432576 0.049147949 -0.10492294 4292003497
-0.30401909 0.050784867 -0.10555916 4292135341
-0.3037124 0.052422021 -0.10619546 4292201646
-0.30340564 0.054059446 -0.10683185 4292267440
-0.30309886 0.055697072 -0.10746831 4292333490
-0.30279204 0.057334971 -0.10810489 4292465074
-0.30280641 0.058896817 -0.10936509 4292596403
-0.30282074 0.060464025 -0.1106295 4292662198
-0.30283511 0.06203663 -0.11189809 4292794040
-0.30220476 0.063752197 -0.11190747 4292794555
-0.30189669 0.065396644 -0.11254659 4292729276
-0.30158857 0.067041337 -0.11318582 4292860090
-0.30096114 0.068746693 -0.11319333 4292663229
-0.30033571 0.07044673 -0.11320089 4292662717
-0.30034569 0.072031908 -0.11447016 4292662202
-0.30003789 0.073674887 -0.11510871 4292267959
-0.2994138 0.075367637 -0.11511345 4292662459
-0.29910642 0.077008419 -0.11575115 4292595896
-0.29879901 0.078649431 -0.11638895 4292464052
-0.29880628 0.080249205 -0.11766386 4292398258
-0.29881352 0.081854463 -0.11894306 4292463795
-0.2988207 0.083465204 -0.12022648 4292464051
-0.29946363 0.085013583 -0.12281352 4292332466
-0.30075818 0.086514056 -0.1267494 4292200880
-0.30306515 0.087950706 -0.13278919 4292200364
-0.30680624 0.089314997 -0.14182366 4292067748
-0.31360033 0.030980345 -0.11482195 4290143582
-0.31085053 0.033533838 -0.11092924 4290536027
-0.30883631 0.035797328 -0.10838908 4291129189
-0.30751947 0.037800428 -0.10714275 4291393900
-0.30654562 0.039675593 -0.10653277 4291069048
-0.30557808 0.041538671 -0.10592693 4290811272
-0.30461684 0.043389823 -0.10532513 4291142293
-0.30366179 0.045229178 -0.10472731 4291407514
-0.30271295 0.047056798 -0.10413351 4291673503
-0.30208817 0.048780706 -0.10415463 4292069801
-0.30210143 0.050319977 -0.10540196 4292135598
-0.3017956 0.051951934 -0.10603634 4292201134
-0.30148971 0.053584121 -0.1066708 4292267183
-0.30118379 0.05521654 -0.10730536 4292399025
-0.30119541 0.05676974 -0.10856012 4292399540
-0.30120701 0.058328252 -0.10981915 4292530869
-0.30121863 0.059892081 -0.11108236 4292596920
-0.30155045 0.061388824 -0.11298124 4292727993
-0.3009221 0.063105561 -0.11298898 4292728763
-0.30093312 0.064683042 -0.11426176 4292729276
-0.30062437 0.06633053 -0.11490217 4292925372
-0.30031559 0.06797827 -0.11554267 4292794303
-0.29968905 0.069685228 -0.11554661 4292859839
-0.29906449 0.071386851 -0.11555059 4292793787
-0.29844192 0.073083177 -0.11555465 4292595381
-0.29782134 0.074774206 -0.11555878 4292725172
-0.29720274 0.076460011 -0.11556307 4292660150
-0.2972073 0.078050904 -0.11683248 4292660403
-0.29690018 0.079689607 -0.11746948 4292595122
-0.29690418 0.081288792 -0.11874432 4292529587
-0.2972208 0.082856178 -0.12066639 4292398003
-0.29785466 0.084399104 -0.12325151 4292332209
-0.29913363 0.085892119 -0.12718457 4292266414
-0.30174392 0.087287188 -0.13390374 4292265898
-0.30409557 0.088754334 -0.14012367 4292133026
-0.31123012 0.030689556 -0.11397282 4290203470
-0.3088598 0.033113007 -0.11074889 4290527808
-0.30686852 0.0353726 -0.1082187 4291052611
-0.30589515 0.0372587 -0.10760424 4291184710
-0.30460125 0.039241817 -0.10637021 4290924367
-0.30332002 0.041205756 -0.10514833 4290730073
-0.30237067 0.043049075 -0.10455209 4291125603
-0.30142742 0.044880673 -0.10395987 4291262064
-0.30080569 0.046605166 -0.1039813 4291602061
-0.29987198 0.048416901 -0.10339396 4292201642
-0.29988146 0.049948219 -0.10463415 4292201647
-0.29989091 0.051484749 -0.10587838 4292266670
-0.29958594 0.053111758 -0.10651092 4292332718
-0.29928088 0.054738998 -0.10714356 4292333746
-0.29928926 0.056286499 -0.10839419 4292399541
-0.29961261 0.057761408 -0.11027193 4292399542
-0.29962149 0.059321865 -0.11153396 4292465592
-0.30026558 0.060740907 -0.11406457 4292596922
-0.2999568 0.062387984 -0.11470493 4292729020
-0.29996616 0.063967004 -0.11598281 4292794300
-0.29965681 0.065617286 -0.1166244 4292860093
-0.29934737 0.067267828 -0.11726609 4292925888
-0.29872125 0.068978831 -0.1172673 4292925632
-0.29809716 0.070684478 -0.11726865 4292925119
-0.29716247 0.072439112 -0.11663366 4292789425
-0.29654384 0.074131325 -0.11663617 4292453785
-0.2959272 0.07581827 -0.11663885 4292257181
-0.29562053 0.077454172 -0.11727484 4292851619
-0.29562232 0.079047017 -0.11854729 4293249193
-0.29562411 0.080645293 -0.11982402 4293054127
-0.29624799 0.082172163 -0.12239657 4292595122
-0.29687798 0.083714359 -0.1249946 4292332208
-0.29783198 0.085238241 -0.12828256 4292266669
-0.30042249 0.086623535 -0.13501848 4292397738
-0.30175331 0.088171445 -0.13914496 4292132510
-0.30922464 0.030275207 -0.11378103 4290267466
-0.30688205 0.032694824 -0.11056988 4290658108
-0.30524251 0.034833759 -0.10867926 4290985276
-0.30394962 0.036831927 -0.10743795 4291116350
-0.30299199 0.038701233 -0.10683025 4291116865
-0.30140159 0.04077052 -0.10499188 4291117893
-0.30046141 0.042609364 -0.10439826 4291446087
-0.29952732 0.044436563 -0.1038086 4291514710
-0.2989105 0.046156339 -0.10383033 4291660928
-0.29798579 0.047963787 -0.10324551 4292200872
-0.29799205 0.04948955 -0.10448155 4292267440
-0.29799834 0.051020488 -0.1057217 4292332207
-0.29769421 0.052642331 -0.10635234 4292267440
-0.29739001 0.054264426 -0.10698307 4292268469
-0.2973952 0.055806249 -0.10822956 4292400055
-0.29771122 0.057274908 -0.11010078 4292465079
-0.2980293 0.058753386 -0.11198428 4292399799
-0.29866445 0.060167409 -0.11451315 4292596921
-0.29835606 0.061811935 -0.1151526 4292794557
-0.29867873 0.063318104 -0.11706839 4292859838
-0.29868582 0.064901561 -0.11835247 4292860353
-0.29837579 0.066554911 -0.11899535 4292991682
-0.29775009 0.068270013 -0.11899388 4292991169
-0.29712641 0.069979727 -0.11899249 4293121471
-0.29619327 0.071739607 -0.11835102 4292389278
-0.29557505 0.073435813 -0.11835089 4292371555
-0.29495886 0.075126745 -0.11835085 4292626765
-0.29465157 0.076765396 -0.11898802 4292758100
-0.29434422 0.078404307 -0.11962529 4292436842
-0.2943438 0.08000163 -0.12090392 4291988876
-0.29496127 0.081525475 -0.12348191 4291997860
-0.29589784 0.083027244 -0.1267437 4292330668
-0.2965301 0.084584273 -0.12938078 4292528814
-0.29942662 0.085926488 -0.13682303 4292396715
-0.30108306 0.087440178 -0.14167678 4292198046
-0.30790907 0.02960895 -0.11488965 4290333002
-0.30524781 0.032157507 -0.11102891 4290592572
-0.3039484 0.034178678 -0.10976984 4290919739
-0.30298594 0.036065828 -0.10915155 4291116349
-0.30170822 0.038051739 -0.10791219 4291182401
-0.30012605 0.040125348 -0.10606692 4291314501
-0.29887658 0.042069543 -0.10485678 4291577415
-0.29794899 0.043895647 -0.1042667 4291643730
-0.29702729 0.045710243 -0.10368053 4291721077
-0.29641727 0.047420006 -0.10370257 4292000672
-0.29611456 0.049033675 -0.10433014 4292201905
-0.29611769 0.050559051 -0.1055662 4292267185
-0.29581442 0.052175809 -0.10619496 4292267699
-0.29581693 0.053709161 -0.10743616 4292268982
-0.29581943 0.055247709 -0.10868149 4292400568
-0.29643863 0.056632869 -0.1111737 4292531128
-0.29675242 0.058109332 -0.11306083 4292465335
-0.29706827 0.059595671 -0.11496041 4292400054
-0.29707268 0.061164919 -0.1162347 4292728508
-0.297391 0.062669091 -0.11815419 4292794559
-0.29739586 0.064251587 -0.11944019 4292794306
-0.2970857 0.065905042 -0.1200832 4292991428
-0.29646203 0.067621306 -0.12008009 4293188291
-0.29584032 0.069332182 -0.12007705 4293118644
-0.29491124 0.071094304 -0.1194322 4292704889
-0.29429501 0.072791666 -0.11943044 4292366420
-0.29368076 0.074483715 -0.11942878 4292494662
-0.29337335 0.076122493 -0.12006609 4292625477
-0.29337126 0.077715948 -0.12134548 4292625992
-0.29336914 0.079314858 -0.12262914 4292562512
-0.29367432 0.080878653 -0.12456744 4292440423
-0.29491425 0.082337774 -0.12849876 4292455314
-0.29554254 0.083894029 -0.13114908 4292529845
-0.2984271 0.085226998 -0.13863379 4292462509
-0.30141062 0.086605944 -0.14637545 4292263327
-0.30693117 0.028813519 -0.11665305 4290334801
-0.30460733 0.031251971 -0.11340815 4290592573
-0.30297983 0.03340416 -0.11149586 4290854460
-0.30169576 0.035412908 -0.11023887 4291050812
-0.30042425 0.037402146 -0.10899433 4291313471
-0.2991651 0.039372165 -0.10776205 4291445317
-0.29760692 0.041427515 -0.10592693 4291511625
-0.29668328 0.04325578 -0.10533355 4291577677
-0.29576552 0.045072511 -0.10474405 4291519332
-0.2951574 0.046783414 -0.10476457 4291667346
-0.29455122 0.048489057 -0.10478508 4292005812
-0.29455173 0.05001121 -0.10602003 4292202163
-0.29424879 0.051625468 -0.1066479 4292268212
-0.29424873 0.053155571 -0.10788801 4292334519
-0.29455289 0.054608542 -0.10974927 4292531640
-0.29485899 0.056071162 -0.11162268 4292662202
-0.29516709 0.057543498 -0.11350838 4292596408
-0.29578689 0.058949526 -0.11604082 4292399542
-0.29547876 0.060591556 -0.1166795 4292728250
-0.29579121 0.062091477 -0.11859741 4292860353
-0.29579332 0.063670553 -0.11988218 4292925632
-0.29548353 0.065321393 -0.12052429 4292991426
-0.29486337 0.067035906 -0.12052058 4293384127
-0.29424521 0.068745054 -0.12051704 4292711835
-0.29362899 0.070448861 -0.12051356 4292697443
-0.29301473 0.072147362 -0.12051018 4292627020
-0.29270676 0.073788665 -0.12114856 4292625990
-0.29239872 0.075430214 -0.12178705 4292625476
-0.29209062 0.07707198 -0.12242563 4292625990
-0.2920863 0.078669943 -0.1237112 4292627017
-0.29269344 0.080189928 -0.1263075 4292633179
-0.29361632 0.081685595 -0.1295936 4292649098
-0.2974197 0.082859561 -0.13909122 4292530100
-0.29905829 0.084344417 -0.14397669 4292331181
-0.30006111 0.085928366 -0.1475139 4292197536
-0.30628759 0.027884262 -0.1190834 4290468184
-0.30396235 0.030340265 -0.11580345 4290658110
-0.30200785 0.032626957 -0.11322784 4290854205
-0.30072632 0.034642942 -0.11196037 4291051069
-0.29945737 0.036639336 -0.11070544 4291313729
-0.29788703 0.038725723 -0.10883924 4291511109
-0.29664621 0.040680084 -0.10761391 4291511368
-0.29572403 0.042513806 -0.10701428 4291511884
-0.29480776 0.044335987 -0.10641853 4291450461
-0.29420012 0.046050925 -0.10643654 4291530123
-0.29359439 0.04776058 -0.10645454 4292070324
-0.29329139 0.049374696 -0.10708246 4292136883
-0.29298836 0.050989058 -0.10771047 4292268213
-0.29298612 0.052518226 -0.10895243 4292399800
-0.29328611 0.053969238 -0.11081726 4292596921
-0.29328424 0.055511132 -0.11207045 4292661689
-0.29358655 0.056979399 -0.11395463 4292662202
-0.2938908 0.058457438 -0.11585116 4292662715
-0.29358354 0.06009423 -0.11648791 4292793531
-0.29388872 0.061587751 -0.11839914 4292991684
-0.29388759 0.063160948 -0.11967952 4293188036
-0.29388639 0.064739533 -0.12096412 4293384642
-0.29326975 0.066452287 -0.12095989 4292854189
-0.29296076 0.068098322 -0.12160024 4292965487
-0.29234651 0.069803305 -0.12159513 4292890452
-0.29203793 0.071447134 -0.12223461 4292822859
-0.29172933 0.073091216 -0.12287418 4292756806
-0.29142067 0.074735537 -0.12351385 4292691267
-0.29141513 0.076332144 -0.12480333 4292625475
-0.29171422 0.077888668 -0.12675212 4292495436
-0.29201519 0.079455703 -0.12871385 4292570217
-0.29418573 0.080786407 -0.1347302 4292915606
-0.29641479 0.082153343 -0.14090921 4292529073
-0.29804575 0.083633617 -0.14582171 4292396715
-0.29871133 0.085250661 -0.14865257 4292130716
-0.30530149 0.02708164 -0.12086321 4290472804
-0.30298212 0.029549906 -0.11756007 4290659909
-0.30135706 0.03172436 -0.11561096 4290854206
-0.30007443 0.03375157 -0.11432761 4291051071
-0.2984871 0.035873894 -0.11242238 4291313731
-0.29723307 0.037858076 -0.11116953 4291445317
-0.29599127 0.039823152 -0.10992896 4291511368
-0.29506811 0.041665711 -0.10931998 4291511884
-0.29415089 0.043496605 -0.10871505 4291513687
-0.29354221 0.045218516 -0.10872953 4291654777
-0.29293546 0.046935115 -0.10874405 4292000421
-0.29233065 0.048646446 -0.10875864 4292005300
-0.29232723 0.050174192 -0.11000428 4292202421
-0.29202303 0.051794093 -0.11063455 4292334521
-0.29232031 0.053245198 -0.11250801 4292531386
-0.29201508 0.05487081 -0.11314049 4292596154
-0.29201093 0.056417011 -0.11439964 4292662716
-0.29230949 0.057890918 -0.11629473 4292925632
-0.29200262 0.059525151 -0.11693057 4292991941
-0.29199833 0.061087187 -0.1182023 4293254345
-0.29199398 0.06265454 -0.11947833 4293188293
-0.29198962 0.064227268 -0.12075861 4293186233
-0.29137793 0.065935381 -0.12075482 4292707207
-0.29137245 0.067513935 -0.12203737 4292696676
-0.29106382 0.069157608 -0.12267688 4292823889
-0.29075509 0.070801564 -0.12331651 4292757066
-0.29074845 0.072391361 -0.12460562 4292756551
-0.29043916 0.074038468 -0.12524647 4292690756
-0.29103902 0.075537838 -0.12785469 4292625476
-0.29195234 0.077004954 -0.13115647 4292364625
-0.29287779 0.078491814 -0.13450238 4292376187
-0.29350078 0.08004187 -0.13720529 4292986796
-0.29508555 0.081485614 -0.14203049 4292462768
-0.29702953 0.082920246 -0.14767331 4292461223
-0.30265865 0.028498067 -0.12064306 4290535512
-0.30070174 0.030815581 -0.11801022 4290724419
-0.299097 0.032974806 -0.11606484 4290985536
-0.2978296 0.03498951 -0.1147837 4291116866
-0.29626197 0.037097149 -0.11288189 4291248709
-0.29502276 0.039069235 -0.11163113 4291446090
-0.29410115 0.040917329 -0.11101578 4291447119
-0.29348949 0.042651661 -0.11102661 4291448405
-0.29287982 0.04438062 -0.11103754 4291585896
-0.29227206 0.046104208 -0.11104856 4291601550
-0.29166621 0.047822513 -0.11105959 4291610803
-0.29166165 0.049353968 -0.11231314 4291807670
-0.29135635 0.050979171 -0.11294558 4291742646
-0.29135111 0.052518703 -0.11420437 4292201654
-0.29104528 0.054147042 -0.114838 4292399289
-0.29103947 0.055694666 -0.11610214 4292400060
-0.29073301 0.057326116 -0.11673699 4292859326
-0.29072663 0.058881909 -0.11800645 4293188549
-0.29041961 0.060516495 -0.11864252 4293253828
-0.29041255 0.062080454 -0.11991726 4293121723
-0.2901049 0.0637182 -0.12055457 4292385692
-0.28979725 0.065356158 -0.12119196 4292700009
-0.28978908 0.066931292 -0.12247327 4292825944
-0.28948081 0.068572417 -0.12311189 4292758095
-0.28977254 0.070097759 -0.12504873 4292756809
-0.29036909 0.07157734 -0.12765592 4292756039
-0.29097149 0.073071815 -0.130289 4292690501
-0.2909649 0.074684381 -0.13160485 4292560198
-0.29157418 0.076204777 -0.13427532 4292234836
-0.29218954 0.077740647 -0.13697264 4292115843
-0.29312572 0.079247795 -0.14039162 4292858040
-0.29439405 0.080733344 -0.14456426 4292462254
-0.29600957 0.082204305 -0.14953145 4292262561
-0.29971707 0.030027214 -0.11976811 4290600276
-0.29811612 0.032195322 -0.11780799 4290855748
-0.29653618 0.03433514 -0.11587377 4291052098
-0.29528743 0.036333587 -0.11460013 4291117894
-0.29435882 0.03820258 -0.11397109 4291315275
-0.29343623 0.040059622 -0.1133462 4291382610
-0.29282358 0.041801095 -0.11335342 4291318360
-0.2922129 0.043537136 -0.11336079 4291454312
-0.2916041 0.045267813 -0.11336816 4291796110
-0.29129779 0.046897929 -0.11400259 4292202932
-0.29099143 0.04852828 -0.11463712 4292135604
-0.29098558 0.050068676 -0.11590284 4292070324
-0.29097962 0.051614314 -0.1171727 4292201909
-0.29067212 0.053250719 -0.11780958 4292332728
-0.29036459 0.054887347 -0.11844654 4292201916
-0.28975755 0.056604043 -0.11844639 4292727483
-0.28945044 0.05823851 -0.11908252 4292989881
-0.28914326 0.059873197 -0.11971873 4293252536
-0.28883606 0.06150813 -0.12035504 4293447855
-0.28852877 0.063143305 -0.12099145 4292381836
-0.28822148 0.064778708 -0.12162794 4292565086
-0.28821063 0.066350453 -0.12290793 4292693071
-0.28819972 0.067927554 -0.12419228 4292757579
-0.2887865 0.069391511 -0.12678677 4292756807
-0.28968188 0.070812732 -0.13007069 4292756549
-0.29028273 0.072308488 -0.13272467 4292691012
-0.2905817 0.07387241 -0.13472599 4292494919
-0.29119197 0.075396433 -0.13742562 4292301399
-0.29180834 0.076936096 -0.14015248 4292248195
-0.2927466 0.078445561 -0.1436104 4292726968
-0.29369754 0.079975814 -0.14711548 4292461224
-0.2953113 0.081444152 -0.15212618 4292128404
-0.29649737 0.031659212 -0.11825571 4290600541
-0.29524258 0.033680651 -0.11696403 4290855244
-0.29400003 0.035682421 -0.11568516 4291117895
-0.29338241 0.037442073 -0.11568856 4291315276
-0.29276678 0.039196189 -0.1156921 4291252056
-0.29215309 0.040944874 -0.11569567 4291062891
-0.29154134 0.042688075 -0.11569933 4291535757
-0.29123348 0.044325996 -0.1163369 4291872434
-0.29092553 0.0459642 -0.11697458 4291874233
-0.29091948 0.047507808 -0.11825033 4291939767
-0.29061094 0.049149141 -0.11888924 4292005302
-0.29030237 0.050790735 -0.11952823 4292071610
-0.28969339 0.052519344 -0.1195262 4292136636
-0.28908634 0.054242585 -0.11952427 4292071358
-0.28818476 0.056041118 -0.11888554 4292334524
-0.28758299 0.057750754 -0.11888485 4292531132
-0.28727672 0.059380274 -0.11951916 4292727739
-0.28667733 0.06108224 -0.11951768 4293120440
-0.28637141 0.062709592 -0.12015114 4292453535
-0.28635755 0.064270206 -0.1214226 4292501093
-0.2866371 0.065771393 -0.12334147 4292626766
-0.28780881 0.067093849 -0.12723069 4292692043
-0.28869769 0.068499774 -0.13051757 4292822856
-0.28898987 0.07004296 -0.13250165 4292822855
-0.28958917 0.071539938 -0.13517666 4292691527
-0.28988668 0.073106602 -0.13719305 4292495695
-0.2904954 0.074632019 -0.13991424 4292436585
-0.29142308 0.076123275 -0.14336471 4292582802
-0.29236338 0.077635013 -0.14686221 4292857526
-0.29331645 0.079167686 -0.15040763 4292392861
-0.29394868 0.033026032 -0.11805449 4290998128
-0.29301971 0.034915037 -0.1174112 4290925663
-0.29240257 0.036678936 -0.11741193 4290926947
-0.29209268 0.038327008 -0.11805354 4291199097
-0.29147795 0.040082898 -0.1180534 4291341975
-0.29116848 0.041728746 -0.11869414 4291411114
-0.29055622 0.043476716 -0.11869318 4291742135
-0.2905494 0.04502118 -0.11997594 4291873722
-0.29023981 0.046667747 -0.12061697 4291939002
-0.28993016 0.048314564 -0.12125809 4292005049
-0.28962046 0.04996163 -0.12189932 4292005819
-0.28871122 0.051785469 -0.12124862 4292136892
-0.28780782 0.053597704 -0.1206022 4292137406
-0.28691027 0.055398423 -0.11996011 4292268476
-0.28631046 0.057109229 -0.11995783 4292334526
-0.28542197 0.058890399 -0.11932113 4292399550
-0.28511649 0.060514975 -0.11995361 4292662206
-0.28481099 0.062139809 -0.12058617 4292657586
-0.28537548 0.063560851 -0.12313788 4292508025
-0.28594545 0.064996056 -0.12571463 4292562516
-0.28681761 0.066381171 -0.12897548 4292692043
-0.28800231 0.067722134 -0.13295007 4292757579
-0.2885966 0.069207422 -0.13562736 4292692302
-0.28919679 0.070707798 -0.13833159 4292627797
-0.28980297 0.072223552 -0.14106311 4292501353
-0.29041523 0.073754892 -0.14382239 4292513421
-0.29103372 0.075302064 -0.14660983 4292724652
-0.29197598 0.07681606 -0.15014753 4292657323
-0.29296058 0.033790093 -0.12108991 4291275158
-0.29233935 0.035567611 -0.12108474 4291144085
-0.29172009 0.037339475 -0.12107965 4291145629
-0.29140851 0.038996037 -0.12172468 4291543979
-0.29079172 0.040759858 -0.12171871 4291544756
-0.29017693 0.042518109 -0.12171295 4291676602
-0.29016933 0.044068728 -0.12300713 4291807673
-0.28985807 0.045723524 -0.12365145 4291873721
-0.28924468 0.047474358 -0.12364278 4291873978
-0.28893384 0.049126931 -0.12428626 4291939771
-0.28802371 0.050959606 -0.1236257 4292202174
-0.28711954 0.052780543 -0.12296961 4292137663
-0.28592789 0.054672886 -0.12167535 4292268478
-0.28503767 0.056467574 -0.12103101 4292334271
-0.28444171 0.058174215 -0.12102728 4292334015
-0.28356051 0.059949424 -0.12038831 4292530878
-0.28354195 0.061500512 -0.1216563 4292858298
-0.28381127 0.062987849 -0.12356983 4292582549
-0.28524905 0.064215504 -0.12810357 4292501092
-0.28641686 0.065534085 -0.13205793 4292692048
-0.287604 0.066874795 -0.13607809 4292627797
-0.28819916 0.068363376 -0.13878462 4292565344
-0.28910822 0.069806904 -0.14221594 4292505462
-0.28940734 0.071386464 -0.14428008 4292514452
-0.29002061 0.072921433 -0.1470699 4292856496
-0.2909559 0.074419029 -0.15061077 4292724912
-0.29290044 0.032650057 -0.12481785 4291346604
-0.29227504 0.034441367 -0.12480653 4291478447
-0.29196078 0.03611153 -0.12545697 4291215277
-0.29133791 0.037894618 -0.12544489 4291479218
-0.29071701 0.039672043 -0.12543288 4291611062
-0.29009813 0.041443843 -0.12542097 4291676344
-0.28978524 0.043106716 -0.12606856 4291807416
-0.28947231 0.044769809 -0.12671624 4291873720
-0.28885639 0.046531014 -0.12670259 4291874232
-0.28824246 0.048286658 -0.12668905 4292005050
-0.28733152 0.050128181 -0.12601861 4292202175
-0.28642645 0.051957924 -0.12535264 4292137663
-0.28523418 0.053860545 -0.12404266 4292268735
-0.28434327 0.055663787 -0.12338874 4292334527
-0.28288415 0.057611302 -0.12146103 4292334271
-0.28257847 0.059236091 -0.12209375 4292465343
-0.28255817 0.060788635 -0.12336667 4292793534
-0.28340104 0.062134873 -0.12658575 4292655791
-0.28484181 0.063360311 -0.13117167 4292705662
-0.28631115 0.064610392 -0.13584892 4292763238
-0.28720146 0.066018842 -0.13923766 4292571000
-0.28779745 0.067510709 -0.14197382 4292578186
-0.28932911 0.068831287 -0.14686428 4292917667
-0.28963143 0.070421033 -0.14896196 4292858302
-0.29025093 0.071964279 -0.15179977 4292923319
-0.29087678 0.073523693 -0.15466695 4292788904
-0.29315346 0.031370096 -0.12927048 4291215534
-0.29252231 0.033178639 -0.12925182 4291544499
-0.29189318 0.034981396 -0.12923329 4291413174
-0.29126611 0.036778394 -0.1292149 4291413428
-0.29064107 0.038569614 -0.1291967 4291545271
-0.28971168 0.040463727 -0.12850976 4291676598
-0.28909224 0.04224043 -0.12849304 4291873464
-0.28877816 0.04390917 -0.12914301 4292004791
-0.28785938 0.04577696 -0.12845993 4292005304
-0.28694662 0.047632698 -0.1277815 4292201913
-0.28633663 0.049383983 -0.12776645 4292267710
-0.28543329 0.05121927 -0.12709382 4292268224
-0.2839528 0.053214375 -0.12512307 4292334015
-0.28306589 0.055019815 -0.12446578 4292334526
-0.28247091 0.056734543 -0.12445667 4292399806
-0.28245029 0.058290467 -0.12573969 4292465343
-0.28214243 0.059926145 -0.12637678 4292531135
-0.28298661 0.061273444 -0.12963147 4292725945
-0.28443021 0.062496517 -0.13427037 4292913567
-0.28650582 0.063603915 -0.14038162 4293042068
-0.28801915 0.064880028 -0.14523934 4293116846
-0.2889376 0.066317029 -0.14875561 4292859328
-0.28955352 0.06783884 -0.15159231 4292794047
-0.29017574 0.069376595 -0.15445836 4292858296
-0.29048496 0.07099051 -0.15661137 4292724654
-0.29277697 0.030323498 -0.1324251 4291018925
-0.29214314 0.032143041 -0.13240118 4291347377
-0.29151136 0.033956729 -0.1323774 4291610808
-0.2908816 0.035764594 -0.13235378 4291479734
-0.28994513 0.037680585 -0.13165179 4291545013
-0.28901485 0.039584097 -0.13095458 4291807668
-0.28809065 0.041475184 -0.13026205 4291873464
-0.28777593 0.043146808 -0.13091321 4292136378
-0.28685883 0.045020301 -0.13022336 4292070841
-0.28594774 0.046881709 -0.1295381 4292267706
-0.28504258 0.048731107 -0.12885745 4292333501
-0.28414336 0.050568625 -0.12818138 4292333761
-0.28354073 0.05230708 -0.12816606 4292400065
-0.28294006 0.05404013 -0.12815095 4292334527
-0.2823413 0.055767756 -0.12813593 4292465598
-0.28203186 0.057411283 -0.12877616 4292531135
-0.28287941 0.058748573 -0.13206273 4292531136
-0.28285894 0.060328867 -0.13337541 4292661697
-0.28550643 0.061255291 -0.14083543 4292793541
-0.28700954 0.062507473 -0.1456978 4292859846
-0.2882317 0.063856967 -0.14993735 4292793794
-0.2891593 0.065299399 -0.15351613 4292859325
-0.28978154 0.066829167 -0.15640205 4292857781
-0.29009044 0.068439692 -0.15856934 4292526761
-0.29271361 0.029136311 -0.13630658 4291019180
-0.29207546 0.030970311 -0.13627602 4291216047
-0.29112536 0.032921541 -0.1355536 4291610804
-0.2901817 0.034859896 -0.13483614 4291743415
-0.28924426 0.036785498 -0.13412355 4291676338
-0.28800797 0.038810328 -0.13273661 4291807667
-0.28708553 0.040707245 -0.13203716 4291873721
-0.2864691 0.042486962 -0.13201487 4292071100
-0.28555623 0.044362776 -0.1313215 4292071100
-0.28435427 0.046324458 -0.12996703 4292136635
-0.2837483 0.048078101 -0.12994865 4292399548
-0.28343639 0.049734298 -0.13059393 4292399806
-0.28283286 0.051479962 -0.13057479 4292400321
-0.28252134 0.053133916 -0.13121918 4292465856
-0.28220975 0.054788101 -0.1318637 4292596927
-0.28247914 0.056280188 -0.13384594 4292597183
-0.28275028 0.057782385 -0.13584137 4292596928
-0.28391048 0.059062634 -0.13990676 4292728772
-0.28539234 0.060288299 -0.14474343 4292859845
-0.28690442 0.061539244 -0.1496789 4292990145
-0.28939518 0.062593907 -0.15693481 4293054906
-0.29002291 0.064120062 -0.15985861 4292790706
-0.29001334 0.065801784 -0.16129568 4292065440
-0.29264915 0.027932761 -0.14024134 4291018149
-0.29137245 0.03003975 -0.13879694 4291215789
-0.29042143 0.032000881 -0.13806365 4291609775
-0.28947675 0.033948991 -0.13733543 4291807409
-0.28823096 0.036001619 -0.135923 4291740077
-0.28699753 0.038033873 -0.13452484 4291740074
-0.28607678 0.039936639 -0.1338184 4292004533
-0.28427148 0.042143863 -0.13110059 4292202170
-0.28366363 0.043909799 -0.13108028 4292202171
-0.28305775 0.045670182 -0.13106011 4292268220
-0.28245378 0.047425002 -0.13104005 4292465341
-0.28243265 0.048987985 -0.13235296 4292530620
-0.28212002 0.050647262 -0.13299954 4292531647
-0.28209817 0.05221862 -0.13431801 4292597184
-0.28178495 0.053881109 -0.13496585 4292531393
-0.28234687 0.055294197 -0.13764903 4292661952
-0.28350747 0.056557804 -0.14174314 4292859329
-0.2855984 0.057599485 -0.14803879 4292925377
-0.28681251 0.058911398 -0.15231292 4292989885
-0.28773341 0.06032443 -0.15592051 4292923062
-0.28898489 0.06168098 -0.16033001 4292527018
-0.29098082 0.028971758 -0.14204435 4291345316
-0.28971243 0.031073805 -0.140591 4291803557
-0.28845689 0.033154756 -0.13915254 4291406488
-0.28721395 0.035214953 -0.13772869 4291139480
-0.28478268 0.037710387 -0.13359188 4291338899
-0.28357849 0.039714325 -0.1322194 4292065444
-0.28238615 0.041698739 -0.1308606 4292725934
-0.28178325 0.043459687 -0.13084082 4292530359
-0.28118235 0.045215126 -0.13082127 4292466364
-0.28087071 0.04686854 -0.13146569 4292530362
-0.28113562 0.048333749 -0.1334465 4292662203
-0.28140226 0.049808912 -0.1354405 4292925115
-0.28137904 0.051384203 -0.13676755 4292793273
-0.2819407 0.052789383 -0.13946868 4292727740
-0.28310171 0.054036062 -0.14359182 4292858815
-0.28367954 0.055474132 -0.14636412 4292989886
-0.28548303 0.05659401 -0.15204959 4292989880
-0.28670439 0.057906367 -0.15638781 4292660143
-0.28763077 0.059322368 -0.16004875 4292263073
-0.279915 0.043012414 -0.13060319 4291793304
-0.27931896 0.044762947 -0.13058418 4291927972
-0.27929255 0.046313822 -0.13189006 4292062379
-0.28041446 0.047487549 -0.13588901 4292391082
-0.28067949 0.048964884 -0.13789792 4292321955
-0.2812385 0.050360177 -0.14060926 4292456101
-0.28150839 0.05185999 -0.1426509 4292725172
-0.28237331 0.053193815 -0.14611436 4292858554
-0.28385434 0.054371927 -0.15106395 4292725682
-0.28505743 0.055660594 -0.15537885 4292330150
-0.28196084 0.050643373 -0.14799039 4292128413
-0.28313959 0.051891074 -0.15224971 4292067240
