# .PCD v0.7 - Point Cloud Data file format
VERSION 0.7
FIELDS x y z rgba
SIZE 4 4 4 4
TYPE F F F U
COUNT 1 1 1 1
WIDTH 1007
HEIGHT 1
VIEWPOINT 0 0 0 1 0 0 0
POINTS 1007
DATA ascii
-0.35421526 0.033217024 -0.083355144 4288694598
-0.35402268 0.034620248 -0.082027622 4288836704
-0.35520002 0.037100673 -0.082443655 4289107835
-0.35592404 0.039231382 -0.08227805 4289240188
-0.35757995 0.04211523 -0.083284333 4289371260
-0.35878268 0.044649705 -0.083708964 4289633662
-0.35952097 0.046817493 -0.083543524 4290224004
-0.36169294 0.050166562 -0.08516521 4290948235
-0.36383218 0.019565972 -0.11475536 4289238651
-0.36212072 0.020020807 -0.11129124 4288910966
-0.35994834 0.020123255 -0.1072261 4288910709
-0.35829318 0.020567143 -0.10387318 4289041268
-0.35760987 0.02169136 -0.10183143 4289101160
-0.35693151 0.02280771 -0.099804312 4288762702
-0.35720107 0.024610806 -0.099039912 4288693308
-0.35652667 0.025713174 -0.097029902 4288758586
-0.35632545 0.027158454 -0.09565001 4288693307
-0.35612497 0.028598845 -0.094274946 4288627772
-0.35453266 0.028974781 -0.091085047 4288627772
-0.35387745 0.03004707 -0.089131273 4288824126
-0.35231787 0.030409327 -0.086011074 4288693310
-0.35167745 0.031465828 -0.084095508 4288693053
-0.35104153 0.032515205 -0.082193211 4288759357
-0.35085574 0.033910062 -0.080876946 4288631630
-0.35067061 0.035300337 -0.079565175 4289105007
-0.35227564 0.038123094 -0.080543242 4289108601
-0.35389763 0.040975939 -0.081531532 4289175163
-0.35553691 0.04385934 -0.082530215 4289240188
-0.35626408 0.046010546 -0.082363807 4289437053
-0.35839722 0.049330175 -0.08396557 4289831038
-0.3596094 0.051905151 -0.084394619 4290357893
-0.36740649 0.02047044 -0.12520565 4289961344
-0.36461511 0.020215586 -0.12020165 4289173115
-0.35991672 0.018576134 -0.11262806 4288845433
-0.35776836 0.018691557 -0.10855828 4288845946
-0.35565895 0.018805141 -0.10456208 4288976761
-0.35405242 0.019253934 -0.10126454 4289105780
-0.35292941 0.020033201 -0.098632962 4288900957
-0.35227612 0.021141713 -0.096642509 4288692795
-0.3520841 0.022582021 -0.095275864 4288495161
-0.35189274 0.024017422 -0.093913898 4288627001
-0.35170212 0.025447996 -0.092556648 4288691510
-0.35196695 0.027220091 -0.09180551 4288625976
-0.35132307 0.028294764 -0.089856289 4288625466
-0.35113457 0.029711002 -0.088513047 4288758333
-0.35049707 0.030771771 -0.086585425 4288561725
-0.3503111 0.032176726 -0.085254803 4288691773
-0.35012582 0.033577017 -0.083928719 4288692287
-0.35038763 0.035328951 -0.083186112 4288693831
-0.35020265 0.036721822 -0.08186575 4288967515
-0.35046408 0.038471203 -0.081124254 4289173621
-0.35117331 0.040586289 -0.080957666 4289240699
-0.3523365 0.043080203 -0.081368223 4289305467
-0.35396454 0.04597012 -0.082364179 4289305467
-0.35514799 0.048505757 -0.082783088 4289436538
-0.35680565 0.051450979 -0.083795249 4289633916
-0.35800996 0.05402942 -0.08422289 4290095748
-0.36615884 0.019697879 -0.12798071 4289764734
-0.3633762 0.019451259 -0.12293606 4289238650
-0.35772082 0.017136762 -0.11396005 4288911226
-0.3546488 0.016589673 -0.10858433 4288780412
-0.3521156 0.016388474 -0.10397548 4288978046
-0.35146153 0.017515462 -0.10195559 4289372289
-0.35035625 0.018301204 -0.099329785 4289630329
-0.3483645 0.018416161 -0.095513806 4289027420
-0.34773526 0.019516956 -0.093558893 4288889924
-0.34711048 0.020610284 -0.091617644 4288692028
-0.34693047 0.022029236 -0.090281188 4288691769
-0.34763432 0.024116844 -0.090131529 4288625720
-0.34789628 0.025870519 -0.089388303 4288691511
-0.34860313 0.027969044 -0.089236565 4288560698
-0.34886563 0.029726308 -0.088491827 4288691773
-0.34912816 0.031483844 -0.08774697 4288692796
-0.34939075 0.033241611 -0.087002002 4288627007
-0.34965336 0.03499968 -0.086256921 4288627526
-0.34991601 0.036757976 -0.085511729 4288498000
-0.34973112 0.038153399 -0.084182672 4288637022
-0.34999341 0.03990915 -0.08343856 4288974966
-0.3502557 0.041665133 -0.082694352 4289174908
-0.35096705 0.043793764 -0.082529873 4289174652
-0.35213351 0.046308219 -0.082947314 4289240188
-0.35330832 0.048840802 -0.083367616 4289305723
-0.3544915 0.051391598 -0.083790779 4289371259
-0.35568315 0.053960841 -0.084216833 4289503358
-0.35688341 0.056548744 -0.084645875 4290292614
-0.36235571 0.017151309 -0.12718663 4289568380
-0.36162952 0.01833158 -0.12497719 4289173626
-0.35553291 0.015702626 -0.11528721 4288977020
-0.35296226 0.015508557 -0.1105552 4288845949
-0.35044712 0.015318998 -0.10592522 4288846977
-0.34934318 0.016119028 -0.10326901 4289242502
-0.34780133 0.016581504 -0.10002178 4289439624
-0.34672517 0.017365437 -0.097429477 4289174398
-0.34478253 0.01748777 -0.093663514 4289366379
-0.34373719 0.018256569 -0.091140322 4289427813
-0.34313273 0.019343125 -0.089227706 4289093973
-0.34296143 0.020749714 -0.087909296 4288760396
-0.34365097 0.022813557 -0.087757096 4288691777
-0.34434295 0.024884857 -0.087604262 4288953656
-0.34635079 0.027990298 -0.089213058 4288954684
-0.34705362 0.030089345 -0.089061216 4288889153
-0.3482039 0.032549277 -0.089501806 4288695117
-0.34846687 0.034310386 -0.088755548 4289027408
-0.34872988 0.036071725 -0.088009171 4289296480
-0.34899291 0.037833333 -0.087262698 4289102959
-0.34880924 0.039229576 -0.085928254 4289040503
-0.34862623 0.040621135 -0.08459837 4289173883
-0.34888849 0.04237736 -0.083854169 4289109116
-0.34915075 0.044133831 -0.083109871 4289109117
-0.35030872 0.046645273 -0.083528645 4289239934
-0.35147494 0.049174771 -0.083950266 4289305724
-0.35219347 0.051332749 -0.08378654 4289240444
-0.35337266 0.05389287 -0.084211074 4289305981
-0.35456029 0.056471523 -0.084638543 4289634690
-0.35575649 0.059068888 -0.085069001 4290686092
-0.35233426 0.010283384 -0.11749068 4289699966
-0.35213619 0.011780949 -0.11604959 4289174139
-0.35147098 0.012942333 -0.11395317 4289043327
-0.35034728 0.013764829 -0.11121999 4289043585
-0.34877858 0.014249462 -0.10787503 4289174661
-0.34723237 0.014727493 -0.10457779 4289307275
-0.34615332 0.015525175 -0.1019476 4289242763
-0.34508574 0.016314682 -0.099345207 4289175170
-0.34402949 0.017096095 -0.096770145 4288978816
-0.34169075 0.016897473 -0.092436589 4288912512
-0.34024438 0.017342763 -0.089353621 4288977537
-0.3396571 0.018423278 -0.087463625 4288976765
-0.33949313 0.019819614 -0.086159609 4289171062
-0.33974949 0.021537289 -0.085431866 4289229922
-0.34042752 0.023585189 -0.085276596 4288830543
-0.34367999 0.027669253 -0.088602528 4288762189
-0.34481034 0.030103505 -0.089038618 4289032279
-0.34594864 0.032555066 -0.089477606 4289169006
-0.346652 0.034666561 -0.089325741 4289236595
-0.34691447 0.036425043 -0.08858069 4289370232
-0.34717697 0.038183764 -0.087835543 4289240445
-0.34699672 0.039577138 -0.08650244 4289175166
-0.34637699 0.040599752 -0.084591478 4289174654
-0.34663823 0.042350046 -0.083849899 4289109117
-0.34645995 0.043729611 -0.082530379 4289109116
-0.34716082 0.045851372 -0.082366422 4289239932
-0.34786418 0.047980778 -0.082201749 4289305469
-0.34991142 0.051274452 -0.083782502 4289240702
-0.35062593 0.053432811 -0.083618686 4289240701
-0.3517974 0.055996314 -0.084041774 4289306240
-0.35343704 0.058983032 -0.085060395 4289765765
-0.35416564 0.061179094 -0.084896781 4291015056
-0.34970278 0.0085460367 -0.11813466 4290159235
-0.34904745 0.0097167362 -0.11603472 4289304961
-0.3483969 0.010879247 -0.11394992 4289108865
-0.34775111 0.012033594 -0.11188003 4289241221
-0.34710997 0.013179934 -0.1098249 4289439884
-0.34602374 0.013991318 -0.10714803 4289505425
-0.34450522 0.014468824 -0.10387349 4289241227
-0.34344628 0.015263876 -0.10126103 4289241220
-0.34239852 0.016050803 -0.098675981 4289109892
-0.34136182 0.016829738 -0.096117936 4289044099
-0.33906284 0.016635088 -0.091813676 4289109633
-0.33764192 0.017080097 -0.088750914 4289109121
-0.3370665 0.018156197 -0.086872704 4289109378
-0.33690771 0.019546026 -0.085576393 4289305728
-0.3371627 0.021255089 -0.084852375 4289369978
-0.33783278 0.023292193 -0.084696956 4289106292
-0.34061119 0.027012929 -0.087417334 4288973424
-0.34172291 0.029428203 -0.087846242 4289107318
-0.34327489 0.032210138 -0.08886487 4289174653
-0.34440577 0.034665264 -0.089302406 4289240191
-0.34510517 0.036777206 -0.089150421 4289240960
-0.34536716 0.038533073 -0.08840657 4289240447
-0.34519029 0.039923605 -0.087074816 4289174653
-0.34414312 0.040578641 -0.084584795 4289108860
-0.34396976 0.041956455 -0.083268777 4289109117
-0.34379697 0.043329734 -0.081957169 4289109629
-0.3440564 0.045068573 -0.081220545 4289174653
-0.34474939 0.047182076 -0.081055075 4289239935
-0.34500936 0.048924472 -0.080316946 4289240704
-0.34746429 0.052589234 -0.082452007 4289306752
-0.3486163 0.055131931 -0.08286804 4289240961
-0.35022739 0.058093164 -0.083873242 4289437314
-0.35139954 0.060678504 -0.084297806 4289897350
-0.34644675 0.0079939906 -0.11667953 4289568645
-0.34535605 0.0088384282 -0.11394675 4289371527
-0.34472451 0.0099938484 -0.11188813 4289438091
-0.34409755 0.01114129 -0.10984417 4289767569
-0.34391871 0.01260353 -0.10845 4289701781
-0.34285706 0.013412445 -0.10579944 4289307538
-0.34180677 0.014213034 -0.10317691 4289176202
-0.34076753 0.01500548 -0.10058188 4289241479
-0.34016779 0.016112499 -0.098619893 4289175431
-0.33914626 0.016888583 -0.096071079 4289109382
-0.33687806 0.016694224 -0.091782145 4289043843
-0.33588931 0.017455859 -0.089307666 4289109378
-0.33532077 0.018529039 -0.087430775 4289109121
-0.33516517 0.019916061 -0.086135738 4289175424
-0.33541963 0.021622417 -0.085413001 4289240447
-0.33567417 0.023329033 -0.084690131 4289305981
-0.33800173 0.026701082 -0.086823858 4289042555
-0.3390986 0.029102936 -0.087248512 4289175168
-0.34062877 0.031868927 -0.088258743 4289175168
-0.34174442 0.034310229 -0.08869186 4289240448
-0.34200445 0.036053788 -0.087953351 4289305982
-0.3422645 0.037797641 -0.087214723 4289240187
-0.34252462 0.039541714 -0.086475983 4289240187
-0.34192458 0.040557805 -0.084578425 4289109115
-0.34175554 0.041931082 -0.083266936 4289109117
-0.34158713 0.043299891 -0.081959948 4289109375
-0.3418456 0.045032926 -0.081225894 4289109376
-0.34167737 0.046394493 -0.07992439 4289108864
-0.34236261 0.048499778 -0.079757445 4289174913
-0.34262121 0.050233573 -0.079023063 4289307012
-0.34374031 0.052732985 -0.079421431 4289372293
-0.34706256 0.057215892 -0.082702987 4289372040
-0.34821519 0.059780136 -0.083120435 4289503366
-0.34937605 0.062362805 -0.083540767 4290555016
-0.34323734 0.007450006 -0.11524554 4289040516
-0.34217155 0.0082915416 -0.11254004 4288843916
-0.34155577 0.0094408793 -0.11050113 4289174419
-0.34094447 0.010582349 -0.10847663 4289373335
-0.34077239 0.012035418 -0.10709479 4289307796
-0.33973485 0.012841843 -0.10447012 4289373325
-0.33913648 0.013960093 -0.10248785 4289242251
-0.33854234 0.01507073 -0.10051934 4289175946
-0.33795238 0.016173881 -0.098564446 4289110153
-0.33736661 0.017269632 -0.096623078 4289109894
-0.33512056 0.017071884 -0.092335843 4289044098
-0.33373377 0.017512029 -0.089285247 4289044097
-0.33317444 0.018581567 -0.087414861 4289043585
-0.33302292 0.019963985 -0.086124256 4289109121
-0.332872 0.02134194 -0.084837958 4289109121
-0.33312514 0.02304009 -0.084118791 4289306496
-0.33541885 0.026392533 -0.0862367 4289108349
-0.33650112 0.028781176 -0.086657159 4289240448
-0.3380098 0.031531345 -0.087659106 4289306497
-0.33868831 0.033608843 -0.08750651 4289306497
-0.33936912 0.035693724 -0.087353267 4289305983
-0.3400524 0.037786156 -0.087199397 4289305979
-0.34031153 0.039524395 -0.08646325 4289240443
-0.33972114 0.040537227 -0.084572315 4289109116
-0.3395564 0.041906007 -0.083265379 4289108861
-0.33939227 0.043270335 -0.081962846 4289108863
-0.33922878 0.044630222 -0.080664739 4289109376
-0.33906585 0.045985691 -0.079370975 4289174656
-0.33932254 0.047707532 -0.07864175 4289174144
-0.34000015 0.049804639 -0.078473352 4289173376
-0.34068009 0.051909253 -0.078304239 4289301369
-0.34221622 0.054792542 -0.079264835 4289302149
-0.34507525 0.058894478 -0.081959777 4289434242
-0.34665903 0.061860848 -0.082954668 4290091647
-0.3415688 0.0063804355 -0.11719535 4289620057
-0.34007353 0.0069139288 -0.11383228 4289481798
-0.33903205 0.0077525438 -0.11115353 4289348935
-0.33843172 0.0088959169 -0.109134 4289421143
-0.33826458 0.010346779 -0.10775603 4289498489
-0.33767021 0.011475455 -0.10575888 4289439375
-0.33708 0.012596482 -0.10377569 4289373324
-0.33691683 0.014028945 -0.10241881 4289372810
-0.33633241 0.015135694 -0.10045744 4289241225
-0.33617148 0.016556744 -0.099113211 4289175176
-0.3351759 0.017326923 -0.096575126 4289109638
-0.33296007 0.017129464 -0.092303105 4289109635
-0.33199629 0.017885368 -0.089838654 4289175683
-0.33104238 0.018633865 -0.087399192 4289175426
-0.33049589 0.019692805 -0.085547768 4289174915
-0.33034992 0.021064464 -0.084268957 4289110147
-0.33060169 0.022754187 -0.083553463 4289306499
-0.33286211 0.026087286 -0.085655741 4289108607
-0.33352238 0.028126789 -0.085501999 4289306240
-0.33500531 0.030854959 -0.086491145 4289438082
-0.33484983 0.032227561 -0.085192733 4289372546
-0.33510524 0.033941701 -0.084466897 4289306753
-0.33536074 0.035656068 -0.083740957 4289372031
-0.33561623 0.037370719 -0.083014891 4289306238
-0.33628482 0.039441574 -0.082855187 4289174909
-0.33654085 0.041159667 -0.082127675 4289174655
-0.33638296 0.042516161 -0.08083608 4289174655
-0.3366386 0.044231798 -0.080109604 4289240703
-0.33648086 0.045581184 -0.07882341 4289240960
-0.33673614 0.047294412 -0.078097962 4289371006
-0.33740577 0.04938028 -0.077929534 4289497202
-0.33807769 0.051473506 -0.077760346 4289352012
-0.33959237 0.054339852 -0.078713171 4289349955
-0.34069711 0.056845792 -0.079108939 4289416521
-0.34223866 0.059765577 -0.080076896 4289292633
-0.34034139 0.0056239264 -0.11980677 4290213735
-0.33928901 0.0064766831 -0.11707211 4289810249
-0.3382479 0.0073205642 -0.11436661 4289676349
-0.33721796 0.0081557631 -0.11168978 4289347910
-0.33662501 0.0092958827 -0.10967198 4289422688
-0.33603626 0.010428206 -0.10766821 4289632641
-0.3358742 0.011869214 -0.1063 4289439376
-0.33529127 0.012987107 -0.10431837 4289307532
-0.33471242 0.014097429 -0.10235048 4289241993
-0.33455417 0.015520272 -0.1010031 4289306760
-0.33398101 0.016616566 -0.099056758 4289241223
-0.33341181 0.017705519 -0.097123802 4289110407
-0.3320294 0.018143721 -0.094024718 4289109893
-0.33066592 0.018576231 -0.090967819 4289241220
-0.32971868 0.019321386 -0.088522635 4289241477
-0.32917663 0.020378221 -0.086667404 4289240708
-0.32903278 0.021748925 -0.085386723 4289110404
-0.32888949 0.023115234 -0.084110275 4289372550
-0.33073062 0.026115024 -0.085646324 4289043841
-0.33098367 0.027814075 -0.084926985 4289372290
-0.33163849 0.029850064 -0.084772475 4289569666
-0.3310892 0.030874472 -0.082926162 4289438594
-0.33174309 0.032912694 -0.082768328 4289307266
-0.33199632 0.034612734 -0.08204855 4289372546
-0.33224958 0.036313038 -0.081328675 4289372290
-0.33290672 0.03836472 -0.081167527 4289306753
-0.33316046 0.040068403 -0.080446221 4289306753
-0.33341429 0.041772343 -0.079724804 4289437825
-0.33366811 0.043476507 -0.079003274 4289437569
-0.333922 0.045180969 -0.078281641 4289372033
-0.33417588 0.046885662 -0.077559918 4289372545
-0.33442986 0.048590604 -0.076838061 4289632891
-0.3355017 0.05104237 -0.07722225 4288831580
-0.33699524 0.053891949 -0.078167394 4288891204
-0.33808526 0.056383606 -0.078559257 4289153861
-0.33918279 0.058892731 -0.078953691 4289089102
-0.3407138 0.061818566 -0.079919055 4289952618
-0.33849877 0.0060362327 -0.12033533 4289947742
-0.33789253 0.007199706 -0.11825795 4289807169
-0.33642861 0.007725921 -0.1148993 4289675838
-0.3358362 0.0088715265 -0.11286304 4289283145
-0.33482441 0.0096945809 -0.11020823 4289227882
-0.33424297 0.010823743 -0.10820616 4289569673
-0.33408424 0.012261727 -0.10683941 4289439630
-0.33309233 0.013059184 -0.10424361 4289373580
-0.33293679 0.01448377 -0.10289303 4289242251
-0.33236915 0.015583582 -0.10094028 4289372809
-0.33221573 0.016996913 -0.099602237 4289372808
-0.33165357 0.018082872 -0.097670741 4289241736
-0.33068973 0.018839249 -0.095161833 4289175943
-0.32973579 0.019588109 -0.092678517 4289175686
-0.32879162 0.020329563 -0.090220459 4289241735
-0.32825169 0.021384973 -0.088356346 4289306500
-0.32771543 0.022433506 -0.086504698 4289175426
-0.32757425 0.023798864 -0.085226394 4289503879
-0.32821876 0.02581403 -0.085073657 4289109377
-0.32729355 0.026516626 -0.082682349 4289438596
-0.32715392 0.027868986 -0.08141654 4289701252
-0.32701483 0.029217148 -0.08015494 4289635460
-0.32765412 0.03122882 -0.079994269 4289438596
-0.32790431 0.032909099 -0.079282977 4289438340
-0.32933381 0.035616845 -0.08022359 4289438341
-0.32958534 0.037306104 -0.079508476 4289438342
-0.32983688 0.038995624 -0.07879328 4289438598
-0.33048549 0.041038696 -0.078628749 4289504134
-0.33073756 0.042731568 -0.0779121 4289569670
-0.33098963 0.044424694 -0.077195376 4289635463
-0.33164144 0.046481166 -0.077027537 4289570437
-0.33189401 0.048177667 -0.076309383 4289635203
-0.33295172 0.050615743 -0.07668981 4288970105
-0.3344245 0.053448759 -0.07762742 4289153348
-0.33550003 0.055926315 -0.078015469 4289218113
-0.33658296 0.058421127 -0.078406006 4289348932
-0.33893487 0.06212607 -0.080498144 4289420121
-0.33622956 0.0061337426 -0.12020125 4289681494
-0.33563355 0.0072929589 -0.11813177 4289807423
-0.33461547 0.0081299488 -0.11543027 4289675582
-0.33360827 0.0089583108 -0.11275732 4289348682
-0.33302993 0.010091979 -0.11074284 4289229168
-0.33245572 0.011218006 -0.10874242 4289637009
-0.33188555 0.012336372 -0.1067559 4289571216
-0.33131936 0.013447219 -0.10478306 4289439632
-0.33075723 0.014550592 -0.10282385 4289373582
-0.33019897 0.015646601 -0.1008781 4289373069
-0.33004978 0.017055126 -0.099544808 4289438603
-0.32990113 0.018459087 -0.098216012 4289307272
-0.32894787 0.019212415 -0.095708594 4289241993
-0.32840264 0.020280365 -0.093810044 4289176201
-0.32746521 0.02101852 -0.091346219 4289175944
-0.32692969 0.02207179 -0.089478292 4289372036
-0.32639784 0.023118205 -0.087622881 4289633661
-0.32586959 0.024157841 -0.085779898 4289304707
-0.32534492 0.0251907 -0.083949119 4289239681
-0.32482383 0.02621693 -0.082130536 4289569927
-0.32468894 0.02756325 -0.080872022 4289767304
-0.32417271 0.028576968 -0.079072535 4289767048
-0.32442069 0.030243218 -0.078367278 4289701513
-0.3250514 0.032243669 -0.078204662 4289701258
-0.32529989 0.033913184 -0.077498004 4289701258
-0.32593319 0.035923567 -0.077333435 4289635979
-0.32656866 0.037940972 -0.077168234 4289570699
-0.32720631 0.03996535 -0.077002361 4289571212
-0.32784608 0.041996762 -0.076835796 4289702284
-0.32848811 0.044035256 -0.07666862 4289767820
-0.32913232 0.046080891 -0.076500744 4289701773
-0.3297787 0.048133634 -0.076332189 4289635721
-0.33082563 0.050563566 -0.076711468 4289235841
-0.33147824 0.052634835 -0.076542199 4289482059
-0.33294097 0.055473827 -0.077477403 4289283137
-0.33524129 0.059121575 -0.079543725 4289349187
-0.33632702 0.06163647 -0.079940781 4289350738
-0.33742034 0.064169072 -0.080340542 4290741622
-0.33456653 0.0050677867 -0.12214462 4289622111
-0.33397633 0.0062307213 -0.12006835 4289744201
-0.33339033 0.0073856511 -0.11800672 4289807678
-0.33280852 0.0085326349 -0.11595957 4289610302
-0.33223087 0.0096718203 -0.11392685 4289283403
-0.33124149 0.010488156 -0.11127581 4289295475
-0.33067447 0.011611019 -0.10927702 4289637525
-0.33011144 0.012726251 -0.10729209 4289637011
-0.32914525 0.013517552 -0.1047075 4289571219
-0.32899719 0.014934358 -0.10336319 4289439633
-0.32844591 0.016027361 -0.10141895 4289373583
-0.32789847 0.01711309 -0.099487983 4289373324
-0.32775396 0.018512305 -0.09816388 4289373065
-0.3272118 0.01958444 -0.096253775 4289307530
-0.3266733 0.020649502 -0.094356559 4289307274
-0.32574621 0.021384729 -0.09189415 4289503628
-0.32482854 0.022112723 -0.089456595 4289437574
-0.32430547 0.023155697 -0.08760757 4289757808
-0.32340279 0.023869215 -0.085211769 4289032299
-0.3225092 0.024575844 -0.082839809 4289235576
-0.32200086 0.025597475 -0.081036963 4289832845
-0.32149598 0.02661261 -0.079246007 4289899409
-0.32099447 0.027621258 -0.077466719 4289833615
-0.32124031 0.029273981 -0.076767303 4289833359
-0.32186049 0.031256478 -0.076603375 4289833102
-0.32248279 0.033245806 -0.076438837 4289898894
-0.32310715 0.035241991 -0.076273642 4289898894
-0.32373363 0.03724499 -0.07610774 4289702288
-0.32474443 0.039601181 -0.076481119 4289768336
-0.325762 0.041973319 -0.076856844 4289767823
-0.32639831 0.044005137 -0.076690271 4289898639
-0.32703671 0.046044037 -0.076522991 4290030481
-0.3276774 0.048090048 -0.0763551 4289898894
-0.32871357 0.050511807 -0.076733135 4289763459
-0.33055383 0.053702053 -0.078217544 4289679439
-0.33161053 0.056168232 -0.07860563 4289414210
-0.33308139 0.059040379 -0.079556115 4289348674
-0.33415589 0.061546557 -0.079951875 4289415242
-0.33523783 0.064070284 -0.080350257 4290473827
-0.3327435 0.0054790592 -0.12266685 4289751641
-0.33216071 0.0066386736 -0.12059237 4289742915
-0.33158216 0.0077903187 -0.11853258 4289807165
-0.33100772 0.0089340787 -0.11648726 4289675325
-0.33043736 0.010070016 -0.11445622 4289480524
-0.32987106 0.011198257 -0.11243939 4289427060
-0.32930875 0.012318815 -0.11043655 4289769367
-0.32834324 0.01311494 -0.10782664 4289571477
-0.32738784 0.013903018 -0.10524376 4289505683
-0.32724306 0.015316962 -0.10390091 4289505426
-0.3263 0.016088767 -0.10135586 4289439376
-0.32615811 0.017489716 -0.10002867 4289439118
-0.32562128 0.018565303 -0.098112307 4289438860
-0.32508808 0.01963379 -0.096208878 4289373324
-0.32455865 0.02069528 -0.094318315 4289832078
-0.32403278 0.021749813 -0.092440456 4289762699
-0.32312524 0.022474971 -0.090004243 4289626738
-0.32222688 0.023193048 -0.087592475 4289351509
-0.32133758 0.023904199 -0.08520478 4289020231
-0.32045716 0.024608484 -0.082840763 4289161312
-0.3195855 0.025306063 -0.080500089 4290027657
-0.31909099 0.026317326 -0.078719743 4290228376
-0.31859976 0.027322216 -0.076950997 4290030999
-0.31884435 0.028966967 -0.076255053 4289899411
-0.31908897 0.030611986 -0.075558975 4289899410
-0.32007259 0.032918569 -0.075926527 4289899411
-0.32068983 0.034904517 -0.075761311 4289964690
-0.32168376 0.037237242 -0.076131165 4290030737
-0.32268429 0.039585743 -0.076503344 4289965713
-0.32331112 0.041600041 -0.076337427 4290096528
-0.32432219 0.04397535 -0.076711953 4290227345
-0.32495499 0.046007577 -0.076545328 4290161809
-0.32558993 0.048046894 -0.076378033 4290029967
-0.32700539 0.050829127 -0.077301599 4290159495
-0.3284353 0.053639874 -0.078234449 4290008148
-0.32987982 0.056479543 -0.079176679 4289611076
-0.33093596 0.058959831 -0.079568587 4289414465
-0.33240581 0.06185174 -0.080525585 4289546052
-0.33347982 0.064372428 -0.080925286 4290141781
-0.33497566 0.06731794 -0.081897415 4291336060
-0.33092672 0.0058890018 -0.12318739 4289816663
-0.33035138 0.0070453305 -0.12111481 4289742657
-0.32978016 0.0081936801 -0.1190568 4289741373
-0.32921302 0.0093342122 -0.11701328 4289806143
-0.3290619 0.010782519 -0.11562412 4289547859
-0.32850036 0.011908467 -0.11360321 4289364091
-0.32753563 0.012709469 -0.11096769 4289572762
-0.32698435 0.013819371 -0.10898034 4289571479
-0.32563633 0.014287326 -0.10577842 4289571476
-0.32509735 0.015380835 -0.1038293 4289440146
-0.3241685 0.016149873 -0.10129338 4289439378
-0.32363927 0.017228166 -0.09937609 4289505683
-0.32311368 0.018299364 -0.097471774 4289636498
-0.32297865 0.019682961 -0.09616451 4289832848
-0.32245806 0.02074088 -0.094280511 4290090382
-0.32155836 0.021471079 -0.091835119 4289490541
-0.32104701 0.022514602 -0.08998134 4289612358
-0.32053909 0.023551382 -0.088139862 4289543485
-0.31928587 0.023939082 -0.085198112 4289346365
-0.3184185 0.024641076 -0.082841955 4289217610
-0.31719372 0.02501764 -0.079968706 4289293927
-0.31670943 0.026025079 -0.07819888 4290026375
-0.31586748 0.026707288 -0.075911291 4290359190
-0.3161104 0.028341526 -0.075219877 4290162838
-0.31635335 0.02997599 -0.074528389 4290030740
-0.31732151 0.032265574 -0.074890167 4289965204
-0.31829613 0.034570467 -0.075254261 4290030997
-0.31890836 0.036553025 -0.075088359 4290031252
-0.3202647 0.039226692 -0.075989291 4289965971
-0.32125887 0.041578341 -0.076360352 4290096787
-0.32188222 0.043593034 -0.076194324 4290227347
-0.32326722 0.046329454 -0.077109486 4290293138
-0.3238982 0.048366074 -0.076943442 4290227603
-0.32491633 0.050777003 -0.077321574 4290619787
-0.32633075 0.053578205 -0.078251399 4290534747
-0.32736588 0.056027684 -0.078637004 4289938757
-0.32880488 0.058880005 -0.079581216 4289611073
-0.33025873 0.061761815 -0.080535017 4289611587
-0.33172756 0.064673603 -0.081498556 4289811794
-0.33321169 0.067615815 -0.082471937 4290873720
-0.32911614 0.0062976093 -0.12370628 4289816665
-0.32854816 0.0074506518 -0.12163559 4289742402
-0.3279843 0.0085957861 -0.1195794 4289676097
-0.32783499 0.010047908 -0.11818342 4289677900
-0.32727662 0.01117835 -0.11615003 4289620329
-0.32672226 0.012301136 -0.11413081 4289369995
-0.32617182 0.013416315 -0.11212563 4289441178
-0.32522422 0.014205743 -0.10951149 4289637273
-0.32389054 0.01467041 -0.1063114 4289571992
-0.32296619 0.015444381 -0.10375846 4289375126
-0.32205135 0.016210694 -0.10123158 4289439896
-0.32153109 0.017285315 -0.099321052 4289506202
-0.32063136 0.018036248 -0.096837908 4289834137
-0.32050115 0.019413469 -0.095538422 4290354064
-0.31999144 0.020467134 -0.093666062 4289552753
-0.31948525 0.021514008 -0.091806248 4289610561
-0.31898245 0.022554109 -0.089958772 4289543996
-0.31848302 0.02358746 -0.088123485 4289543742
-0.31761664 0.024293495 -0.085745059 4289740096
-0.31639305 0.024673572 -0.082843326 4289872196
-0.31554699 0.025366634 -0.080518045 4289873480
-0.31470928 0.026053129 -0.078215465 4289619037
-0.31387973 0.026733153 -0.0759352 4289826691
-0.31376618 0.028042769 -0.074721381 4290227611
-0.31400788 0.029669492 -0.074033253 4290229148
-0.31496358 0.031947091 -0.074391678 4290031512
-0.31592563 0.034239866 -0.074752368 4290096791
-0.31689399 0.036547855 -0.075115301 4290096789
-0.31786877 0.038871307 -0.075480498 4290031252
-0.31885004 0.041210361 -0.075848043 4290293655
-0.32058463 0.044269487 -0.077294938 4290490779
-0.32120791 0.046292491 -0.077130161 4290753944
-0.32183325 0.048322458 -0.076964721 4290492059
-0.32284105 0.050725378 -0.077341683 4290424468
-0.32385561 0.053144652 -0.077721082 4290476399
-0.32526463 0.055958282 -0.078652821 4290334545
-0.32668802 0.058800805 -0.079593964 4290003779
-0.32812604 0.061672639 -0.080544613 4289742146
-0.32957885 0.064574189 -0.081504904 4289745233
-0.33104667 0.067505971 -0.082474992 4290412405
-0.32731178 0.0067049158 -0.12422361 4289751902
-0.32675114 0.0078546535 -0.1221547 4289742920
-0.32619452 0.008996563 -0.12010037 4289677643
-0.32645667 0.010761705 -0.11935379 4289619303
-0.32590309 0.011889848 -0.1173163 4289697162
-0.32575825 0.013329275 -0.11593146 4289638043
-0.32480773 0.014123273 -0.11328375 4289572251
-0.32426578 0.015228668 -0.11128838 4289572251
-0.32254282 0.015369241 -0.10745557 4289441180
-0.32084939 0.015507665 -0.10368829 4289441436
-0.31956589 0.015957054 -0.10057659 4289572508
-0.3190566 0.017027263 -0.098677993 4289637531
-0.31855077 0.018090507 -0.096792124 4290096280
-0.31804842 0.01914685 -0.094918862 4289424762
-0.3179234 0.020513387 -0.09363123 4289806143
-0.31742573 0.021556782 -0.091777749 4289608765
-0.31730247 0.022912938 -0.090501606 4289609276
-0.31680942 0.023943597 -0.088667624 4289805119
-0.31631967 0.024967665 -0.086845681 4290001987
-0.31546828 0.025663801 -0.0844853 4290330693
-0.31426477 0.026033428 -0.081606068 4290528324
-0.31343329 0.026716866 -0.079298154 4290397511
-0.31260988 0.027393844 -0.077012628 4289943638
-0.31249833 0.028702594 -0.075797081 4289888378
-0.31273994 0.030329505 -0.075108968 4290226329
-0.31333596 0.032282524 -0.074944943 4290360990
-0.31429103 0.034572829 -0.075306885 4290228377
-0.31489259 0.036542851 -0.075142227 4290161814
-0.31694886 0.039883491 -0.07710512 4290292371
-0.31792861 0.042229909 -0.077478632 4290490521
-0.3185443 0.04423945 -0.077315077 4290360739
-0.31916201 0.04625589 -0.077150889 4290622366
-0.31978181 0.048279244 -0.076985992 4290623901
-0.32077932 0.050674219 -0.077361859 4290294425
-0.32178357 0.053085454 -0.077740066 4290420104
-0.32279453 0.055513099 -0.078120694 4290540396
-0.32458523 0.058722291 -0.079606824 4290400079
-0.32600754 0.06158416 -0.080554299 4290004291
-0.32784173 0.064873748 -0.082074627 4289745232
-0.32929802 0.067802265 -0.083046012 4290346100
-0.32536784 0.008570713 -0.12332939 4289746523
-0.3252227 0.010025615 -0.12192447 4289878367
-0.3250781 0.011475663 -0.12052438 4289825411
-0.32493407 0.012920823 -0.11912908 4289835165
-0.32479057 0.014361164 -0.11773861 4289704095
-0.32384339 0.015151346 -0.11507681 4289703839
-0.32290617 0.015933493 -0.1124427 4289507231
-0.32119486 0.016068185 -0.10859994 4289572766
-0.31912917 0.015885174 -0.10421979 4289703579
-0.31748182 0.016018234 -0.10051813 4289834646
-0.3169812 0.017084861 -0.098626152 4289833618
-0.31611186 0.017830918 -0.096167475 4290290822
-0.31599018 0.0191973 -0.094879992 4289550429
-0.31549969 0.020243339 -0.09302558 4289739838
-0.31574818 0.021917198 -0.092317738 4289871419
-0.31562784 0.02327068 -0.091042824 4289936189
-0.31550798 0.024619928 -0.08977209 4290001727
-0.3153885 0.025964903 -0.088505484 4290198594
-0.31417742 0.026334915 -0.085580692 4290461508
-0.31298235 0.026700348 -0.082694262 4290593348
-0.31215706 0.027380718 -0.080381036 4290528325
-0.31169209 0.028374713 -0.078621313 4290331976
-0.31123024 0.029362524 -0.076872967 4290007894
-0.31147179 0.030989634 -0.076184884 4290017912
-0.31206566 0.032943916 -0.076022625 4290488729
-0.3133727 0.035569418 -0.076918118 4290755489
-0.31433254 0.037882183 -0.077288181 4290360221
-0.31529874 0.040210407 -0.077660561 4290358682
-0.31627136 0.042554282 -0.07803534 4290621851
-0.31688321 0.044561218 -0.077872947 4290557859
-0.3174971 0.046575055 -0.077709988 4290622883
-0.31774375 0.048236441 -0.077007398 4290689441
-0.31873107 0.050623514 -0.077382043 4290558111
-0.31972507 0.05302674 -0.077759124 4290622618
-0.32072571 0.055446304 -0.078138575 4290747785
-0.32211411 0.058262743 -0.079069227 4290735718
-0.3239032 0.061496422 -0.080564179 4290399051
-0.32571673 0.064774439 -0.082079396 4289942096
-0.32755515 0.068097636 -0.083615266 4290345842
-0.3239843 0.0092868758 -0.12450432 4289755514
-0.32384154 0.010740748 -0.12309732 4289952635
-0.3236993 0.012189739 -0.12169517 4290029718
-0.32355762 0.013633847 -0.12029783 4289967009
-0.32341647 0.015073147 -0.11890531 4289901217
-0.32247645 0.015859798 -0.1162374 4289769890
-0.32154626 0.016638458 -0.11359727 4289573281
-0.31945902 0.016447911 -0.10912778 4289638305
-0.31703576 0.015946856 -0.10414885 4289703839
-0.31541157 0.016079176 -0.10046028 4289769114
-0.31455001 0.016830241 -0.097992465 4289571478
-0.3140634 0.01788565 -0.096124738 4290160781
-0.3139455 0.019247597 -0.094841652 4289554542
-0.31346339 0.020290177 -0.092993557 4289805631
-0.31371099 0.021958655 -0.092288069 4290001981
-0.31395862 0.023627376 -0.091582477 4290132801
-0.31384158 0.024973975 -0.090312973 4290198852
-0.31408888 0.026640428 -0.089608341 4290330180
-0.31288633 0.027006179 -0.086676277 4290592835
-0.31205598 0.027689464 -0.084328309 4290724421
-0.31123382 0.02836629 -0.082003288 4290724677
-0.31077108 0.029358909 -0.080235466 4290724420
-0.31031135 0.030345293 -0.078478992 4290528583
-0.31055319 0.031975273 -0.077789798 4290270041
-0.31114653 0.033934534 -0.077629954 4290345594
-0.31209588 0.036234397 -0.078001291 4290488470
-0.31305146 0.038549535 -0.078374907 4290426782
-0.31401336 0.040880155 -0.078750893 4290492067
-0.3149817 0.043226432 -0.079129279 4290754979
-0.31522736 0.044882074 -0.078429237 4290820773
-0.31583744 0.046893273 -0.078267425 4290821032
-0.31644958 0.048911411 -0.078105018 4290821289
-0.31706375 0.050936494 -0.077941954 4290755753
-0.31805044 0.053336974 -0.078320265 4290755238
-0.31867042 0.055380072 -0.078156531 4290949788
-0.3200438 0.058186937 -0.079084158 4291071362
-0.32181278 0.061409369 -0.08057414 4290861661
-0.32360587 0.064675868 -0.082084306 4290335057
-0.32621381 0.068798408 -0.084752537 4290477680
-0.32260051 0.010003179 -0.12567943 4289831825
-0.32205835 0.011138127 -0.12361269 4289897108
-0.32232025 0.012903945 -0.12286618 4289965984
-0.3221809 0.014347007 -0.1214668 4290032548
-0.32164317 0.01546147 -0.11942542 4290032549
-0.32071403 0.016244916 -0.11675946 4289901477
-0.3197946 0.017020456 -0.11412123 4289770148
-0.31772894 0.016826494 -0.10965402 4289769634
-0.3153303 0.016321959 -0.10467725 4289704353
-0.31335503 0.016139818 -0.10040303 4289703838
-0.31250665 0.016888266 -0.097943775 4289637529
-0.31202835 0.017940138 -0.096082434 4289899414
-0.31191418 0.019297676 -0.094803758 4289497224
-0.31144032 0.020336807 -0.092961907 4289938761
-0.31168702 0.021999961 -0.092258774 4290199105
-0.31229466 0.02398302 -0.092120513 4290264388
-0.31254184 0.025649421 -0.091416009 4290330695
-0.31242731 0.026990838 -0.090148777 4290527558
-0.31159502 0.02767756 -0.087772064 4290789701
-0.31077096 0.028357733 -0.085418709 4290855236
-0.31030735 0.029355234 -0.083631106 4290854979
-0.30984679 0.030346436 -0.081855088 4290854722
-0.30938926 0.031331424 -0.080090478 4290854980
-0.30963144 0.032964226 -0.079400189 4290660174
-0.31022415 0.034928519 -0.079242721 4290405993
-0.31117195 0.037235577 -0.079619922 4290289807
-0.31212604 0.039558023 -0.079999529 4290624420
-0.31308639 0.041896034 -0.080381498 4290756267
-0.31369177 0.043898731 -0.080223426 4290953387
-0.31429917 0.045908261 -0.080064707 4290952875
-0.31454524 0.047567073 -0.079363413 4290952877
-0.31515515 0.049586535 -0.079202838 4290953134
-0.31540167 0.05124858 -0.078500196 4290953390
-0.31601411 0.053277981 -0.078337684 4290887340
-0.31699726 0.055686697 -0.078717202 4291017895
-0.31798702 0.058111731 -0.079099163 4291144346
-0.31973618 0.061323091 -0.080584303 4291000697
-0.32189289 0.064973108 -0.082648858 4290730333
-0.32487226 0.069499314 -0.085890017 4290548347
-0.32041728 0.010086492 -0.1255303 4289769631
-0.32028115 0.011534232 -0.12412646 4289967269
-0.32054251 0.01329714 -0.12338126 4290032291
-0.32040647 0.014737187 -0.12198348 4289967524
-0.31987584 0.01584857 -0.11994389 4289901989
-0.31895748 0.016628822 -0.11727987 4289836198
-0.31804872 0.017401196 -0.11464353 4289967270
-0.31600454 0.01720388 -0.11017865 4289901474
-0.31325993 0.0163821 -0.10460549 4289835683
-0.31167552 0.01651052 -0.10093177 4289770145
-0.31083688 0.017256051 -0.098473996 4289835166
-0.31000665 0.017994422 -0.096040651 4289834911
-0.30989611 0.019347543 -0.094766259 4289961367
-0.30943045 0.020383263 -0.092930719 4290267989
-0.30967626 0.022041108 -0.092229933 4290396231
-0.31027848 0.024017856 -0.092092097 4290462025
-0.31052473 0.025678935 -0.091389947 4290397003
-0.31112939 0.027665488 -0.091250226 4290593610
-0.31030345 0.028349055 -0.088868052 4290855240
-0.3094857 0.02902611 -0.08650931 4290986053
-0.30902621 0.030021619 -0.084718153 4290920259
-0.30891925 0.031337298 -0.08348015 4290985539
-0.30881268 0.032648969 -0.082246147 4290985799
-0.3090556 0.034287296 -0.081553601 4290792276
-0.30929852 0.03592588 -0.08086098 4290539632
-0.31024477 0.038240176 -0.081244104 4290621853
-0.31119728 0.04056992 -0.081629656 4291019181
-0.31215611 0.042915355 -0.08201769 4291084976
-0.31312135 0.045276519 -0.082408167 4291216046
-0.31336769 0.046938024 -0.081705838 4291216047
-0.31361407 0.048599787 -0.081003405 4291150512
-0.31386051 0.050261777 -0.080300868 4291150511
-0.31447023 0.052289493 -0.080141492 4291150512
-0.31471714 0.053954769 -0.079437569 4291084974
-0.31532937 0.055992436 -0.079276226 4291149739
-0.3163119 0.058414694 -0.079659462 4291279525
-0.31804678 0.061622847 -0.081145853 4291272336
-0.32018551 0.065269478 -0.083211713 4290866806
-0.32392305 0.070610419 -0.087603353 4290751122
-0.3186428 0.010484377 -0.12604089 4290096795
-0.31850997 0.011929073 -0.12463864 4290426790
-0.3187708 0.013689088 -0.12389478 4290098088
-0.31824577 0.014804091 -0.12184862 4289967784
-0.31772447 0.015911525 -0.11981665 4289901990
-0.3172068 0.017011497 -0.1177987 4289967783
-0.31630865 0.017780764 -0.11516422 4290032805
-0.31428581 0.017580062 -0.11070167 4290032806
-0.31193602 0.01706874 -0.10572939 4290033062
-0.3100014 0.016880075 -0.1014589 4290032548
-0.3088156 0.017312609 -0.098424368 4289901478
-0.30835181 0.018358242 -0.096570715 4289901220
-0.30789119 0.019397201 -0.094729289 4290752414
-0.30743361 0.020429546 -0.092899896 4290469480
-0.30802998 0.022397054 -0.092763707 4290528849
-0.30862838 0.024371319 -0.092627011 4290594638
-0.30887422 0.026029833 -0.091926038 4290594640
-0.30947506 0.028013898 -0.091787502 4290724943
-0.30901164 0.029020678 -0.089964263 4290921035
-0.30820021 0.029694611 -0.087600112 4291051590
-0.30809414 0.031015158 -0.086353481 4290985795
-0.30798844 0.032331567 -0.085110791 4290985796
-0.30823204 0.033975225 -0.084416121 4290986571
-0.30812636 0.03528513 -0.083178423 4290794590
-0.30871937 0.037263293 -0.083026424 4290743686
-0.30966672 0.039589804 -0.083417967 4291084975
-0.3106204 0.041931938 -0.083812013 4291413426
-0.31158045 0.044289798 -0.084208563 4291412912
-0.31218618 0.046306856 -0.084056079 4291478448
-0.31279394 0.048330814 -0.083902948 4291347377
-0.31304109 0.049998298 -0.083198197 4291282355
-0.31328824 0.05166601 -0.082493357 4291347889
-0.31353545 0.053333987 -0.081788376 4291347376
-0.31378269 0.055002201 -0.08108332 4291281841
-0.31439435 0.057045266 -0.080924533 4291216048
-0.31537527 0.059475254 -0.081313871 4291149739
-0.31673414 0.0623083 -0.082258902 4291147423
-0.31886169 0.065960936 -0.084334195 4290879373
-0.32257867 0.071312763 -0.08874321 4290687902
-0.31687436 0.010880979 -0.1265499 4290094738
-0.31635585 0.012005527 -0.12449463 4290164133
-0.31661567 0.01375958 -0.12375341 4290033836
-0.31648707 0.015191673 -0.12236235 4290098601
-0.31635895 0.01661906 -0.12097605 4289967785
-0.31546202 0.017393002 -0.11831596 4289902505
-0.31457436 0.018159181 -0.11568339 4290099881
-0.31332028 0.018595738 -0.1124575 4290164649
-0.31097788 0.018071646 -0.10745591 4290164648
-0.30904961 0.017872771 -0.1031609 4290295721
-0.30786809 0.018299593 -0.10010988 4290098602
-0.30705386 0.019031907 -0.097672448 4290032551
-0.30659747 0.020068852 -0.095827386 4290688420
-0.30614409 0.021099187 -0.093994386 4290216579
-0.30638891 0.022751957 -0.093295962 4290532189
-0.30698353 0.02472372 -0.093160346 4290726225
-0.30722886 0.026379718 -0.092460535 4290791506
-0.30747423 0.028035956 -0.091760658 4290856528
-0.3073687 0.029365437 -0.090501197 4290921292
-0.30726352 0.03069081 -0.089245774 4290986312
-0.30750817 0.032342304 -0.088547871 4291051590
-0.307403 0.033661071 -0.087297522 4290986055
-0.30729827 0.034975767 -0.086051196 4290922577
-0.30719388 0.03628638 -0.084808812 4290798958
-0.30778623 0.038269628 -0.084659256 4291080095
-0.30873203 0.040603478 -0.085056834 4291413942
-0.3096841 0.042953014 -0.085456938 4291544756
-0.31064257 0.045318414 -0.085859627 4291675570
-0.31124765 0.047340702 -0.085709617 4291609522
-0.31185484 0.049369983 -0.085559063 4291413427
-0.31246406 0.051406283 -0.08540789 4291348149
-0.31271201 0.053079765 -0.084700681 4291347637
-0.31295994 0.054753486 -0.083993405 4291413173
-0.31320795 0.056427475 -0.083285987 4291413685
-0.31345597 0.058101714 -0.082578503 4291413427
-0.31443533 0.060539491 -0.082974046 4291281583
-0.31542125 0.062993899 -0.083372146 4291084203
-0.31753764 0.066652514 -0.085456893 4291016867
-0.32123408 0.072015263 -0.089883268 4290820515
-0.31498551 0.012715021 -0.12565827 4289836198
-0.3152453 0.014469273 -0.12491706 4290230957
-0.31473428 0.015578059 -0.1228745 4290164392
-0.31422684 0.016679376 -0.12084604 4290099115
-0.31410331 0.018097179 -0.11946955 4290099113
-0.31322265 0.018859899 -0.116831 4290165931
-0.31160566 0.018969802 -0.11297701 4290230701
-0.30965123 0.018759688 -0.10858212 4290557868
-0.30773628 0.018554077 -0.10427577 4290296235
-0.30656347 0.018976545 -0.10121732 4290230700
-0.30575567 0.019705718 -0.098774396 4290098602
-0.30495593 0.020427907 -0.096355595 4290360999
-0.30450866 0.021455549 -0.094523907 4290421145
-0.30475304 0.023105793 -0.093826637 4290667628
-0.30569148 0.025394984 -0.094256893 4290858070
-0.30663624 0.027699647 -0.094689928 4290988370
-0.30653158 0.029034056 -0.093421556 4290987856
-0.30642736 0.030364286 -0.092157245 4290987341
-0.30667272 0.03202121 -0.091457143 4291052363
-0.30691808 0.033678375 -0.090756983 4291052363
-0.30681351 0.034999501 -0.089498892 4291117902
-0.30670929 0.036316499 -0.088244826 4291056734
-0.306954 0.037968945 -0.087546624 4290872454
-0.30754882 0.039965007 -0.087400846 4291282101
-0.30814561 0.041967876 -0.08725448 4291610810
-0.30909887 0.044329952 -0.087663256 4291741880
-0.31005847 0.04670798 -0.088074617 4291676600
-0.31066456 0.048739545 -0.087927841 4291742136
-0.31127271 0.050778113 -0.087780453 4291742392
-0.31188294 0.052823775 -0.087632515 4291545272
-0.31213161 0.054503057 -0.086922966 4291479225
-0.31238031 0.056182604 -0.086213328 4291479480
-0.31262907 0.05786239 -0.085503571 4291414199
-0.31287783 0.059542421 -0.084793739 4291479733
-0.31349197 0.061607428 -0.084640011 4291413426
-0.31447634 0.064069755 -0.085044399 4291216047
-0.31621334 0.067344233 -0.08657977 4291215533
-0.31988922 0.072717868 -0.091023557 4291214757
-0.31323218 0.013106112 -0.1261657 4289967010
-0.31310952 0.014537038 -0.12477302 4290689449
-0.31298733 0.015963217 -0.12338506 4290426536
-0.3124868 0.017061502 -0.12135842 4290361770
-0.31198972 0.018152388 -0.11934566 4290361516
-0.31112298 0.018912397 -0.11671687 4290297007
-0.30989671 0.019342743 -0.11349504 4290493871
-0.30868709 0.019767461 -0.11031687 4290624688
-0.30677855 0.019551525 -0.10598576 4290362800
-0.30561012 0.019968221 -0.10291076 4290428078
-0.30445722 0.02037964 -0.099876538 4290296236
-0.30400929 0.021412535 -0.098024219 4290361515
-0.30322078 0.022124322 -0.095616996 4291016103
-0.30312225 0.023458585 -0.094355769 4291004036
-0.30370942 0.025425456 -0.094222397 4290929254
-0.30429849 0.027399046 -0.094088502 4290990684
-0.30419818 0.028727565 -0.092827387 4291054168
-0.30478817 0.0307071 -0.092690967 4291118934
-0.30538014 0.032693412 -0.092553966 4291183956
-0.30562547 0.03435076 -0.09185379 4291118933
-0.30621988 0.036346912 -0.091715008 4291054683
-0.30611622 0.037666243 -0.09045314 4291062131
-0.30636165 0.039324343 -0.089752652 4291342496
-0.30695739 0.041329436 -0.089610092 4291545275
-0.30790812 0.043693263 -0.090027444 4291742140
-0.3085095 0.045716144 -0.089884423 4291939259
-0.30947027 0.048106931 -0.090304561 4291742395
-0.31007731 0.050147846 -0.09016107 4291742396
-0.31068644 0.052195821 -0.090016998 4291741625
-0.31129763 0.054250915 -0.089872248 4291676344
-0.31154707 0.055936042 -0.089160353 4291611066
-0.31179655 0.057621423 -0.088448338 4291611067
-0.31204605 0.059307057 -0.087736227 4291545274
-0.31229559 0.060992915 -0.087024011 4291545017
-0.31291074 0.063067518 -0.086873569 4291610294
-0.31352797 0.065149367 -0.086722456 4291281842
-0.31526139 0.068436868 -0.088271827 4291346863
-0.31854409 0.073420621 -0.092164055 4291608485
-0.31148472 0.013495989 -0.12667161 4289964953
-0.31136525 0.014923926 -0.12528045 4290558376
-0.31124622 0.016347155 -0.12389405 4290427823
-0.31037867 0.017120218 -0.12122817 4290492588
-0.31026229 0.018530313 -0.1198582 4290558895
-0.30940586 0.019287299 -0.11723129 4290559922
-0.3081933 0.019714518 -0.11401141 4290756530
-0.3073577 0.020456914 -0.1114454 4290691250
-0.30581737 0.020552425 -0.10770166 4290494387
-0.30465335 0.02096335 -0.10461011 4290559408
-0.30350485 0.021369021 -0.10155953 4290558894
-0.30237156 0.021769593 -0.098549195 4290690223
-0.30227405 0.023108812 -0.097279102 4291281330
-0.30217686 0.024443842 -0.096013069 4291210399
-0.30276331 0.026415791 -0.095882244 4290941064
-0.30300805 0.028069651 -0.095183648 4290804349
-0.30325279 0.029723763 -0.094484948 4290800505
-0.3038421 0.031708401 -0.094351038 4290994803
-0.30443344 0.033699874 -0.094216615 4291058286
-0.30467907 0.035360202 -0.093515299 4291123566
-0.30527285 0.037361506 -0.093379058 4291060343
-0.30551895 0.039025065 -0.092676379 4291004561
-0.30611515 0.041036267 -0.09253826 4291346869
-0.30636176 0.042703088 -0.091834202 4291742137
-0.30731365 0.045079589 -0.092260413 4291874236
-0.30827191 0.047472201 -0.092689358 4291874237
-0.30887789 0.049515408 -0.092549719 4291874237
-0.30984628 0.051935505 -0.092981584 4291808444
-0.31045803 0.053997051 -0.092841513 4291807929
-0.31070819 0.055687834 -0.092127346 4291676857
-0.31132248 0.05775965 -0.09198536 4291676860
-0.31157312 0.059453752 -0.091269769 4291742141
-0.31145892 0.060761597 -0.089984179 4291741884
-0.31170923 0.062453359 -0.089269571 4291610812
-0.31232533 0.064537577 -0.089122355 4291741882
-0.31257614 0.066232689 -0.088406347 4291544500
-0.31430599 0.069533393 -0.089969821 4291543727
-0.30962679 0.015309581 -0.12578633 4290164905
-0.3091386 0.016408384 -0.12375502 4290493876
-0.30865383 0.017499844 -0.12173765 4290623405
-0.3081724 0.018584015 -0.11973403 4290690481
-0.30769438 0.019660987 -0.11774413 4290757044
-0.30685696 0.020407433 -0.11514594 4290822068
-0.3060281 0.021146521 -0.11257415 4290822324
-0.30485269 0.021556843 -0.10942361 4290690997
-0.30230215 0.020692458 -0.10395336 4290625203
-0.30185965 0.021727851 -0.10208143 4290689968
-0.30107901 0.02244061 -0.099646293 4291150259
-0.30098355 0.023778945 -0.098374397 4291216567
-0.30122811 0.02543251 -0.097676039 4291018159
-0.30147272 0.027086316 -0.096977569 4290886828
-0.30205891 0.029066319 -0.096848011 4290952879
-0.302304 0.030723371 -0.096148171 4291083180
-0.30323735 0.033046786 -0.096587338 4291344292
-0.30382955 0.035047267 -0.096456133 4291343006
-0.30442375 0.037054695 -0.096324459 4291474337
-0.30501997 0.039069064 -0.096192226 4291869608
-0.30526727 0.040741134 -0.09548606 4291806388
-0.3055146 0.042413447 -0.09477976 4291216826
-0.30611375 0.044440839 -0.09464439 4292003772
-0.30671492 0.046475291 -0.094508499 4291939260
-0.30767432 0.048880823 -0.094946392 4291873982
-0.30828124 0.050933488 -0.094810136 4291874750
-0.30925083 0.053366713 -0.095251068 4291874491
-0.30986357 0.055437852 -0.095114388 4291742135
-0.31047842 0.057516258 -0.094977155 4291676857
-0.31109536 0.059601929 -0.094839327 4291742909
-0.31098124 0.060916096 -0.093541287 4291742654
-0.31086752 0.062226061 -0.092247479 4291676861
-0.3111186 0.063923739 -0.091530487 4291676862
-0.31173575 0.066017769 -0.091386661 4291742397
-0.31198734 0.067718804 -0.090668231 4291807416
-0.313719 0.071041107 -0.092252456 4291806124
-0.30826494 0.016014859 -0.12694272 4289966756
-0.30778143 0.017111447 -0.1249074 4291084209
-0.30730125 0.018200682 -0.12288607 4290951594
-0.30682445 0.019282632 -0.12087849 4290887856
-0.30635095 0.020357411 -0.11888468 4290822838
-0.30588076 0.021425089 -0.11690442 4290888118
-0.30328166 0.020550484 -0.11125931 4290953141
-0.30213252 0.020962257 -0.10813875 4290887350
-0.30099875 0.02136879 -0.10505978 4290756534
-0.3005605 0.022402167 -0.10318418 4290887604
-0.30012521 0.02342895 -0.10132096 4291414199
-0.3000311 0.024768012 -0.10004418 4291281590
-0.30061579 0.026747195 -0.099919736 4291018420
-0.30086112 0.028406681 -0.099218972 4291084725
-0.3014482 0.030395653 -0.099092737 4291282104
-0.30101085 0.031395514 -0.097245544 4291479482
-0.30262834 0.034394164 -0.098838657 4291610809
-0.30322143 0.03640382 -0.098710842 4291610809
-0.3038165 0.03842039 -0.098582469 4291742909
-0.30441365 0.040443949 -0.098453596 4292005828
-0.30466169 0.042121839 -0.097745068 4292269001
-0.30526131 0.044155493 -0.097614355 4292006853
-0.30550987 0.045836702 -0.096904427 4291807933
-0.30611193 0.047880463 -0.096771836 4292004797
-0.30707249 0.050299067 -0.097218931 4292005824
-0.30768034 0.052361235 -0.097085983 4291874751
-0.30865115 0.054807764 -0.097536184 4291874236
-0.30926487 0.056888543 -0.097402908 4291807673
-0.30988067 0.058976673 -0.097269081 4291676603
-0.31049865 0.061072137 -0.097134717 4291742910
