# .PCD v0.7 - Point Cloud Data file format
VERSION 0.7
FIELDS x y z rgba
SIZE 4 4 4 4
TYPE F F F U
COUNT 1 1 1 1
WIDTH 1017
HEIGHT 1
VIEWPOINT 0 0 0 1 0 0 0
POINTS 1017
DATA ascii
-0.35205728 0.02938636 -0.11105586 4289875264
-0.35094535 0.031164682 -0.1094006 4289938749
-0.34984156 0.032930262 -0.10775752 4290068794
-0.34874588 0.034683149 -0.10612642 4290264890
-0.34721354 0.036304407 -0.1037777 4290265404
-0.34569785 0.037908282 -0.10145448 4290595396
-0.3446328 0.039618775 -0.099869639 4290930008
-0.34357542 0.041317228 -0.098296151 4291137398
-0.34338504 0.043262798 -0.098146684 4291473285
-0.3427645 0.045075443 -0.097289823 4291411603
-0.34257445 0.047018085 -0.097140566 4291215253
-0.34367749 0.049383178 -0.099119425 4291542676
-0.34305412 0.051192161 -0.098257676 4291674260
-0.34286326 0.053142663 -0.098107837 4291608729
-0.34224239 0.054942213 -0.097249344 4292001432
-0.34062737 0.062405404 -0.095243327 4292451973
-0.34043741 0.064347133 -0.095094159 4292644724
-0.3410987 0.066631906 -0.096351229 4292381041
-0.3426277 0.069288276 -0.099043563 4291857780
-0.35029945 0.027245516 -0.1118206 4290137411
-0.34919596 0.029028354 -0.11016567 4290004284
-0.34810054 0.030798377 -0.10852289 4290003516
-0.34701306 0.032555789 -0.1068921 4290199609
-0.3459335 0.034300637 -0.10527319 4290462013
-0.34442469 0.035915338 -0.10294192 4290400332
-0.34336415 0.037632901 -0.10135182 4291003238
-0.34274137 0.039461508 -0.10048626 4291206271
-0.34212077 0.041283853 -0.099623732 4291345040
-0.3415024 0.043099899 -0.098764345 4291411348
-0.34088621 0.04490976 -0.097907998 4291477141
-0.34069636 0.046849091 -0.09775909 4291477397
-0.34050649 0.048788719 -0.097610168 4291739284
-0.33947113 0.05044388 -0.096056007 4291674260
-0.3388617 0.052232109 -0.095208943 4291608472
-0.33825451 0.054014225 -0.094364926 4292262805
-0.33764938 0.055790316 -0.09352386 4292132754
-0.33704636 0.057560377 -0.092685752 4292122494
-0.33768854 0.059795942 -0.093921013 4291589488
-0.33749983 0.061723728 -0.093772992 4291714651
-0.33731106 0.063651808 -0.093624964 4291907661
-0.33795634 0.065917954 -0.094867907 4291840840
-0.33860621 0.068200611 -0.096119717 4291449936
-0.33799598 0.069966018 -0.095269367 4291525997
-0.34854805 0.025112506 -0.11258253 4290141273
-0.34655964 0.026695034 -0.10943741 4290004284
-0.34547973 0.028463788 -0.10780635 4290069051
-0.34484631 0.030327845 -0.10691978 4290134333
-0.34377843 0.032074351 -0.10530671 4290527550
-0.34271824 0.033808522 -0.1037053 4290728784
-0.34209543 0.035646938 -0.10283405 4290807922
-0.34104699 0.037359461 -0.10125012 4291278216
-0.34085643 0.039304819 -0.10110087 4291279252
-0.34024021 0.041124325 -0.10023892 4291345300
-0.33962622 0.042937603 -0.099380024 4291411091
-0.33901435 0.044744663 -0.09852422 4291411861
-0.33840466 0.046545587 -0.097671412 4291477653
-0.33738038 0.048202746 -0.096122637 4291739284
-0.33677676 0.049988456 -0.095278591 4291739284
-0.33576363 0.051625185 -0.093746498 4291739543
-0.33516604 0.053395972 -0.09291108 4292066964
-0.33497861 0.055309486 -0.092764266 4291670665
-0.33397704 0.056919668 -0.091249004 4291520351
-0.3346037 0.059137341 -0.092470542 4291512389
-0.33441615 0.06105167 -0.092323676 4291642688
-0.33422863 0.062966295 -0.092176765 4291773760
-0.33485827 0.065214105 -0.093405806 4291708224
-0.33508047 0.067306831 -0.093949765 4291577924
-0.33489186 0.069232531 -0.093802005 4291385682
-0.3371928 0.072237343 -0.097851604 4291660660
-0.34483096 0.024582343 -0.11019691 4290207825
-0.34332252 0.026254805 -0.1078306 4289944142
-0.34226206 0.028012516 -0.10621731 4290205517
-0.34163889 0.029864075 -0.10534006 4290137931
-0.34059018 0.031599842 -0.10374445 4290729299
-0.3399733 0.03343552 -0.10287633 4291004788
-0.33935866 0.035264879 -0.10201134 4291081613
-0.33874619 0.037087977 -0.10114942 4291148691
-0.3385562 0.039026532 -0.10100078 4291280021
-0.33836618 0.040965352 -0.10085211 4291476372
-0.33775648 0.042775847 -0.099993765 4291411347
-0.33714893 0.044580165 -0.099138446 4291477397
-0.33612904 0.0462442 -0.097584561 4291477907
-0.3351163 0.047896717 -0.096041657 4291739797
-0.33370414 0.049399342 -0.093820915 4291739541
-0.33270881 0.051026806 -0.092304811 4291805849
-0.33212063 0.05278638 -0.091477863 4291937177
-0.3315345 0.054540083 -0.090653785 4292132758
-0.33134854 0.056437273 -0.090508334 4291395444
-0.3311626 0.058334749 -0.090362832 4291448138
-0.33137554 0.060389034 -0.090894908 4291576641
-0.33118922 0.062290393 -0.090749115 4291708224
-0.33140254 0.06435582 -0.091282733 4291708224
-0.33161655 0.066428795 -0.091818206 4291774018
-0.33142948 0.068337694 -0.091671839 4291774532
-0.33245116 0.07077384 -0.093583152 4291649617
-0.34247926 0.02435171 -0.11006161 4290022770
-0.34055963 0.025920082 -0.10697466 4290088821
-0.33909041 0.02756775 -0.10465134 4290350453
-0.33847728 0.029406959 -0.10378331 4290283379
-0.33786637 0.031239901 -0.10291836 4290611319
-0.3368403 0.032955691 -0.1013457 4291081615
-0.33665094 0.034886938 -0.1011977 4291148434
-0.33646154 0.036818448 -0.10104969 4291213972
-0.33627209 0.038750254 -0.10090167 4291346070
-0.33608267 0.040682323 -0.1007536 4291607957
-0.33589318 0.042614687 -0.10060553 4291477398
-0.33487761 0.044285621 -0.099046551 4291608472
-0.33386922 0.045944963 -0.097498544 4291477910
-0.33286798 0.047592878 -0.095961526 4291740312
-0.33107272 0.048954993 -0.093065329 4291806105
-0.33009169 0.05057564 -0.091559872 4291871900
-0.32911742 0.052185275 -0.090064846 4292003230
-0.3285405 0.053927999 -0.089249097 4292397215
-0.32835573 0.055812161 -0.089104719 4291798930
-0.32817096 0.057696607 -0.08896032 4291909460
-0.32837704 0.059735652 -0.089486264 4291839814
-0.32819188 0.061623927 -0.089341573 4291839555
-0.32879141 0.063835956 -0.090543732 4291708481
-0.32860553 0.065731384 -0.09039849 4291905088
-0.32841966 0.067627124 -0.090253212 4291970624
-0.32941815 0.070042565 -0.09214367 4291905092
-0.3308287 0.072663486 -0.094744511 4291586139
-0.34206805 0.022535643 -0.11304724 4289964689
-0.33971581 0.024026537 -0.10919216 4290031246
-0.33782631 0.025588932 -0.10612819 4290162318
-0.3363795 0.027229711 -0.10382201 4290425232
-0.33577439 0.029059872 -0.10296018 4290622864
-0.3351714 0.030883765 -0.10210139 4290555278
-0.33457056 0.032701474 -0.10124568 4290951315
-0.33438173 0.034626018 -0.1010983 4291148949
-0.33419287 0.036550827 -0.1009509 4291345302
-0.33441472 0.038596198 -0.10151076 4291477912
-0.33422548 0.040524993 -0.10136306 4291739543
-0.33362618 0.042326957 -0.10050856 4291674520
-0.33302894 0.044122797 -0.099657044 4291674779
-0.33202878 0.045779955 -0.098109752 4291740827
-0.33063519 0.04729116 -0.095882162 4291807133
-0.32886174 0.048650797 -0.092996746 4292003743
-0.3275016 0.050129179 -0.090822943 4292069536
-0.32654127 0.051732156 -0.089338325 4292135073
-0.32597166 0.053466786 -0.088528149 4292397987
-0.32578772 0.055341333 -0.088384598 4292526749
-0.32560381 0.057216167 -0.088241011 4292046441
-0.32541981 0.059091285 -0.088097423 4292038734
-0.32523581 0.060966689 -0.087953813 4292036421
-0.32582077 0.063161232 -0.089142837 4291905090
-0.32563606 0.065043658 -0.08899869 4291970368
-0.32622436 0.06726063 -0.090195455 4291904831
-0.3268168 0.069493376 -0.091400631 4291904578
-0.32780671 0.071919084 -0.093297184 4291839562
-0.32920572 0.07455378 -0.09590625 4291982697
-0.34165373 0.020706182 -0.11605485 4290161559
-0.33972597 0.022312298 -0.11290197 4289965198
-0.33740327 0.023799973 -0.10906218 4290096012
-0.33512208 0.025261359 -0.10529109 4290227085
-0.33369729 0.026895298 -0.10300174 4290424719
-0.3326931 0.028614137 -0.10144006 4290752911
-0.33209971 0.030426087 -0.10059018 4290424207
-0.3315084 0.032231923 -0.099743254 4291017363
-0.33132082 0.034143008 -0.099596992 4291280792
-0.33194005 0.036285087 -0.10085301 4291543449
-0.3317517 0.038203534 -0.10070619 4291675548
-0.33196831 0.040245015 -0.10126373 4291871388
-0.33177957 0.042167425 -0.10111663 4291937180
-0.33118656 0.043960538 -0.10026561 4291872671
-0.33019456 0.045615517 -0.098719016 4292069793
-0.32881299 0.047125135 -0.096492223 4292070562
-0.32705519 0.048483692 -0.093607634 4292136101
-0.32570672 0.049960569 -0.091434486 4292267429
-0.32475418 0.051561538 -0.089950465 4292398244
-0.3238081 0.053151734 -0.088476598 4292464294
-0.32362473 0.055019986 -0.088333607 4292923301
-0.3230629 0.056740705 -0.087529384 4291926153
-0.32287976 0.058606308 -0.087386601 4292172887
-0.3226966 0.060472164 -0.087243818 4292234312
-0.32289085 0.062495776 -0.087761499 4292102212
-0.32308576 0.06452667 -0.088280983 4291970369
-0.32328132 0.066564873 -0.088802263 4291970367
-0.32424238 0.068949901 -0.090665579 4291904576
-0.32482666 0.07118506 -0.091870293 4291904322
-0.3258042 0.073615909 -0.093766071 4291778388
-0.3416748 0.018951455 -0.1198505 4290098073
-0.33930448 0.020488493 -0.11589821 4289899410
-0.33740067 0.022090536 -0.11275797 4289899664
-0.33510706 0.023575054 -0.10893337 4290030475
-0.33285433 0.025033405 -0.10517693 4290162316
-0.33104327 0.026564423 -0.10219041 4290359184
-0.33045378 0.028376671 -0.10134076 4290622353
-0.32946792 0.03007865 -0.099796027 4290293907
-0.32888424 0.031875748 -0.09895505 4291083410
-0.32909381 0.033887438 -0.099504717 4291609756
-0.3293041 0.035906553 -0.10005634 4291807646
-0.32951513 0.037933066 -0.1006099 4291872672
-0.32932732 0.039845165 -0.10046366 4292003745
-0.32874164 0.041632764 -0.09961839 4292069281
-0.32855412 0.043542072 -0.099472374 4292069795
-0.32757646 0.045189992 -0.097936787 4292201381
-0.32621577 0.046694066 -0.095725857 4292267175
-0.32486922 0.048182733 -0.093538009 4292333481
-0.32353663 0.049656201 -0.09137284 4292333480
-0.3225947 0.051252853 -0.089894153 4292595624
-0.32203457 0.052979682 -0.089087367 4292530343
-0.32147634 0.054700851 -0.088283278 4292858279
-0.32091996 0.056416366 -0.087481931 4292130974
-0.32036555 0.058126304 -0.086683355 4292504161
-0.32018319 0.059982739 -0.08654137 4292563279
-0.32074451 0.062151611 -0.08771345 4292299334
-0.32056147 0.064014994 -0.087570943 4292101440
-0.32112595 0.066205814 -0.088750564 4292035135
-0.32169437 0.068412066 -0.089938395 4291969087
-0.32264698 0.070807189 -0.091807716 4291969601
-0.32360956 0.073227689 -0.093696579 4291709521
-0.34213865 0.01726293 -0.12446857 4290294934
-0.33844894 0.018563975 -0.11815656 4289899927
-0.33697212 0.020272413 -0.11574294 4289964947
-0.334674 0.021778578 -0.11187771 4289899151
-0.33241701 0.023258096 -0.10808162 4289899659
-0.33019999 0.024711667 -0.10435275 4290031246
-0.32881355 0.026334444 -0.10208873 4290358927
-0.32783514 0.028040471 -0.10054421 4290556562
-0.32686353 0.029734856 -0.09901046 4290229141
-0.32628736 0.031523298 -0.098175347 4291346069
-0.32610145 0.033414703 -0.098030813 4291872928
-0.32630488 0.03541898 -0.098576039 4292004514
-0.32650906 0.037430584 -0.099123187 4292135588
-0.32632247 0.039329436 -0.098978035 4292266917
-0.32574603 0.041105613 -0.098141395 4292201381
-0.32517162 0.042875849 -0.097307689 4292266919
-0.32459918 0.044640154 -0.096476838 4292398504
-0.32364538 0.046267487 -0.094967745 4292399276
-0.32231903 0.047750808 -0.09279526 4292465068
-0.32138121 0.049353939 -0.091311775 4292464810
-0.32044983 0.050946321 -0.089838542 4292661674
-0.31989518 0.052667905 -0.089034632 4292661674
-0.31934243 0.054383893 -0.088233523 4292990636
-0.31879151 0.056094252 -0.087435059 4292988074
-0.31824243 0.057799052 -0.086639315 4292776315
-0.31806061 0.059649318 -0.086497895 4292700005
-0.31861264 0.061809797 -0.08766596 4292630355
-0.31879857 0.063825898 -0.088181831 4292364868
-0.31898519 0.065849222 -0.08869952 4292166721
-0.31991711 0.068214402 -0.090549566 4292035392
-0.32085869 0.070604503 -0.092418902 4292035137
-0.3218101 0.073019914 -0.094307765 4291840852
-0.3388854 0.016884889 -0.12272818 4290360730
-0.33654034 0.0184409 -0.11874979 4290030740
-0.33423775 0.01996902 -0.11484341 4289965458
-0.33238721 0.021560736 -0.11173919 4289899408
-0.33015853 0.023037089 -0.10795791 4289834384
-0.32796922 0.024487657 -0.10424346 4289900179
-0.32620803 0.026009407 -0.10128982 4290162579
-0.32485688 0.027608853 -0.099065565 4290556307
-0.32428607 0.029394643 -0.098233342 4290361240
-0.3237173 0.031174518 -0.097404055 4291411609
-0.32353225 0.033056222 -0.097260334 4292004517
-0.32334718 0.034938186 -0.09711659 4292201639
-0.32316211 0.036820434 -0.096972808 4292268202
-0.32297701 0.038702972 -0.096829027 4292333736
-0.32241127 0.040464956 -0.09600345 4292333482
-0.32222643 0.042344768 -0.095859863 4292529322
-0.32166293 0.04409796 -0.095037363 4292464556
-0.32072571 0.045716088 -0.093543746 4292531118
-0.31979495 0.047323357 -0.092060387 4292531118
-0.31887046 0.048919875 -0.090587169 4292596143
-0.31831941 0.050641879 -0.08978352 4292858800
-0.31777018 0.052358262 -0.08898253 4292794546
-0.31722277 0.054069072 -0.088184267 4293122740
-0.31704089 0.055918969 -0.088042974 4292793013
-0.31613353 0.057474028 -0.086595871 4292855460
-0.31595218 0.059318166 -0.086455017 4293242772
-0.316495 0.061470322 -0.087618962 4293101689
-0.31667662 0.063479125 -0.088133126 4292763743
-0.31722465 0.065657139 -0.089308791 4292430154
-0.31777644 0.067850471 -0.090492547 4292232002
-0.31870356 0.070230573 -0.092355192 4292035397
-0.32001665 0.072812863 -0.094917074 4291909722
-0.33567956 0.016512381 -0.12101357 4290293908
-0.33421761 0.018232081 -0.11858455 4290030995
-0.33235711 0.019844903 -0.11543651 4289899665
-0.3301166 0.021344449 -0.1116019 4289899411
-0.32831502 0.022909852 -0.10855399 4289834900
-0.32614565 0.024359144 -0.10484086 4289965974
-0.32440025 0.025879301 -0.10188828 4290096788
-0.32306078 0.027476806 -0.099664852 4290489748
-0.32211393 0.029158752 -0.098147675 4290752924
-0.32155073 0.030933026 -0.097321421 4291606936
-0.32098946 0.032701451 -0.096498072 4292136360
-0.32080522 0.034573842 -0.096355155 4292136875
-0.31987259 0.036220815 -0.094859697 4292268716
-0.31931701 0.037971802 -0.094044775 4292202157
-0.31913367 0.039835345 -0.093902521 4292399277
-0.31895027 0.041699145 -0.093760274 4292595375
-0.31839716 0.043438554 -0.092948526 4292530351
-0.31784588 0.045172244 -0.09213952 4292464814
-0.31729653 0.046900295 -0.091333337 4292530607
-0.31674898 0.048622705 -0.090529822 4292792754
-0.31620327 0.05033949 -0.089729041 4293120695
-0.31602129 0.052189022 -0.089587867 4292796346
-0.31583929 0.05403883 -0.089446679 4292860087
-0.31493592 0.055600163 -0.087994903 4293121972
-0.31475452 0.057444211 -0.087854132 4293122743
-0.31457305 0.059288543 -0.087713368 4293188538
-0.31439155 0.061133128 -0.087572582 4293250994
-0.31492889 0.063291892 -0.088740401 4293175700
-0.31546992 0.065465741 -0.089916252 4292964465
-0.31601456 0.067654796 -0.091100119 4292627539
-0.31729993 0.070201278 -0.09363573 4292232781
-0.31860313 0.072783522 -0.096206613 4292176484
-0.33335555 0.016310029 -0.12083993 4290293900
-0.33232659 0.018110259 -0.11917423 4289965203
-0.33007416 0.019633448 -0.11528535 4290030993
-0.32826313 0.021219369 -0.1121948 4289899667
-0.3264778 0.022783047 -0.10914811 4289965459
-0.3243283 0.024231076 -0.10543639 4290031506
-0.32259855 0.025749642 -0.10248491 4290161554
-0.32127067 0.02734522 -0.10026236 4290749331
-0.32033157 0.029024893 -0.098745741 4290018952
-0.31939891 0.030693227 -0.097239651 4291536011
-0.31847268 0.032350361 -0.095743902 4292332460
-0.31792036 0.034104612 -0.094928943 4292201389
-0.31700391 0.035742085 -0.093448758 4292267694
-0.31645688 0.037482101 -0.092641845 4292070831
-0.31591171 0.039216463 -0.091837659 4292333998
-0.31609243 0.041184291 -0.092359439 4292399022
-0.31554782 0.042912841 -0.0915557 4292530607
-0.31536585 0.044761464 -0.091414683 4292530606
-0.31518385 0.04661034 -0.091273651 4292333997
-0.31464165 0.04832755 -0.090473123 4292989111
-0.31445989 0.050173812 -0.090332292 4292792511
-0.31463766 0.052158602 -0.090850428 4292794039
-0.31409633 0.053867176 -0.090050563 4292992187
-0.31391448 0.05571425 -0.089909673 4293123518
-0.31301904 0.057267711 -0.088458791 4293189054
-0.31283778 0.05910904 -0.08831834 4293189053
-0.31301203 0.061103661 -0.088831238 4293254332
-0.31318688 0.06310533 -0.089345872 4293253561
-0.31372088 0.065274976 -0.090521805 4293181610
-0.31425849 0.067459762 -0.091705792 4292906112
-0.31516394 0.06983 -0.093568459 4292306279
-0.31681794 0.072577231 -0.096812069 4292317827
-0.33104819 0.01610917 -0.12066778 4290163864
-0.33003122 0.017903781 -0.11900885 4289834646
-0.32780734 0.019423492 -0.11513547 4289965717
-0.32562304 0.02091649 -0.11133102 4290030739
-0.32386568 0.022474194 -0.10830669 4290031251
-0.322133 0.024010321 -0.10532476 4289900436
-0.32080284 0.025620451 -0.10307967 4290620567
-0.3194865 0.027214097 -0.10085794 4290286726
-0.31855512 0.028891467 -0.099342048 4290006343
-0.31763005 0.030557573 -0.097836517 4290276966
-0.31634578 0.032107469 -0.09566839 4290748053
-0.31579894 0.033856329 -0.094856463 4291869347
-0.31417394 0.035269875 -0.092057168 4292464811
-0.31327933 0.036887184 -0.090601802 4292202417
-0.31274405 0.038608022 -0.089807987 4292202418
-0.31291774 0.040558327 -0.090321951 4292333488
-0.31309199 0.042515483 -0.090837665 4292333487
-0.3129108 0.044354852 -0.09069746 4292200364
-0.31308529 0.046322357 -0.091214649 4292465838
-0.31290376 0.048165388 -0.091074161 4292726969
-0.31307849 0.050143272 -0.091592848 4292990650
-0.31325376 0.052128199 -0.092113227 4293057213
-0.31307152 0.053978313 -0.091972187 4293124289
-0.31288925 0.055828728 -0.09183114 4293189827
-0.31199569 0.057384588 -0.090371385 4293254852
-0.31181398 0.059229244 -0.090230763 4293386177
-0.31163228 0.061074186 -0.090090118 4293320641
-0.31215996 0.063233078 -0.091266707 4293319614
-0.31233379 0.065245673 -0.091787316 4293253307
-0.31286651 0.067430526 -0.092975728 4293117357
-0.31412765 0.06997142 -0.095520087 4292650131
-0.31540635 0.072547927 -0.09809985 4292523423
-0.31633028 0.074978694 -0.10002212 4292530357
-0.32875732 0.01590973 -0.12049714 4290097814
-0.32775214 0.017698754 -0.11884489 4289965973
-0.32555649 0.019215068 -0.11498694 4289966229
-0.32339972 0.020704752 -0.11119733 4290030999
-0.32204875 0.02234903 -0.10889752 4289965205
-0.32033169 0.023883516 -0.1059168 4290098071
-0.3193891 0.025586767 -0.10437011 4291277206
-0.31770828 0.027083391 -0.10145172 4290597463
-0.3167845 0.028758507 -0.099936448 4290330175
-0.31586704 0.03042235 -0.09843161 4290724931
-0.31459391 0.031970482 -0.096264221 4290857800
-0.31333378 0.03350307 -0.094118945 4291647320
-0.3117336 0.034911998 -0.091338947 4291265662
-0.31120172 0.036633171 -0.090545289 4291407264
-0.31067163 0.038348813 -0.089754298 4292661421
-0.31014329 0.040058941 -0.088965997 4292924338
-0.30996355 0.041882712 -0.088827066 4293121463
-0.3108305 0.044075795 -0.090640858 4292597683
-0.31100073 0.04603631 -0.091156259 4292662708
-0.31152457 0.048134726 -0.092332713 4292925112
-0.31169683 0.05011275 -0.092853643 4293122492
-0.31222567 0.052236389 -0.094041869 4293254336
-0.31204301 0.054089855 -0.093900666 4293320132
-0.31221694 0.056089055 -0.094426893 4293320388
-0.31167758 0.057797603 -0.093618229 4293451717
-0.31149483 0.059651885 -0.093476973 4293517765
-0.31095758 0.061352003 -0.092671275 4293320901
-0.31112927 0.063361265 -0.093194388 4293320387
-0.3113015 0.065377697 -0.093719296 4293254079
-0.31147429 0.067401312 -0.094245888 4293187773
-0.31272569 0.069942139 -0.096799113 4292792249
-0.3139945 0.072518617 -0.099387854 4292596411
-0.31491095 0.074949421 -0.10131695 4292531644
-0.31658569 0.077781439 -0.10467474 4292399286
-0.32648268 0.015711714 -0.12032798 4290293389
-0.32548916 0.017495217 -0.11868235 4290031766
-0.3233214 0.01900808 -0.11483965 4289900695
-0.32157704 0.020582132 -0.11178537 4289900184
-0.32023793 0.022224331 -0.10948656 4290096535
-0.31891286 0.023849564 -0.10721192 4290620826
-0.31760159 0.025458064 -0.10496103 4290216332
-0.31630397 0.027050126 -0.10273354 4290657598
-0.31538489 0.028725525 -0.10121392 4290656574
-0.31447217 0.030389646 -0.099704765 4291116354
-0.31320608 0.031938113 -0.097530924 4291314759
-0.31159851 0.033364788 -0.094713621 4291511624
-0.31001267 0.034772433 -0.091934383 4291643980
-0.30948451 0.0364911 -0.091141127 4291449171
-0.30895808 0.038204268 -0.090350598 4291521129
-0.30843338 0.039911918 -0.089562662 4291861400
-0.30825385 0.041732788 -0.089424029 4291737263
-0.30841851 0.043676078 -0.089934044 4292464302
-0.30927745 0.045878705 -0.091753513 4292793785
-0.30979443 0.047973178 -0.092930056 4293122239
-0.30996329 0.04994772 -0.09345118 4293122497
-0.31119379 0.052344967 -0.095977373 4293320389
-0.31101069 0.054201774 -0.095836014 4293451972
-0.31153971 0.056351144 -0.097040653 4293648835
-0.31099954 0.058065273 -0.096224815 4293714372
-0.31117213 0.060078874 -0.096756876 4293648580
-0.31063256 0.061787173 -0.095941462 4293451973
-0.31080446 0.063807711 -0.096472986 4293386180
-0.31026542 0.065510146 -0.095658049 4293385667
-0.31043664 0.06753765 -0.09618903 4293254340
-0.31132349 0.069912858 -0.09807837 4292925635
-0.31221959 0.072313122 -0.099987373 4292794050
-0.31312498 0.074738778 -0.10191635 4292727998
-0.31440979 0.077376857 -0.10456838 4292596409
-0.31608886 0.080245927 -0.1079729 4292530615
-0.32422417 0.015515144 -0.12016024 4290552453
-0.32324219 0.017293105 -0.11852124 4290097561
-0.32110196 0.018802589 -0.11469371 4290030999
-0.31937924 0.020372704 -0.11165126 4289965975
-0.31805632 0.022010416 -0.10936136 4290293916
-0.31711984 0.023723273 -0.10780012 4291605399
-0.31618983 0.025424447 -0.1062497 4290532706
-0.31489941 0.027016852 -0.10401559 4290460731
-0.31398508 0.028692532 -0.10249163 4290656828
-0.313077 0.030356932 -0.10097817 4291181375
-0.311818 0.031905733 -0.098797843 4291509573
-0.31021976 0.033332791 -0.095972002 4291706951
-0.30864313 0.034740817 -0.093184344 4291772997
-0.30777285 0.036349509 -0.091735244 4291839302
-0.30725002 0.038060192 -0.09094508 4291971659
-0.30672896 0.039765373 -0.090157509 4292300885
-0.30654958 0.041583378 -0.090019211 4291657842
-0.30671102 0.043523289 -0.090529449 4292659109
-0.30721575 0.045595605 -0.09169402 4293057213
-0.30806988 0.047812168 -0.093525603 4293123009
-0.30823547 0.049783222 -0.094046913 4293122756
-0.30945188 0.052175436 -0.096572928 4293254852
-0.30962119 0.054171406 -0.097103901 4293451971
-0.31050086 0.056467686 -0.098991677 4293648837
-0.31031662 0.058334783 -0.098849632 4293583559
-0.31013238 0.060202163 -0.098707572 4293518024
-0.30959356 0.061913356 -0.097887509 4293386953
-0.30976382 0.063937746 -0.098423369 4293386696
-0.30957949 0.065805979 -0.098281227 4293320647
-0.30939513 0.067674465 -0.098139085 4293254598
-0.30992103 0.069883585 -0.099357858 4293122757
-0.31080967 0.072283842 -0.10127361 4293056451
-0.31170762 0.074709512 -0.10320939 4292924864
-0.31298229 0.077347584 -0.10587061 4292727997
-0.31502348 0.080410548 -0.11000665 4292662202
-0.31634468 0.083137192 -0.11276406 4292596151
-0.32237366 0.015399536 -0.12074085 4290679675
-0.32101101 0.017092455 -0.11836151 4290098332
-0.3192797 0.018682927 -0.11527693 4289900185
-0.31757274 0.020251295 -0.11223584 4290162585
-0.3166346 0.021976214 -0.11065915 4290688929
-0.31570297 0.023689359 -0.10909344 4291077780
-0.31441054 0.025296239 -0.10683683 4290789446
-0.31349459 0.026983567 -0.10529787 4290591803
-0.31294659 0.028759284 -0.10446125 4290722362
-0.31168163 0.030324237 -0.10225178 4291180861
-0.31042966 0.031873371 -0.10006501 4291509059
-0.30884075 0.033300783 -0.097230628 4291640904
-0.30727333 0.034709219 -0.09443453 4291838537
-0.30640751 0.036318179 -0.092981324 4291970635
-0.30588689 0.038029075 -0.092189133 4292298056
-0.30536801 0.039734472 -0.09139955 4292560204
-0.30485085 0.041434448 -0.09061268 4291785838
-0.30500901 0.043371029 -0.091123059 4292791214
-0.30584756 0.045565009 -0.092942573 4293188801
-0.30635098 0.047651671 -0.094119392 4293188803
-0.30685773 0.049752776 -0.095304109 4293188546
-0.30806461 0.052144945 -0.097838804 4293385923
-0.30823141 0.054141026 -0.098372035 4293517766
-0.30910379 0.056437317 -0.10026643 4293517769
-0.30927345 0.058455095 -0.10080741 4293321163
-0.30908877 0.060325861 -0.10066519 4293321163
-0.30890408 0.06219691 -0.10052293 4293386699
-0.30871934 0.06406825 -0.10038064 4293386442
-0.30853456 0.065939836 -0.10023836 4293320650
-0.30834979 0.067811713 -0.10009605 4293254858
-0.30887288 0.07002534 -0.10132384 4293188552
-0.30975747 0.07243067 -0.10325326 4293122500
-0.31028995 0.074680261 -0.10450268 4293056449
-0.31118971 0.077131778 -0.10646573 4292793535
-0.31320807 0.080187216 -0.11060084 4292727740
-0.3152698 0.08330863 -0.1148249 4292661944
-0.32052952 0.015284333 -0.12131961 4290021497
-0.319179 0.016975017 -0.11894146 4289770913
-0.31746364 0.018563684 -0.1158584 4289769632
-0.3161459 0.020216793 -0.11353835 4289966496
-0.31484202 0.021852791 -0.11124267 4290162846
-0.31355169 0.023471974 -0.10897098 4290484614
-0.31263709 0.025168454 -0.10742211 4290592583
-0.31172881 0.026853481 -0.10588393 4290591290
-0.31082672 0.028527163 -0.10435627 4290787897
-0.30993083 0.030189633 -0.10283916 4291115836
-0.30904108 0.031840973 -0.1013324 4291444033
-0.3074615 0.033268798 -0.098489463 4291706953
-0.3062456 0.034785327 -0.096347749 4291970381
-0.30538163 0.036396898 -0.09488564 4292167245
-0.30486178 0.038110711 -0.094089031 4292232779
-0.30434364 0.039819032 -0.093295038 4292429134
-0.30382717 0.041521866 -0.092503667 4291786609
-0.30398381 0.043462023 -0.093018256 4292725682
-0.30447909 0.045534428 -0.09419138 4293188546
-0.30497777 0.047621153 -0.095372483 4293254341
-0.30547974 0.049722314 -0.096561544 4293254596
-0.3063305 0.051976021 -0.098430656 4293254853
-0.3068414 0.054110639 -0.099640377 4293386441
-0.30770648 0.056406938 -0.10154142 4293321163
-0.30787361 0.05842486 -0.10208467 4293255373
-0.3080413 0.060450014 -0.10262985 4293255629
-0.30785617 0.062324461 -0.10248742 4293321164
-0.30802411 0.06436044 -0.10303419 4293320907
-0.30748582 0.066074185 -0.10220251 4293255628
-0.30730057 0.067949459 -0.10206003 4293255372
-0.30746746 0.069995999 -0.10260601 4293189322
-0.30834463 0.072401345 -0.1045422 4293189575
-0.30887201 0.074651003 -0.10579621 4293188804
-0.30976421 0.077102534 -0.10776614 4292859841
-0.31176728 0.080157831 -0.11191518 4292793534
-0.31381342 0.083279103 -0.11615344 4292727481
-0.31830761 0.015090666 -0.12115029 4290153851
-0.31735331 0.016857997 -0.11951965 4289836193
-0.31565374 0.018444851 -0.11643799 4289966496
-0.31434774 0.020095851 -0.11411908 4290032031
-0.31305546 0.021729793 -0.11182445 4290031516
-0.31177658 0.023346974 -0.10955378 4290290058
-0.31086957 0.025041135 -0.10800558 4290142560
-0.30961299 0.026627783 -0.10577419 4290656570
-0.30907428 0.028395277 -0.10494121 4290919229
-0.30818579 0.030055478 -0.10342473 4291181629
-0.30730337 0.031704642 -0.10191862 4291445316
-0.30608198 0.033236772 -0.099748552 4291773516
-0.30521414 0.034861702 -0.098267607 4291970383
-0.3043521 0.036475908 -0.096796662 4292101197
-0.3041712 0.038306128 -0.096657693 4292101451
-0.30331555 0.039903861 -0.095197104 4292298064
-0.30313525 0.041728448 -0.095058575 4291852145
-0.30295491 0.043553311 -0.094920002 4292725682
-0.30344743 0.045629691 -0.096101627 4293188802
-0.3036043 0.047590651 -0.096625812 4293123014
-0.3041015 0.049691875 -0.097819202 4293188808
-0.30494511 0.051945563 -0.099694833 4293255112
-0.30510604 0.053938221 -0.10023046 4293189835
-0.30630893 0.05637655 -0.10281663 4293189579
-0.30647349 0.058394581 -0.10336218 4293254860
-0.30663869 0.06041988 -0.10390963 4293320910
-0.30645341 0.062294494 -0.10376729 4293386703
-0.30661881 0.064330563 -0.10431636 4293321422
-0.30643314 0.066208988 -0.10417373 4293255630
-0.30659869 0.068255924 -0.10472436 4293255373
-0.30641267 0.070138149 -0.10458145 4293124299
-0.3069315 0.072372042 -0.10583138 4293190346
-0.30745384 0.074621767 -0.10708997 4293320647
-0.30833846 0.077073313 -0.1090668 4292925379
-0.30996034 0.079935335 -0.11250546 4292728000
-0.31198329 0.083048806 -0.11674257 4292661690
-0.31686023 0.015055133 -0.12247164 4290550148
-0.31553379 0.016741375 -0.12009598 4290032546
-0.31422147 0.018410036 -0.1177455 4290163360
-0.31255564 0.019975321 -0.11469797 4290163103
-0.31163794 0.021695681 -0.11311842 4290097565
-0.31000733 0.023222385 -0.11013473 4290226583
-0.30875298 0.024821108 -0.10788853 4290216575
-0.30786249 0.026498962 -0.10635684 4290723656
-0.30732754 0.0282638 -0.10552436 4290985024
-0.30644649 0.029921809 -0.10400859 4291181890
-0.30591664 0.031672277 -0.10318431 4291445577
-0.30470219 0.033204764 -0.10100787 4291708496
-0.30383891 0.034829967 -0.09952274 4291905362
-0.30331883 0.036555178 -0.098714396 4291970640
-0.30313751 0.038388662 -0.098575279 4291970894
-0.3026194 0.040105492 -0.097769827 4292101715
-0.30210298 0.041816786 -0.096967094 4291917172
-0.30192223 0.04364489 -0.096828371 4292464054
-0.30241203 0.045725293 -0.098018594 4292926403
-0.30256727 0.047689866 -0.098546945 4292992199
-0.30272302 0.049661398 -0.099077083 4293188809
-0.30321878 0.051777292 -0.10028302 4293255114
-0.30371791 0.053907894 -0.10149711 4293189837
-0.30456516 0.056199536 -0.10340463 4293123787
-0.30507317 0.058364324 -0.10463991 4293319880
-0.3052358 0.060389709 -0.10518964 4293386190
-0.30539897 0.062422417 -0.10574128 4293321425
-0.30556265 0.064462386 -0.10629474 4293255888
-0.30537656 0.066344239 -0.10615195 4293255375
-0.30519044 0.068226345 -0.10600914 4293320396
-0.30500433 0.070108742 -0.1058663 4293054147
-0.30516753 0.072166748 -0.10642091 4292854714
-0.30603543 0.074592486 -0.10838396 4293185981
-0.30655634 0.076858334 -0.10965599 4292925122
-0.30852157 0.079905979 -0.11381795 4292596415
-0.31052896 0.083019339 -0.11806922 4292464056
-0.31541255 0.015019589 -0.12379324 4290748296
-0.31409374 0.016706221 -0.12141062 4290098085
-0.3127889 0.01837524 -0.11905325 4290163620
-0.31113303 0.019940909 -0.11599662 4290098083
-0.30985951 0.021573175 -0.11369635 4290163362
-0.30788994 0.023008125 -0.11001027 4290163104
-0.30700079 0.024695026 -0.10846866 4290486935
-0.30611774 0.026370596 -0.1069377 4290405743
-0.30524072 0.028034972 -0.10541719 4291050824
-0.30436963 0.02968826 -0.10390699 4291313735
-0.30384505 0.031433336 -0.10308585 4291445581
-0.3033222 0.033172745 -0.10226741 4291643219
-0.3028011 0.034906536 -0.10145172 4291840852
-0.30228177 0.036634699 -0.10063882 4291840853
-0.30210003 0.038471449 -0.10049955 4291905876
-0.30124822 0.040074345 -0.099021167 4291971674
-0.30106705 0.041905418 -0.098882332 4291918714
-0.30088589 0.043736774 -0.098743454 4292266424
-0.30103821 0.045694582 -0.099272281 4292729283
-0.30119097 0.047659267 -0.099802852 4292992200
-0.30134428 0.04963091 -0.10033521 4293189066
-0.30217353 0.051884644 -0.10222387 4293190092
-0.30232951 0.053877555 -0.10276399 4293255373
-0.30316949 0.056169212 -0.10467812 4293189579
-0.30367255 0.058334056 -0.10591787 4293254086
-0.30383265 0.060359556 -0.1064699 4293320652
-0.30399328 0.06239238 -0.10702381 4293190609
-0.3041544 0.064432494 -0.10757958 4293190095
-0.30396819 0.066314481 -0.10743688 4293386190
-0.30412954 0.068365529 -0.10799433 4293316291
-0.30359569 0.070079349 -0.1071514 4292911268
-0.30375636 0.072137445 -0.10770831 4292575625
-0.30461672 0.074563228 -0.1096782 4292780954
-0.30513257 0.076829135 -0.11095484 4292922808
-0.30708253 0.079876646 -0.11513067 4292662464
-0.30907434 0.082989864 -0.11939612 4292266419
-0.31434098 0.015062744 -0.12586842 4290551944
-0.31302544 0.016752291 -0.12347057 4290164134
-0.31172383 0.018424187 -0.12109815 4290163879
-0.31007239 0.019992463 -0.11802189 4290098598
-0.30844396 0.021539129 -0.11498851 4290229412
-0.30648649 0.022974543 -0.11129134 4290229926
-0.30525437 0.024569346 -0.10904707 4290491811
-0.30437869 0.026242658 -0.10751677 4290418578
-0.30350903 0.027904792 -0.10599696 4290731107
-0.30264524 0.02955588 -0.10448749 4291183440
-0.30212432 0.031298369 -0.10366677 4291445839
-0.3019419 0.033140719 -0.10352718 4291643476
-0.30142307 0.034874726 -0.10270944 4291776342
-0.30124092 0.036714483 -0.10257004 4291841368
-0.30072409 0.038440023 -0.10175528 4291905880
-0.30054221 0.04027722 -0.10161605 4291841123
-0.30002737 0.041994374 -0.10080429 4291658115
-0.29984576 0.043828994 -0.10066526 4291872441
-0.29999644 0.0457904 -0.10119829 4292531394
-0.30014762 0.04775878 -0.10173311 4292795080
-0.30029929 0.049734112 -0.10226975 4293057995
-0.30045143 0.051716454 -0.10280821 4293189838
-0.30094084 0.053847209 -0.1040311 4293255119
-0.30143359 0.055992834 -0.10526236 4293255629
-0.30192974 0.058153525 -0.10650211 4293254857
-0.30242923 0.060329393 -0.10775038 4293320654
-0.30258733 0.062362332 -0.10830661 4293255633
-0.30274591 0.064402558 -0.10886467 4293386190
-0.30290499 0.066450171 -0.10942472 4293448133
-0.30306467 0.068505161 -0.10998669 4293043364
-0.30253163 0.070221879 -0.10913891 4292831600
-0.30269057 0.072283998 -0.10970034 4292956246
-0.30354676 0.074714959 -0.11168418 4292700269
-0.30405962 0.076985545 -0.11297017 4292519066
-0.30600148 0.080040284 -0.1171749 4292726973
-0.30798513 0.083161011 -0.12147006 4292330925
-0.3128902 0.015027116 -0.12719287 4290356621
-0.31158227 0.016717054 -0.12478803 4290164133
-0.31028819 0.018389309 -0.12240871 4290098599
-0.30864674 0.019958001 -0.1193233 4290098599
-0.30738384 0.02159334 -0.11700172 4290295205
-0.3050828 0.022940921 -0.11257266 4290295720
-0.3038578 0.024536092 -0.11032185 4290361001
-0.30264542 0.02611516 -0.10809416 4290622626
-0.30178297 0.027775047 -0.106575 4290548359
-0.30092639 0.02942393 -0.10506621 4290993251
-0.30040917 0.031163851 -0.10424599 4291446358
-0.30022696 0.033003241 -0.10410671 4291512409
-0.30004478 0.034842908 -0.10396738 4291579485
-0.29986253 0.036682855 -0.10382804 4291580767
-0.29968023 0.038523056 -0.1036887 4291714148
-0.29949793 0.040363535 -0.10354932 4291916153
-0.29931563 0.042204265 -0.10340993 4291796635
-0.29913327 0.044045277 -0.10327051 4291873981
-0.29928315 0.046013921 -0.10380989 4292399810
-0.29910043 0.047858626 -0.10367019 4292466631
-0.29891768 0.049703579 -0.10353047 4292598218
-0.29906738 0.051686034 -0.10407116 4292926927
-0.29921752 0.053675525 -0.10461361 4293255377
-0.29970342 0.055817068 -0.10584491 4293387217
-0.30019262 0.057973601 -0.10708456 4293452752
-0.30068514 0.060145289 -0.10833276 4293386705
-0.30049974 0.062017336 -0.10819098 4293451470
-0.30099499 0.064211085 -0.10944736 4293513156
-0.30149367 0.066420346 -0.11071235 4293174950
-0.30165076 0.068475477 -0.11127664 4292898162
-0.3018083 0.070538022 -0.11184281 4293086287
-0.30196643 0.072608061 -0.112411 4292888397
-0.30247274 0.074867204 -0.11369741 4292627801
-0.30333364 0.077329352 -0.11571641 4292376705
-0.30491635 0.080204502 -0.11922668 4292460972
-0.30689174 0.08333277 -0.12355172 4291739556
-0.31181166 0.015070339 -0.12927832 4290226583
-0.31050703 0.016763197 -0.12685812 4290164134
-0.30921623 0.018438373 -0.12446366 4290033064
-0.30757931 0.020009652 -0.12135844 4290098345
-0.30631971 0.021647753 -0.11902218 4290230440
-0.30402562 0.022997269 -0.11456449 4290230186
-0.302461 0.024502829 -0.11159687 4290295979
-0.30125564 0.026082233 -0.1093627 4290492074
-0.30006257 0.027645743 -0.10715135 4290753700
-0.29921314 0.029292421 -0.1056432 4291270281
-0.29903087 0.031131696 -0.10550399 4291324022
-0.29884854 0.032971274 -0.10536479 4291388528
-0.29866621 0.03481108 -0.10522556 4291456121
-0.29881531 0.036762837 -0.10576843 4291395201
-0.29863262 0.038606334 -0.10562892 4291662729
-0.29844987 0.040450107 -0.10548939 4292261281
-0.29826713 0.04229416 -0.10534983 4292464059
-0.29808435 0.044138465 -0.10521026 4292466371
-0.29823259 0.04611079 -0.10575396 4292531397
-0.2977187 0.047827918 -0.10493106 4292269255
-0.29786628 0.049807064 -0.10547423 4292204234
-0.29735294 0.051518433 -0.10465177 4292795086
-0.29783073 0.053645208 -0.10587902 4293255376
-0.29797888 0.055641878 -0.10642561 4293386706
-0.2984612 0.057794277 -0.10766522 4293451987
-0.29894683 0.059961785 -0.10891341 4293385679
-0.2990981 0.0619874 -0.10946982 4293382083
-0.29958841 0.064181209 -0.11073069 4293107621
-0.30008209 0.066390537 -0.11200021 4292962420
-0.30057913 0.068615533 -0.11327858 4293152079
-0.30073503 0.070682101 -0.11384938 4293019466
-0.30089143 0.072756186 -0.11442215 4292823371
-0.30174237 0.075202785 -0.11644154 4292432472
-0.30225134 0.077487446 -0.11775127 4292116865
-0.30347142 0.080175057 -0.12054481 4292264616
-0.30942771 0.016809534 -0.1289359 4290229668
-0.30814025 0.018487606 -0.12652619 4290032552
-0.30650792 0.020061478 -0.12340099 4290098344
-0.3052516 0.021702351 -0.12105 4290230698
-0.30296457 0.02305381 -0.11656351 4290230701
-0.30140439 0.024561735 -0.11357703 4290362286
-0.29986563 0.026049295 -0.11063147 4290558125
-0.29867956 0.027613139 -0.10841371 4290689709
-0.29783469 0.029260093 -0.10690136 4291608492
-0.29732338 0.030997699 -0.10607959 4291409060
-0.29746985 0.032939274 -0.10662311 4291406745
-0.2972874 0.034779269 -0.10648396 4291672230
-0.29743406 0.036731139 -0.10702905 4291741621
-0.29758117 0.038689915 -0.10757602 4291611065
-0.297398 0.040536996 -0.10743633 4291873726
-0.29721481 0.042384353 -0.10729662 4292267969
-0.29703161 0.044231966 -0.10715688 4292333763
-0.29684839 0.046079859 -0.10701713 4292203207
-0.2966651 0.047928032 -0.10687735 4292335307
-0.29648182 0.049776457 -0.10673756 4292597965
-0.2962985 0.051625166 -0.10659774 4292991435
-0.29644367 0.053614881 -0.10714468 4292925642
-0.29658934 0.055611692 -0.10769349 4292597709
-0.29706678 0.057764154 -0.10893754 4292794061
-0.29754749 0.059931725 -0.11019019 4292791234
-0.29769623 0.061957426 -0.11074889 4292645534
-0.29818156 0.064151332 -0.11201426 4292893551
-0.2986702 0.066360712 -0.11328834 4293151570
-0.29916224 0.068585783 -0.11457128 4293018954
-0.2996577 0.070826679 -0.11586323 4292888393
-0.30015662 0.073083587 -0.11716416 4292693070
-0.30100656 0.075540721 -0.11920524 4292371299
-0.30186552 0.078024283 -0.12126803 4292385164
-0.3079786 0.016774142 -0.1302588 4290161816
-0.30669874 0.018452574 -0.12784213 4290099112
-0.30578968 0.020200402 -0.126197 4290098598
-0.30453262 0.021846484 -0.12382297 4290295977
-0.30224499 0.023201339 -0.11929198 4290362543
-0.3010259 0.024806719 -0.11699089 4290493872
-0.29948166 0.026300408 -0.11400668 4290624945
-0.29829136 0.027871192 -0.11176029 4290690223
-0.29711315 0.029426167 -0.10953683 4291675315
-0.29660118 0.031169534 -0.10870783 4290889151
-0.29641834 0.033012569 -0.10856854 4291084467
-0.29656366 0.034964643 -0.10911824 4291544503
-0.29670942 0.036923621 -0.10966974 4291676348
-0.29652584 0.03877376 -0.10952992 4291808192
-0.29667175 0.040743172 -0.11008305 4291873984
-0.29648781 0.042597011 -0.10994295 4292005825
-0.29630387 0.044451106 -0.10980283 4292136900
-0.2961199 0.046305481 -0.10966267 4292203206
-0.29560763 0.048028469 -0.10883045 4292269257
-0.2954239 0.049880214 -0.10869052 4292400844
-0.29524016 0.051732264 -0.10855053 4292466895
-0.29505637 0.053584572 -0.10841054 4292598738
-0.29552767 0.055726301 -0.1096551 4292794832
-0.29567209 0.05773402 -0.11021011 4293187526
-0.29614788 0.059901655 -0.1114672 4292783789
-0.29629409 0.061927471 -0.11202819 4292505468
-0.29677448 0.06412144 -0.11329805 4292890199
-0.29759493 0.066496678 -0.11529075 4293019471
-0.29808393 0.068726271 -0.116583 4292953674
-0.29857635 0.07097175 -0.11788431 4292757580
-0.29941639 0.073413305 -0.1199257 4292564828
-0.30026531 0.075881071 -0.1219888 4292512394
-0.30561581 0.0185019 -0.12991482 4290359200
-0.30470887 0.020252816 -0.12825947 4290229673
-0.3038083 0.021991659 -0.12661585 4290426794
-0.3018668 0.023441546 -0.1227719 4290559407
-0.30030051 0.024960227 -0.11971645 4290624945
-0.29909348 0.026554151 -0.11741719 4290559923
-0.29789886 0.028131869 -0.11514165 4290493875
-0.29671654 0.029693661 -0.11288949 4291412147
-0.29620248 0.031445704 -0.1120506 4291152581
-0.29601857 0.033298329 -0.11191067 4291216058
-0.29583466 0.035151236 -0.11177072 4291413437
-0.29597956 0.037117444 -0.11232879 4291479487
-0.29579526 0.038974088 -0.11218857 4291676865
-0.29561093 0.040830988 -0.11204832 4291743168
-0.29575557 0.042811118 -0.1126077 4291873984
-0.29524216 0.044545602 -0.11176777 4292005827
-0.29505777 0.046403319 -0.11162745 4292137158
-0.2948733 0.048261315 -0.11148714 4292269257
-0.29436213 0.049984351 -0.11065044 4292269772
-0.29417795 0.051839706 -0.1105103 4292335053
-0.29399374 0.053695343 -0.11037014 4292465870
-0.29413524 0.055696044 -0.11092561 4292662734
-0.29460484 0.057852823 -0.11218306 4293187784
-0.29507762 0.060024761 -0.11344916 4292716458
-0.2952221 0.062054493 -0.11401466 4292502388
-0.29569948 0.064252861 -0.11529364 4292888914
-0.29651561 0.06663309 -0.11730032 4292823117
-0.2970016 0.068867244 -0.11860201 4292823371
-0.29749098 0.071117349 -0.11991274 4292562770
-0.29832658 0.073564127 -0.12196856 4292375666
-0.30397987 0.020393144 -0.13108817 4290425514
-0.30307856 0.022137817 -0.12942871 4290361517
-0.30148435 0.023684274 -0.1262888 4290494385
-0.29991236 0.025209421 -0.12319281 4290625461
-0.29870096 0.026810501 -0.12086352 4290624949
-0.2975021 0.028395273 -0.11855835 4290558645
-0.29631555 0.029963933 -0.11627699 4291084470
-0.29579943 0.03172471 -0.11542806 4291022535
-0.29528508 0.033479698 -0.11458199 4291085499
-0.29510039 0.035339128 -0.11444165 4291413439
-0.29491568 0.037198842 -0.11430127 4291610303
-0.29505935 0.039175771 -0.11486567 4291545535
-0.29487428 0.041039217 -0.11472502 4291676609
-0.29468918 0.042902946 -0.11458434 4291873985
-0.29450402 0.044766955 -0.11444367 4292005059
-0.29431883 0.046631221 -0.11430296 4292137158
-0.29380679 0.048362844 -0.11345866 4292269002
-0.29329652 0.050088834 -0.1126173 4292269517
-0.29311189 0.05194753 -0.11247701 4292400333
-0.29292724 0.053806514 -0.1123367 4292531661
-0.29306698 0.055810988 -0.1128965 4292662989
-0.29320726 0.057822619 -0.11345826 4293188039
-0.29334792 0.059841484 -0.11402193 4293042592
-0.29381704 0.062024463 -0.11529662 4292696424
-0.29462048 0.064384736 -0.11729645 4292888653
-0.29576769 0.066937417 -0.12004331 4292822859
-0.29659125 0.069353208 -0.12209271 4292692303
-0.29742348 0.071794838 -0.12416386 4292565345
-0.29826456 0.074262813 -0.126257 4292511878
-0.3028895 0.020446191 -0.13317084 4290030235
-0.30199036 0.022193952 -0.1315012 4290164142
-0.30109757 0.023929602 -0.12984332 4290493103
-0.29951993 0.025461204 -0.12670606 4290756019
-0.29830405 0.027069557 -0.12434621 4290625204
-0.29710087 0.028661415 -0.12201097 4290690741
-0.29591018 0.030237004 -0.1196999 4290887863
-0.29539195 0.032006595 -0.11884073 4291023560
-0.2948755 0.033770345 -0.1179845 4290954428
-0.29436085 0.035528339 -0.11713122 4291216830
-0.29384789 0.037280515 -0.11628085 4291413952
-0.29398987 0.039261155 -0.11684968 4291611585
-0.29380435 0.041127972 -0.11670886 4291677121
-0.2936188 0.042995077 -0.11656804 4291808704
-0.29343322 0.04486246 -0.11642718 4292005570
-0.29292172 0.046599984 -0.1155779 4292202950
-0.29241195 0.048331853 -0.1147315 4292203721
-0.29190394 0.050058033 -0.11388805 4292269514
-0.2917192 0.051916923 -0.11374784 4292400586
-0.29153442 0.053776074 -0.11360761 4292466123
-0.29167169 0.05578066 -0.11416966 4292531659
-0.29180941 0.057792403 -0.1147337 4292990660
-0.2922723 0.059964497 -0.11600877 4293170836
-0.29339519 0.062468369 -0.11872771 4292825438
-0.29420048 0.064843491 -0.12075606 4292692818
-0.29568827 0.067582749 -0.12428041 4292562264
-0.29651713 0.070019223 -0.12636694 4292436072
-0.29735476 0.07248199 -0.12847571 4292445572
-0.30089805 0.022250248 -0.1335813 4290228381
-0.30035627 0.024083087 -0.13267322 4290821291
-0.29912302 0.025715675 -0.13025685 4291214506
-0.29790273 0.027331335 -0.12786587 4291609775
-0.29669523 0.028930336 -0.12549999 4291609262
-0.29550031 0.030512912 -0.12315878 4291543469
-0.29464826 0.032185189 -0.12156425 4292070586
-0.29380211 0.033846177 -0.11998074 4291477684
-0.29328826 0.035607234 -0.1191226 4291348159
-0.2927762 0.03736249 -0.11826743 4291479743
-0.29259056 0.039229218 -0.11812673 4291611585
-0.29240492 0.041096203 -0.11798599 4291743427
-0.29221925 0.042963471 -0.11784525 4291874755
-0.29203355 0.044831019 -0.11770449 4292005317
-0.29184783 0.046698827 -0.11756369 4292202951
-0.29166204 0.048566919 -0.11742289 4292203721
-0.29115343 0.050298806 -0.11657194 4292269258
-0.29129046 0.052303948 -0.1171412 4292400331
-0.29110461 0.054172862 -0.11700033 4292531659
-0.29124174 0.056188673 -0.11757123 4292531403
-0.2910555 0.058061372 -0.1174301 4292596162
-0.29151732 0.060242061 -0.11871902 4292712345
-0.29263869 0.062756754 -0.12146638 4292699251
-0.29344273 0.065141879 -0.12351631 4292899954
-0.29526764 0.068065152 -0.12782642 4292971653
-0.29644164 0.070694745 -0.13070232 4292582805
-0.29715487 0.027496064 -0.13066924 4291459449
-0.29594696 0.02909998 -0.12828039 4291522415
-0.29475161 0.030687356 -0.12591653 4291587693
-0.29389915 0.032365024 -0.12430698 4292048510
-0.29305252 0.034031332 -0.12270851 4291469461
-0.29188654 0.035574868 -0.12040193 4291544247
-0.29137674 0.037330344 -0.11954466 4291676864
-0.29119101 0.03919724 -0.11940403 4291677122
-0.29068321 0.040944036 -0.11854985 4291808708
-0.29049775 0.042808261 -0.11840942 4292006085
-0.29063362 0.04479957 -0.11898202 4292136902
-0.29076993 0.046797995 -0.11955654 4292203206
-0.2909067 0.048803613 -0.12013306 4292269000
-0.29072016 0.050678607 -0.11999182 4292269002
-0.29118156 0.052836556 -0.121292 4292400331
-0.29034698 0.054429419 -0.11970928 4292466123
-0.29080704 0.056600913 -0.12100843 4292531402
-0.29094446 0.058635402 -0.12159038 4292596421
-0.29140893 0.060833465 -0.12290282 4292656567
-0.29253736 0.063370138 -0.12569895 4292783019
-0.29334638 0.065775506 -0.12778579 4292981670
-0.29621324 0.069251962 -0.1344744 4292852392
-0.29671159 0.071560502 -0.1358756 4292392611
-0.29640147 0.027661957 -0.13349274 4290993245
-0.29519314 0.029270807 -0.1310806 4291250769
-0.2939975 0.030863019 -0.12869382 4291381580
-0.29281428 0.032438897 -0.12633196 4291709527
-0.29196987 0.034107991 -0.12472384 4291455852
-0.29048455 0.035542522 -0.1216815 4291467667
-0.28965679 0.037184309 -0.12010589 4291606196
-0.28947127 0.039048165 -0.11996558 4292004797
-0.28928569 0.040912274 -0.11982527 4292071362
-0.28910008 0.042776693 -0.11968493 4292006084
-0.2898747 0.045022909 -0.12169763 4292137157
-0.29033315 0.047160566 -0.12300387 4292203461
-0.29079479 0.049313419 -0.12431921 4292334535
-0.2906068 0.051201623 -0.12417709 4292334537
-0.29107091 0.053376596 -0.12550101 4292400330
-0.29055595 0.055125155 -0.12462422 4292466379
-0.29102066 0.05731824 -0.12595205 4292531915
-0.29181883 0.059682574 -0.12803306 4292728264
-0.292292 0.061911616 -0.1293845 4292859334
-0.29479909 0.065156631 -0.13532606 4292727234
-0.29563621 0.067619398 -0.1375062 4292462004
-0.29683185 0.070288725 -0.14049937 4292261282
-0.29443377 0.029442839 -0.13390087 4290796120
-0.29323781 0.031039936 -0.13149092 4291251790
-0.29205433 0.032620542 -0.12910622 4291447119
-0.29055801 0.034075245 -0.12601243 4291513172
-0.28908229 0.035510138 -0.1229613 4291453799
-0.28825924 0.037152231 -0.12138138 4291722371
-0.28807357 0.039016251 -0.12124114 4292057750
-0.28788787 0.040880524 -0.12110092 4291997868
-0.28770217 0.04274511 -0.12096064 4291870908
-0.2887893 0.045119345 -0.12370498 4292004802
-0.28956756 0.04739384 -0.12575276 4292202948
-0.29035392 0.049692508 -0.12782197 4292465605
-0.29049158 0.051731914 -0.12842117 4292531399
-0.29228497 0.054511309 -0.13278377 4292597192
-0.29276314 0.05673714 -0.13416184 4292794054
-0.29358339 0.059136271 -0.13632041 4292530885
-0.29614091 0.062381782 -0.14243791 4292266175
-0.2966443 0.064689718 -0.1438836 4292197808
-0.29786038 0.067366518 -0.14695652 4292195491
-0.29247245 0.031218056 -0.13430795 4290800227
-0.29096001 0.032695234 -0.13115075 4290995040
-0.28946862 0.034152124 -0.12803747 4291190363
-0.28799775 0.035589129 -0.12496715 4291450968
-0.28717688 0.037233941 -0.1233777 4291711834
-0.28667566 0.038984329 -0.12251695 4291714152
-0.28648987 0.040848769 -0.12237678 4291786628
-0.2866185 0.042836946 -0.12295648 4291924893
-0.28801951 0.045344938 -0.1264516 4292198324
-0.28912011 0.047762714 -0.12926318 4292398526
