# .PCD v0.7 - Point Cloud Data file format
VERSION 0.7
FIELDS x y z rgba
SIZE 4 4 4 4
TYPE F F F U
COUNT 1 1 1 1
WIDTH 1010
HEIGHT 1
VIEWPOINT 0 0 0 1 0 0 0
POINTS 1010
DATA ascii
-0.34480792 0.027042367 -0.091450647 4289083191
-0.34481314 0.028856456 -0.090772212 4288692029
-0.34438491 0.030392136 -0.089456677 4288892489
-0.34439012 0.032203555 -0.088779226 4288638045
-0.34439531 0.034015235 -0.0881017 4288838246
-0.34440053 0.035827186 -0.08742407 4289040240
-0.34483922 0.037930992 -0.087378502 4288977273
-0.34441093 0.039451908 -0.086068496 4288845688
-0.34355378 0.040671788 -0.084137745 4288910711
-0.34355897 0.042478405 -0.083462104 4288715641
-0.34356415 0.044285275 -0.082786389 4288714105
-0.34508792 0.014013167 -0.10074696 4289504648
-0.34422052 0.015330791 -0.098748133 4289702031
-0.3429285 0.016385498 -0.096114673 4289569158
-0.34207645 0.017683648 -0.094149753 4289562735
-0.34165519 0.019229485 -0.092835844 4289430126
-0.34123546 0.02077016 -0.091526479 4289099114
-0.34124053 0.022567712 -0.090854332 4289357664
-0.34124556 0.024365511 -0.090182096 4289418830
-0.34125063 0.026163584 -0.089509755 4289415751
-0.34168056 0.028234387 -0.08946871 4288964949
-0.34168562 0.030036146 -0.088794969 4289101419
-0.34169069 0.031838186 -0.088121161 4289239161
-0.3421222 0.033923477 -0.088077292 4289109119
-0.34212726 0.035729222 -0.08740209 4288911998
-0.34256026 0.037825603 -0.087356664 4288977787
-0.34213743 0.039341535 -0.08605136 4288911481
-0.34129113 0.040557686 -0.084127471 4288845687
-0.34087279 0.042061351 -0.082834542 4288780407
-0.34087786 0.043858889 -0.082162403 4288779639
-0.3408829 0.045656696 -0.081490166 4288648569
-0.34409136 0.012916648 -0.10334902 4289700744
-0.34322593 0.014240485 -0.10133752 4289768082
-0.34193677 0.015302786 -0.098685689 4289439374
-0.34066132 0.016354138 -0.096061885 4289373064
-0.33982012 0.017647978 -0.094104052 4289307272
-0.33856693 0.018678317 -0.091527097 4289372807
-0.33815542 0.020209389 -0.090229236 4289373063
-0.33774531 0.021735374 -0.088935755 4289567359
-0.33775026 0.023517674 -0.088269398 4289497714
-0.3381702 0.025565682 -0.088226691 4289363306
-0.33859161 0.02762112 -0.088183701 4289304180
-0.3390145 0.029684022 -0.088140473 4289240705
-0.33943889 0.031754445 -0.088096991 4289240705
-0.33944383 0.033550628 -0.087425478 4289174913
-0.33986971 0.035632014 -0.087380446 4289043071
-0.3402971 0.037721027 -0.087335169 4288977788
-0.3394587 0.038940705 -0.085410304 4289042556
-0.33904418 0.040444482 -0.084117502 4288845688
-0.33821455 0.041648757 -0.082213782 4288779895
-0.33780435 0.043140467 -0.080933124 4288845431
-0.33780926 0.044925928 -0.080265604 4288844919
-0.33781421 0.04671165 -0.079597972 4288385657
-0.34309116 0.01181613 -0.10596051 4289768078
-0.34222767 0.013146199 -0.10393622 4289899411
-0.34137025 0.014467039 -0.10192619 4289635731
-0.3400932 0.015526485 -0.099275969 4289439372
-0.33840978 0.016323039 -0.096009672 4289373581
-0.33757937 0.017612683 -0.094058931 4289438857
-0.33593106 0.018386906 -0.0908629 4289438087
-0.33511791 0.019656472 -0.088950194 4289438855
-0.33471581 0.021173026 -0.08766792 4289503879
-0.33472058 0.022943174 -0.087006234 4289373061
-0.33513227 0.024976149 -0.086961642 4289307013
-0.33513704 0.026749911 -0.086298607 4289306755
-0.33555019 0.02879356 -0.086252525 4289306754
-0.33637589 0.031119216 -0.086826324 4289240962
-0.33679333 0.033181764 -0.086780712 4289240705
-0.33721223 0.035251766 -0.086734816 4289108862
-0.33721706 0.037042368 -0.086065486 4289108859
-0.33680782 0.038544171 -0.084776208 4289043068
-0.33598873 0.039750773 -0.082876913 4288846203
-0.33558381 0.041240547 -0.081599735 4288780152
-0.33518019 0.042725395 -0.080326833 4288845688
-0.33477801 0.044205371 -0.07905826 4288844919
-0.33478281 0.045978904 -0.078395285 4288582774
-0.33519459 0.048055258 -0.078334495 4288580722
-0.33519939 0.049832419 -0.077670179 4288700249
-0.33643374 0.052542429 -0.078818142 4288431171
-0.33726546 0.054962829 -0.079366669 4288299069
-0.33810306 0.057400554 -0.079918943 4288234302
-0.33894649 0.059855707 -0.080474995 4288171848
-0.34208733 0.01071161 -0.10858145 4289702291
-0.34122577 0.012047939 -0.10654426 4289967003
-0.34037036 0.013375031 -0.10452151 4289636758
-0.33952102 0.014692924 -0.10251305 4289701775
-0.33825591 0.015749484 -0.099864416 4289505424
-0.33658829 0.016543267 -0.096599743 4289504910
-0.33535403 0.017577721 -0.094014362 4289635976
-0.33332235 0.018098583 -0.090205856 4289504134
-0.3325223 0.019362787 -0.088305339 4289570185
-0.33212668 0.0208722 -0.08703085 4289504393
-0.33213136 0.022633381 -0.086372606 4289504645
-0.33213598 0.024394836 -0.085714281 4289307271
-0.33214065 0.026156554 -0.085055828 4289307013
-0.33294734 0.028452916 -0.085620716 4289373059
-0.3333551 0.030492904 -0.085573487 4289307267
-0.33376431 0.03254021 -0.085526057 4289240962
-0.33417496 0.034594931 -0.085478351 4289174910
-0.33458698 0.036657039 -0.085430332 4289174910
-0.33377838 0.037865981 -0.083535545 4289109374
-0.33337852 0.039353758 -0.082261719 4288912509
-0.33298007 0.040836681 -0.080992267 4288846202
-0.33258298 0.042314723 -0.079727024 4288846203
-0.33218724 0.043787923 -0.078466095 4288845691
-0.33219191 0.045552481 -0.077806577 4288779641
-0.33219659 0.047317307 -0.07714697 4288844917
-0.33260167 0.049385697 -0.077084243 4288509543
-0.33341137 0.051769931 -0.077621169 4288171335
-0.3342267 0.054171018 -0.078161776 4288102715
-0.33504769 0.056589138 -0.078705981 4288299581
-0.33587447 0.059024453 -0.079253942 4288300095
-0.33712313 0.061808143 -0.080420032 4288371275
-0.34022024 0.010945699 -0.10916174 4289966237
-0.33936679 0.012279036 -0.10712615 4289768858
-0.33809566 0.013353804 -0.104439 4289637012
-0.33725727 0.014667286 -0.10243796 4289637009
-0.33600852 0.015720431 -0.099799111 4289636752
-0.33436236 0.016511863 -0.096546359 4289570702
-0.33273911 0.017292531 -0.093338773 4289701769
-0.33113828 0.018062634 -0.090175368 4289570185
-0.32995325 0.019072216 -0.087667376 4289635979
-0.32956395 0.020574549 -0.086400561 4289635466
-0.32917604 0.022072004 -0.08513806 4289701511
-0.32918054 0.023821579 -0.084484249 4289307527
-0.32957754 0.025832286 -0.084435783 4289372293
-0.32997593 0.027850194 -0.084387109 4289373572
-0.33077228 0.030144911 -0.084947601 4289373573
-0.33117479 0.032181229 -0.084899351 4289372804
-0.33117935 0.033947207 -0.084239431 4289241473
-0.33158329 0.035994139 -0.084189691 4289175426
-0.33118847 0.037479963 -0.082919262 4289175425
-0.33079505 0.038960934 -0.081653118 4289109376
-0.33000773 0.040150203 -0.079790682 4289043583
-0.32961836 0.041619472 -0.078536227 4289043583
-0.32923034 0.043083977 -0.077286027 4289043328
-0.3292349 0.044836644 -0.076631062 4288977023
-0.32923943 0.046589576 -0.075976007 4288976764
-0.32963651 0.048642695 -0.075911686 4288776823
-0.33043033 0.051008169 -0.076440938 4288632656
-0.33083156 0.053080045 -0.076376915 4288495932
-0.33163366 0.055473655 -0.076910324 4288365116
-0.33284488 0.058204889 -0.078050122 4288365372
-0.33406883 0.060965009 -0.079201758 4288431682
-0.33530572 0.063754477 -0.080365449 4288832089
-0.33793384 0.010932744 -0.10906239 4289703319
-0.33751419 0.012509389 -0.1077062 4289703314
-0.33625507 0.013581209 -0.10502072 4289637269
-0.3354246 0.014891777 -0.10302124 4289637522
-0.33377665 0.015691705 -0.099734522 4289702031
-0.33215174 0.016480761 -0.096493572 4289701773
-0.33054933 0.017259121 -0.093297474 4289767308
-0.32896897 0.018027052 -0.090145335 4289636493
-0.32779905 0.019033518 -0.087646104 4289701771
-0.3270272 0.020280028 -0.085776947 4289569931
-0.32703161 0.022023555 -0.085125484 4289570187
-0.32703602 0.023767378 -0.08447393 4289373833
-0.32704043 0.025511445 -0.083822295 4289635206
-0.32743233 0.027518619 -0.08377286 4289570184
-0.32782561 0.029532932 -0.083723143 4289504905
-0.32783005 0.031283744 -0.083068989 4289504649
-0.3274456 0.032762062 -0.081813708 4289438597
-0.32745001 0.034510385 -0.081160486 4289372549
-0.32784331 0.036537711 -0.081105918 4289373062
-0.32784775 0.038289562 -0.080451362 4289307013
-0.32746327 0.039756916 -0.079200186 4289241220
-0.32708013 0.041219529 -0.077953197 4289307013
-0.32708457 0.042966139 -0.077300601 4289241222
-0.32708898 0.044713017 -0.0766479 4289109380
-0.32709339 0.046460163 -0.075995117 4289174401
-0.32748538 0.048506256 -0.075931132 4289304443
-0.32787877 0.050559592 -0.075866833 4289158745
-0.32866505 0.052928034 -0.076394916 4288823617
-0.32945678 0.055313066 -0.076926522 4288560956
-0.33025399 0.057714883 -0.077461779 4288495164
-0.33145794 0.060458239 -0.078604378 4288561725
-0.3326745 0.063230649 -0.07975886 4288762439
-0.33691496 0.0061740098 -0.11304587 4289613393
-0.33649629 0.0077613886 -0.11168048 4289807172
-0.33607912 0.0093433615 -0.11031982 4289484127
-0.33566341 0.010919942 -0.10896391 4290030986
-0.33524925 0.012491206 -0.10761277 4289768596
-0.33400649 0.013559533 -0.10493735 4289702806
-0.33318678 0.01486574 -0.10294521 4289570963
-0.33156016 0.015663277 -0.099670567 4289636497
-0.32995623 0.016449971 -0.096441425 4289767312
-0.32876891 0.017474746 -0.093883775 4289833102
-0.32681432 0.017991738 -0.090115666 4289702288
-0.32604444 0.01924389 -0.08823505 4289767821
-0.32527983 0.020487769 -0.086367138 4289636237
-0.32490158 0.021975566 -0.085113272 4289505164
-0.32452464 0.023458557 -0.083863586 4289440398
-0.32452893 0.025193924 -0.083215289 4289963914
-0.32453319 0.026929563 -0.082566902 4289898892
-0.32453749 0.028665433 -0.081918411 4289767565
-0.32454178 0.030401567 -0.081269823 4289701775
-0.32454607 0.032137971 -0.080621153 4289701771
-0.32455036 0.033874609 -0.079972379 4289635722
-0.32455465 0.03561151 -0.079323508 4289504907
-0.32455894 0.037348676 -0.078674547 4289504395
-0.32456324 0.039086077 -0.07802549 4289569930
-0.32456753 0.040823746 -0.077376336 4289635980
-0.32457182 0.042561654 -0.0767271 4289504395
-0.32495746 0.044590358 -0.07666488 4289307529
-0.32496175 0.046331752 -0.07601434 4289241479
-0.32496604 0.048073381 -0.075363718 4289437314
-0.32573694 0.050417121 -0.075886592 4289228904
-0.32612655 0.052470669 -0.075822249 4288955461
-0.32690534 0.054842066 -0.076349206 4288756538
-0.32768956 0.057230044 -0.076879732 4288560188
-0.32887387 0.059956841 -0.078013413 4288626749
-0.33047068 0.063042015 -0.079765595 4288824388
-0.33168414 0.06583333 -0.080928147 4289291355
-0.33464423 0.0061776768 -0.11293317 4289872704
-0.33423093 0.0077595725 -0.11157282 4289676100
-0.33381921 0.0093361363 -0.11021728 4289356135
-0.33340892 0.010907328 -0.1088664 4289967259
-0.33300003 0.01247323 -0.10752022 4289900182
-0.33177349 0.013538086 -0.10485477 4289899669
-0.33096445 0.014839985 -0.10286999 4289702546
-0.32935891 0.015635107 -0.099607311 4289637266
-0.32817051 0.016667616 -0.097024433 4289702291
-0.32660365 0.017441042 -0.093841247 4289833617
-0.32505828 0.018204167 -0.090701647 4289767826
-0.32429555 0.019453652 -0.088822201 4289702288
-0.32353809 0.020694891 -0.086955488 4289701516
-0.32316333 0.022179984 -0.085702814 4289635723
-0.32241356 0.023406224 -0.083855949 4289701261
-0.32204258 0.024879733 -0.082614645 4290095761
-0.32204676 0.026606759 -0.081969559 4290096787
-0.32167709 0.028072882 -0.080733337 4289834645
-0.32168126 0.029797494 -0.080089159 4289768339
-0.3216854 0.031522371 -0.079444878 4289768083
-0.32168958 0.033247486 -0.078800514 4289767825
-0.32169375 0.034972861 -0.078156054 4289702546
-0.32207179 0.03697421 -0.078097105 4289702289
-0.32207596 0.038703002 -0.077451371 4289767567
-0.32208014 0.040432047 -0.076805525 4289702030
-0.32208431 0.042161364 -0.076159596 4289570700
-0.32246366 0.044179272 -0.07609681 4289570443
-0.3228443 0.046204258 -0.076033659 4289504395
-0.3228485 0.047940191 -0.075385243 4289569415
-0.32323042 0.049975552 -0.075320616 4289167482
-0.32361364 0.052018061 -0.075255662 4289023824
-0.32437983 0.054375961 -0.075778015 4288887865
-0.32515129 0.056750268 -0.076303899 4288691514
-0.32670581 0.059781339 -0.078026302 4288692283
-0.32788694 0.062526599 -0.079167835 4288824385
-0.32947958 0.065635584 -0.08093112 4289354575
-0.33280292 0.0064179357 -0.11350236 4289872959
-0.33239362 0.0079968087 -0.11214352 4289677381
-0.33157507 0.0093290303 -0.11011565 4289489512
-0.33157933 0.011138522 -0.10943988 4289836444
-0.33076656 0.012455479 -0.1074286 4289899927
-0.3291539 0.013271201 -0.10411699 4289899413
-0.32875741 0.014814478 -0.10279547 4289834132
-0.32717276 0.015607226 -0.099544741 4289702803
-0.32599968 0.016636519 -0.096971124 4289834132
-0.32483873 0.017655428 -0.094424017 4289899666
-0.32330793 0.018415948 -0.091285758 4289834130
-0.32255241 0.019662775 -0.089407638 4289833362
-0.32142672 0.020651503 -0.086937509 4290159501
-0.32105672 0.022131871 -0.08568915 4290026367
-0.32068798 0.023607479 -0.084444851 4288899191
-0.31995019 0.024823148 -0.082611494 4290094221
-0.31958517 0.026287271 -0.08137849 4290425498
-0.31922138 0.027746757 -0.080149487 4290163098
-0.31885883 0.029201619 -0.078924589 4289966234
-0.31886289 0.030915128 -0.078284658 4290030999
-0.31886691 0.032628872 -0.077644646 4289964949
-0.31887096 0.03434287 -0.077004515 4289965202
-0.31924158 0.036329899 -0.076944008 4289965202
-0.31961355 0.038323868 -0.076883279 4290030739
-0.3199867 0.04032483 -0.076822199 4289899154
-0.31999075 0.042048488 -0.076178491 4289767569
-0.32073683 0.04434773 -0.076699145 4289767567
-0.32074091 0.046077728 -0.076053053 4289767310
-0.32111791 0.048102979 -0.075989902 4289701259
-0.32149616 0.050135303 -0.075926416 4289565059
-0.32187566 0.05217484 -0.075862639 4289682521
-0.32263455 0.054529462 -0.076386221 4289477948
-0.32339859 0.056900408 -0.07691326 4289084219
-0.32455242 0.059607152 -0.078039378 4288953404
-0.3261081 0.062669002 -0.079779729 4288889151
-0.32768542 0.065773711 -0.081544213 4289024074
-0.33178741 0.0053112609 -0.11611877 4289548886
-0.33096799 0.0066574672 -0.1140698 4289872959
-0.33015439 0.0079943622 -0.11203524 4289808197
-0.32975182 0.0095625073 -0.11068614 4289817706
-0.32935068 0.011125404 -0.10934167 4290033053
-0.32854849 0.01243795 -0.1073378 4289899414
-0.3269569 0.013251144 -0.10403845 4289834648
-0.32617143 0.014543076 -0.10207382 4289769111
-0.32500142 0.01557962 -0.099482752 4289834902
-0.32384354 0.016605675 -0.096918382 4289768596
-0.32269758 0.017621465 -0.094380297 4289767826
-0.32156333 0.018627074 -0.09186814 4289702804
-0.32081494 0.019871267 -0.089991219 4290423192
-0.32007161 0.021107256 -0.08812692 4289960582
-0.31933331 0.022335161 -0.086275123 4289743953
-0.3186 0.02355504 -0.084435739 4289020746
-0.31787157 0.024766998 -0.082608528 4289102455
-0.3175112 0.026226519 -0.081379741 4290161819
-0.31715199 0.027681421 -0.080154896 4290689441
-0.31643325 0.028872294 -0.078353919 4290294431
-0.31643716 0.030577423 -0.077717222 4290097050
-0.31644109 0.032282777 -0.077080421 4290096792
-0.31644499 0.033988427 -0.076443531 4290097047
-0.31717163 0.036236797 -0.076960281 4290031254
-0.31753874 0.038224138 -0.076899789 4290030741
-0.31790707 0.040218361 -0.076838933 4289899414
-0.31827667 0.042219575 -0.076777853 4289768855
-0.3186475 0.044227783 -0.076716438 4289899670
-0.31901956 0.046242978 -0.076654702 4290292887
-0.31939289 0.048265267 -0.076592691 4290294424
-0.3197675 0.050294641 -0.076530412 4289635219
-0.32014337 0.052331168 -0.07646776 4289559408
-0.32089493 0.054682504 -0.076992542 4289810768
-0.32165161 0.05705012 -0.077520788 4289412162
-0.32241353 0.059434265 -0.07805258 4289084477
-0.32394895 0.062484503 -0.079787016 4288954431
-0.32550576 0.065577395 -0.081545472 4288892237
-0.32995081 0.005553029 -0.1166827 4290005319
-0.32954639 0.0071335868 -0.11531834 4290003517
-0.32873771 0.008468993 -0.11327939 4289873220
-0.32793477 0.0097952597 -0.1112548 4289685866
-0.32753742 0.011355152 -0.10991172 4290165151
-0.32634577 0.012420606 -0.1072479 4289965465
-0.32477492 0.013231273 -0.10396068 4289704091
-0.3239997 0.014518998 -0.1020032 4289768859
-0.32284486 0.015552277 -0.099421471 4289769370
-0.321702 0.016575173 -0.096866265 4289900182
-0.32057083 0.017587809 -0.094337158 4289833621
-0.31945118 0.01859038 -0.09183377 4290488730
-0.31871238 0.019830663 -0.089963339 4290092430
-0.31797859 0.021062806 -0.08810547 4290005067
-0.31761545 0.022537852 -0.08685936 4289869370
-0.31688905 0.023755219 -0.085021131 4289804861
-0.3161675 0.024964659 -0.08319512 4289741128
-0.31545076 0.026166268 -0.081381164 4289552990
-0.31509611 0.027616592 -0.080160461 4289893004
-0.31438649 0.028803892 -0.078365438 4290623647
-0.31403539 0.030243149 -0.077155635 4290492577
-0.31439409 0.032203447 -0.077096224 4290229150
-0.3143979 0.033903584 -0.076461479 4290294427
-0.31511521 0.036144409 -0.07697662 4290228377
-0.31547755 0.038125135 -0.076916352 4290162071
-0.31584111 0.040112734 -0.076855823 4289768856
-0.31656802 0.04239016 -0.077375405 4290097307
-0.3169353 0.044395477 -0.077315159 4290426529
-0.31730375 0.046407774 -0.077254601 4290228386
-0.31767344 0.048427101 -0.0771937 4290162073
-0.31804442 0.050453525 -0.077132531 4290030226
-0.31841666 0.05248706 -0.077071093 4290027657
-0.31879011 0.05452773 -0.077009305 4290151798
-0.31953698 0.05688699 -0.077535838 4290009431
-0.32066488 0.05958017 -0.078659445 4289544001
-0.32218558 0.062626407 -0.080395125 4289085502
-0.32372734 0.065715097 -0.082154743 4288892236
-0.32852653 0.0060299048 -0.11793365 4290004804
-0.32771993 0.0073715467 -0.11588197 4289872447
-0.32732075 0.0089437403 -0.11452376 4289872709
-0.32652274 0.010268494 -0.11249481 4289816171
-0.32573029 0.011584208 -0.11048 4290165410
-0.32455012 0.012646787 -0.10781788 4290031261
-0.32299444 0.01345468 -0.10453248 4290031259
-0.32184273 0.014495199 -0.1019333 4289899930
-0.32070294 0.015525232 -0.099360831 4289834652
-0.31957489 0.016544957 -0.096814722 4290031004
-0.31845832 0.017554492 -0.094294533 4290359194
-0.31772152 0.018800318 -0.09241268 4290292117
-0.31698975 0.020037996 -0.090543516 4290334032
-0.31662756 0.021517185 -0.089291312 4290066236
-0.31590316 0.022739958 -0.087441899 4290196283
-0.31518358 0.02395477 -0.085604765 4290328895
-0.31446886 0.025161715 -0.083779901 4290527558
-0.31375891 0.026360862 -0.081967071 4290398025
-0.31305361 0.027552286 -0.080166169 4290333521
-0.31270462 0.028993547 -0.078953497 4289821552
-0.31235677 0.030430274 -0.077744707 4290289300
-0.31236044 0.032124743 -0.07711219 4290753695
-0.31236413 0.033819437 -0.076479577 4290425758
-0.31307217 0.0360527 -0.076993048 4290228124
-0.31342983 0.038026884 -0.076933071 4290226587
-0.31414497 0.040285878 -0.077450454 4290031515
-0.31486493 0.042560287 -0.07797125 4290096800
-0.31522858 0.044562675 -0.077912048 4290293663
-0.31595582 0.04686347 -0.078436844 4290294175
-0.31595957 0.048588485 -0.077792928 4290294432
-0.31632692 0.050611932 -0.077732854 4290359966
-0.31669551 0.052642483 -0.077672556 4290293915
-0.31706536 0.054680195 -0.077611938 4290291347
-0.31780499 0.05703615 -0.078139655 4290282872
-0.31854969 0.059408419 -0.078670904 4290009429
-0.32005051 0.062443163 -0.080400698 4289478979
-0.32157212 0.06552016 -0.082154334 4289155406
-0.32710195 0.0065068719 -0.11918484 4290004548
-0.32630035 0.007847012 -0.11712874 4289872706
-0.32550439 0.0091779465 -0.1150871 4289807946
-0.32471403 0.010499746 -0.11305971 4289426036
-0.32392928 0.011812549 -0.11104653 4289640098
-0.32237235 0.012628996 -0.10772721 4289835167
-0.32083705 0.013434393 -0.10445382 4290162333
-0.31970039 0.014471618 -0.10186402 4290293402
-0.31857541 0.015498436 -0.099300787 4290623133
-0.317462 0.016515005 -0.096763693 4290622880
-0.31672725 0.017766429 -0.094870411 4290951068
-0.31599748 0.01900962 -0.09298984 4290076011
-0.31563631 0.020493023 -0.091731533 4290197565
-0.31527629 0.021971636 -0.090477347 4290263096
-0.31455636 0.023193069 -0.088623978 4290393404
-0.31384119 0.024406547 -0.08678291 4290460224
-0.31313089 0.025612166 -0.08495412 4290788675
-0.31242526 0.026810028 -0.083137415 4290854982
-0.31172433 0.028000118 -0.081332646 4290724934
-0.31102806 0.029182632 -0.079539776 4290464842
-0.31033638 0.03035756 -0.077758625 4289749341
-0.31033996 0.03204659 -0.077128224 4289761411
-0.31034356 0.033735905 -0.076497719 4290819742
-0.31104249 0.035961695 -0.077009618 4290951588
-0.311746 0.03820252 -0.077524781 4290425250
-0.31245428 0.040458541 -0.078043349 4290229151
-0.31316724 0.042729896 -0.078565255 4290229154
-0.31352738 0.04472943 -0.07850723 4290426019
-0.31424755 0.047027089 -0.079033144 4290492069
-0.31461132 0.049044475 -0.078975417 4290557606
-0.31497625 0.051068895 -0.078917384 4290557605
-0.31534246 0.0531004 -0.078859098 4290491811
-0.31534615 0.054832183 -0.078212738 4290360225
-0.31607863 0.057184856 -0.078741625 4290291091
-0.31681603 0.059553809 -0.079274043 4290281332
-0.3179298 0.062261309 -0.080406509 4290073430
-0.31980917 0.065657414 -0.082759872 4289551451
-0.32527623 0.0067463559 -0.11974308 4290004297
-0.32448238 0.0080834804 -0.11768861 4289873479
-0.32369417 0.0094114253 -0.11564863 4289814106
-0.3229115 0.010730274 -0.11362286 4289895302
-0.32213432 0.012040162 -0.11161127 4289901473
-0.32059249 0.012853792 -0.10829382 4290032286
-0.3190721 0.01365645 -0.10502224 4290163103
-0.31757253 0.014448301 -0.10179551 4290228382
-0.31646225 0.015471918 -0.099241406 4290424990
-0.31572956 0.016728986 -0.09733659 4290162079
-0.31500182 0.017977761 -0.095444568 4290353800
-0.31427905 0.019218335 -0.093565293 4290263877
-0.31392124 0.020699028 -0.092308134 4290197052
-0.31392482 0.02242619 -0.091663592 4290328893
-0.3135682 0.023899507 -0.090411589 4290459454
-0.31285512 0.025112862 -0.088561498 4290526274
-0.31214681 0.026318314 -0.086723693 4290854466
-0.31144321 0.027515961 -0.08489804 4290854726
-0.31039479 0.028448053 -0.082499325 4290986055
-0.30970284 0.029629245 -0.080702633 4290855750
-0.30901542 0.030802887 -0.078917682 4290331976
-0.30901891 0.032492131 -0.078287303 4290007895
-0.3090224 0.034181628 -0.077656828 4290083955
-0.30902588 0.03587136 -0.07702627 4290290833
-0.30972037 0.038104661 -0.077539831 4290360225
-0.31041941 0.040353026 -0.078056708 4290426791
-0.31112316 0.042616662 -0.078576982 4290427048
-0.31183159 0.044895675 -0.079100594 4290492584
-0.31254476 0.047190242 -0.079627596 4290558376
-0.31326276 0.049500532 -0.080158144 4290624169
-0.31362534 0.051525898 -0.080102123 4290689449
-0.31398919 0.053558394 -0.080045864 4290623656
-0.31399277 0.055290367 -0.079399534 4290558119
-0.31472054 0.057644784 -0.079932481 4290426275
-0.31545326 0.060015488 -0.08046896 4290420371
-0.31655994 0.062725581 -0.081607573 4290278007
-0.318804 0.066458583 -0.084581241 4289818225
-0.32385367 0.0072226394 -0.1209925 4289809744
-0.32306474 0.0085582752 -0.11893363 4290006352
-0.32228145 0.009884743 -0.11688929 4290083956
-0.32150364 0.011202123 -0.11485919 4290031774
-0.32034537 0.012267057 -0.11217425 4290097827
-0.31881863 0.013077904 -0.10885873 4290032547
-0.31693888 0.013635733 -0.10494275 4290098340
-0.31545901 0.014425229 -0.1017277 4290098083
-0.31436318 0.01544567 -0.09918268 4290163617
-0.31364 0.016698724 -0.097284496 4289899932
-0.3129217 0.017943583 -0.095399126 4290289288
-0.31220827 0.019180257 -0.093526319 4290263368
-0.31221172 0.020904437 -0.092882991 4290197566
-0.31221518 0.022628859 -0.092239596 4290459709
-0.31186202 0.024099557 -0.090988792 4290525503
-0.31151 0.025565555 -0.08974205 4290657347
-0.31115916 0.027026888 -0.088499367 4290788934
-0.31045759 0.028224381 -0.086664803 4291051335
-0.3094123 0.029154679 -0.084253326 4291182662
-0.30872232 0.030335668 -0.082447864 4291116871
-0.30803692 0.031509083 -0.080654174 4290985540
-0.30769762 0.032937746 -0.079446591 4290723653
-0.30804372 0.034893781 -0.079391293 4290272862
-0.30804712 0.036586486 -0.078759708 4290420109
-0.30873939 0.038826067 -0.079279952 4290558118
-0.30943626 0.041080784 -0.079803489 4290624172
-0.31013778 0.043350801 -0.080330461 4290624173
-0.310844 0.045636296 -0.080860883 4290624172
-0.31120062 0.047644679 -0.080806531 4290690220
-0.311914 0.049956679 -0.081341065 4290756012
-0.31227422 0.051983006 -0.081287071 4290756014
-0.31263566 0.054016467 -0.081232838 4290755758
-0.31263915 0.055748634 -0.080586545 4290624429
-0.31336224 0.058104794 -0.081123546 4290558379
-0.31409022 0.060477253 -0.081664108 4290424739
-0.31518981 0.063189909 -0.082808889 4290353554
-0.31779513 0.067262605 -0.086409152 4290155146
-0.32243088 0.0076989979 -0.12224213 4289749604
-0.3216469 0.0090331472 -0.12017887 4290206305
-0.32086852 0.010358135 -0.11813016 4290289035
-0.32009557 0.011674047 -0.11609572 4290032806
-0.31894457 0.012736699 -0.11340432 4290098342
-0.31742749 0.013544475 -0.11008027 4289902246
-0.31593129 0.014341344 -0.10680202 4289967272
-0.31372374 0.014643291 -0.10229438 4290163621
-0.31227812 0.015419679 -0.099124491 4290098083
-0.31156436 0.016668789 -0.097233005 4289900702
-0.31085536 0.017909696 -0.095354162 4290620049
-0.31050438 0.019387793 -0.094098412 4289877346
-0.31015456 0.020861115 -0.092846759 4290198078
-0.31051111 0.022830963 -0.092813902 4290525761
-0.31051448 0.024552928 -0.092171505 4290657348
-0.31016463 0.026018353 -0.090922803 4290854216
-0.30981594 0.027479116 -0.089678176 4290986571
-0.30911878 0.028675284 -0.087839708 4291182923
-0.30842626 0.029863723 -0.086013354 4291247944
-0.3077383 0.031044489 -0.084199026 4291247685
-0.30739772 0.032480992 -0.082979701 4291181637
-0.30705827 0.033912946 -0.081764251 4291051082
-0.30706155 0.035608388 -0.081131764 4290865509
-0.30706489 0.037304081 -0.080499165 4290750617
-0.30775493 0.039549921 -0.081026003 4290756014
-0.30844957 0.041811027 -0.081556328 4290821295
-0.30914888 0.044087488 -0.08209005 4290821038
-0.30950198 0.046089865 -0.08203803 4290755758
-0.30985621 0.048099168 -0.08198569 4290887343
-0.31056497 0.050412916 -0.08252421 4290887600
-0.31127849 0.052742507 -0.083066233 4290887601
-0.31163877 0.054780889 -0.083014973 4290887602
-0.31164217 0.056516197 -0.082367584 4290821553
-0.31236297 0.058879148 -0.082911551 4290689968
-0.31308874 0.061258487 -0.083459184 4290557868
-0.31418496 0.063979983 -0.084615156 4290556579
-0.31678247 0.068069495 -0.088243566 4290555803
-0.31984305 0.011074715 -0.12005894 4290162332
-0.31907228 0.012390614 -0.11801413 4290098598
-0.31792456 0.01345156 -0.11530795 4290033575
-0.31603608 0.014011128 -0.11130204 4289902503
-0.31454942 0.014804969 -0.10801537 4290033321
-0.31199414 0.01486067 -0.10285938 4290164135
-0.31020695 0.015393933 -0.099066965 4290098340
-0.30950242 0.016639095 -0.09718205 4289966499
-0.30880272 0.017876165 -0.095309757 4290490782
-0.30845621 0.019349497 -0.094058275 4289887621
-0.30811092 0.020818181 -0.092810959 4290394949
-0.30846271 0.022781515 -0.092778131 4290592584
-0.30881578 0.02475171 -0.092745163 4290723658
-0.30881903 0.026471233 -0.092103787 4290986318
-0.30847248 0.027931424 -0.090857208 4291052878
-0.3077797 0.029126266 -0.089014821 4291117645
-0.30709156 0.030313393 -0.087184586 4291182922
-0.3067508 0.031755801 -0.085956313 4291247686
-0.30641118 0.03319364 -0.084731996 4291181895
-0.30607271 0.034626994 -0.08351171 4290986066
-0.3060759 0.036325458 -0.082878195 4291133559
-0.30607915 0.038024154 -0.082244575 4291015844
-0.30642405 0.039999243 -0.082193501 4290953651
-0.30711421 0.042262025 -0.08272773 4291018928
-0.30780894 0.044540159 -0.083265409 4291018414
-0.30850831 0.046833862 -0.083806574 4291018416
-0.3088614 0.048848014 -0.083757229 4291018675
-0.30956787 0.051168352 -0.084302604 4291018677
-0.30992454 0.053200558 -0.084253632 4290953397
-0.31063825 0.055547949 -0.084803291 4290953652
-0.31064156 0.0572864 -0.084154859 4290953140
-0.31136009 0.059656188 -0.084705874 4290886835
-0.31208354 0.062042411 -0.085260555 4290755249
-0.31317636 0.0647728 -0.086427808 4290754731
-0.31576607 0.068879291 -0.090084612 4290885541
-0.3191984 0.010225608 -0.12336604 4289962389
-0.31842709 0.011549142 -0.12130246 4290098085
-0.3176612 0.012863568 -0.11925329 4290098854
-0.31652081 0.013922188 -0.11654063 4290098856
-0.31464443 0.014477895 -0.11252404 4290099112
-0.31316727 0.015268698 -0.10922895 4290099370
-0.31027022 0.015077434 -0.10342272 4290099113
-0.30850047 0.015608134 -0.09963192 4290164391
-0.3074542 0.016609721 -0.097131692 4290163623
-0.30710986 0.018085131 -0.095877267 4290425764
-0.30642155 0.019311585 -0.094018675 4290551960
-0.30642468 0.021021914 -0.093380824 4290530649
-0.30677304 0.022982506 -0.093349077 4290725199
-0.30712247 0.024949897 -0.093317099 4290790480
-0.3071256 0.026666725 -0.092676826 4290922067
-0.30712879 0.028383806 -0.092036441 4291053137
-0.30678561 0.0298388 -0.090792082 4291052366
-0.3060995 0.031025702 -0.088952854 4291117388
-0.30575976 0.032469522 -0.087719627 4291182408
-0.30576289 0.034176152 -0.087083168 4291182409
-0.30542424 0.03561281 -0.085854895 4290792283
-0.3050867 0.037044946 -0.084630594 4291073678
-0.30508983 0.038746674 -0.083995946 4291215023
-0.30577543 0.041005213 -0.084536314 4291151030
-0.3064656 0.0432791 -0.085080162 4291281843
-0.30681399 0.045280237 -0.085033305 4291216050
-0.30716351 0.047288343 -0.08498612 4291150518
-0.30786303 0.04959948 -0.085534908 4291150007
-0.30821609 0.051625513 -0.085488178 4291149751
-0.30892271 0.053963583 -0.086041242 4291084728
-0.30963409 0.056317743 -0.086597934 4291085240
-0.30963731 0.058059298 -0.085948423 4291084983
-0.31035355 0.060435992 -0.086506553 4290953399
-0.3110747 0.062829144 -0.087068342 4290887349
-0.31252864 0.065899104 -0.088862121 4290887089
-0.31474587 0.069692001 -0.091932297 4291083178
-0.31739172 0.010458302 -0.12391598 4290294435
-0.3166281 0.011778843 -0.12185414 4290164394
-0.31586978 0.013090345 -0.11980668 4290098855
-0.31511676 0.014392936 -0.11777354 4290164393
-0.31325251 0.014944736 -0.11374624 4290230442
-0.31178486 0.01573251 -0.11044274 4290230699
-0.30890656 0.01553509 -0.10462001 4290230442
-0.30714822 0.01606214 -0.10081913 4290230186
-0.30576345 0.016820705 -0.097696327 4290361259
-0.30507955 0.018051339 -0.095831774 4290360743
-0.30440018 0.019273996 -0.093979545 4290885027
-0.30440322 0.020978814 -0.093343846 4290344575
-0.30508867 0.023182888 -0.093918294 4290792026
-0.30543464 0.025147529 -0.093887411 4290857301
-0.30578178 0.027119 -0.093856253 4290923093
-0.30613011 0.029097384 -0.09382496 4291053139
-0.30544379 0.030290723 -0.091969587 4291117904
-0.3051039 0.031740516 -0.090727285 4291117389
-0.30510694 0.033452772 -0.090088807 4291117387
-0.30476817 0.034895387 -0.088851526 4291117645
-0.30443054 0.036333442 -0.087618321 4290928231
-0.30443358 0.038040772 -0.086981684 4291143585
-0.30443662 0.039748359 -0.08634495 4291282103
-0.30478033 0.041736599 -0.086300544 4291347896
-0.30546826 0.044016946 -0.086851262 4291413431
-0.30616075 0.046312843 -0.08740557 4291347896
-0.30651027 0.04832967 -0.087362319 4291151291
-0.30686098 0.050353512 -0.087318771 4291150522
-0.30756292 0.052687205 -0.087878175 4291150520
-0.30826956 0.055036955 -0.088441215 4291151034
-0.30898106 0.057403013 -0.089008071 4291216570
-0.30898419 0.059150722 -0.088356376 4291151034
-0.30970055 0.061539434 -0.088924602 4291085241
-0.31042182 0.063944779 -0.08949665 4291019448
-0.31187618 0.067033239 -0.091313437 4290953655
-0.31409422 0.070851445 -0.094420016 4291018162
-0.31559125 0.010690239 -0.12446425 4290227613
-0.31483513 0.012007843 -0.12240409 4290230445
-0.31408438 0.013316448 -0.12035837 4290098858
-0.31333885 0.014616145 -0.11832684 4290164907
-0.31149313 0.015165213 -0.11430176 4290230955
-0.31004009 0.015950309 -0.11100017 4290361772
-0.30754265 0.015992852 -0.1058175 4290427307
-0.30544931 0.016275009 -0.1013806 4290426796
-0.30407816 0.017031094 -0.098259382 4290427565
-0.30340087 0.018259138 -0.096396036 4290361514
-0.30272815 0.019479252 -0.094545029 4290624170
-0.30273107 0.021181419 -0.093910426 4290420638
-0.30307132 0.023132849 -0.093879774 4290731627
-0.30375221 0.025344577 -0.094455943 4290923095
-0.30409586 0.027313292 -0.094425894 4291054165
-0.30444062 0.029288845 -0.094395578 4291053395
-0.30410177 0.030742696 -0.093147315 4291183695
-0.30410472 0.032457776 -0.092507884 4291117646
-0.30410767 0.034173116 -0.091868356 4291117646
-0.30411062 0.035888717 -0.091228738 4291184726
-0.30377284 0.037330095 -0.089987427 4291262326
-0.30377582 0.039043315 -0.089348674 4291343272
-0.30377877 0.040756803 -0.088709846 4291347898
-0.30412245 0.042753603 -0.088669315 4291413946
-0.30481035 0.045045201 -0.089229845 4291413691
-0.30550283 0.047352519 -0.089794055 4291413948
-0.30585235 0.049378078 -0.089754716 4291282876
-0.30655193 0.051712334 -0.090323426 4291282105
-0.306905 0.053756136 -0.090284579 4291282105
-0.30761176 0.056117777 -0.090857811 4291348155
-0.30832332 0.058495779 -0.091434821 4291347900
-0.30832636 0.060249656 -0.090780929 4291216571
-0.30904278 0.062650539 -0.091359489 4291216058
-0.30976421 0.0650682 -0.09194196 4291216058
-0.31121895 0.068175323 -0.09378197 4291216058
-0.31343773 0.072019108 -0.096925423 4291150008
-0.31304827 0.012236097 -0.12295236 4290426281
-0.312305 0.013541829 -0.12090832 4290099117
-0.31156689 0.014838672 -0.11887848 4290099628
-0.31010315 0.015631407 -0.1155223 4290230699
-0.30865955 0.016413482 -0.11221232 4290427564
-0.30617848 0.016450694 -0.10701523 4290427566
-0.304443 0.016970389 -0.10319416 4290493102
-0.30273664 0.017481644 -0.099437095 4290558894
-0.30206376 0.018708365 -0.097569838 4290558636
-0.30106142 0.019683897 -0.095108829 4290493098
-0.30073142 0.021138186 -0.093872294 4290885541
-0.30106708 0.023083204 -0.093841679 4290874505
-0.30173895 0.0252876 -0.094415881 4290993764
-0.30207798 0.027249813 -0.09438584 4291057242
-0.30275664 0.029479738 -0.094964564 4290990424
-0.30275947 0.031194773 -0.094325244 4291120725
-0.30242386 0.03264343 -0.093079068 4291120727
-0.30310476 0.03489593 -0.093654044 4291318875
-0.30310762 0.036614601 -0.093013376 4291322731
-0.30311048 0.038333502 -0.092372611 4291467406
-0.30311334 0.040052667 -0.091731764 4291280305
-0.30345702 0.042054944 -0.0916963 4291348412
-0.30380177 0.044064201 -0.091660619 4291414205
-0.30449197 0.046372026 -0.092234112 4291413950
-0.30518684 0.04869578 -0.092811443 4291479741
-0.30553749 0.050734147 -0.092777036 4291479739
-0.30588934 0.052779689 -0.092742436 4291347640
-0.30659372 0.055141937 -0.093325131 4291282361
-0.30694917 0.057206042 -0.093291096 4291414462
-0.30766082 0.059596129 -0.09387847 4291413949
-0.30766374 0.06135622 -0.093222372 4291413435
-0.30838031 0.063769378 -0.09381137 4291413178
-0.30946293 0.066532873 -0.095033348 4291479484
-0.31055689 0.069325492 -0.096267961 4291807676
-0.31315035 0.073546693 -0.1000976 4291280822
-0.31126744 0.012463667 -0.12349895 4290359970
-0.31053159 0.013766499 -0.12145656 4290296495
-0.30980086 0.015060484 -0.11942837 4290164651
-0.30871287 0.016097687 -0.11674306 4290296748
-0.30763617 0.0171244 -0.11408545 4290559150
-0.30516297 0.01715336 -0.10885712 4290428337
-0.30343309 0.017668203 -0.10501409 4290559154
-0.30207065 0.018417813 -0.10185795 4290624944
-0.30106145 0.019401291 -0.09935911 4290624431
-0.30006236 0.020375205 -0.096885107 4290558891
-0.29940274 0.021584887 -0.095038585 4290952365
-0.30006784 0.02378054 -0.095615901 4291081130
-0.30040342 0.025736939 -0.095588058 4291073413
-0.30074012 0.027700087 -0.095560007 4290872698
-0.30141419 0.029931711 -0.096142694 4290805113
-0.30175424 0.031912297 -0.096115224 4290740089
-0.30175701 0.033630628 -0.095474765 4290871674
-0.3024379 0.035894252 -0.096059836 4291267714
-0.3024407 0.037618894 -0.095417038 4291534742
-0.30244344 0.039343778 -0.094774157 4291409836
-0.30244625 0.041068915 -0.094131164 4291216058
-0.30313173 0.04336632 -0.094713241 4291479999
-0.3031345 0.045097817 -0.094067886 4291676350
-0.30382469 0.047417171 -0.094651535 4291610559
-0.30451953 0.049752582 -0.095239088 4291479999
-0.30487016 0.051799871 -0.095208772 4291545275
-0.30522195 0.053854413 -0.095178187 4291478455
-0.30592638 0.056228649 -0.095771298 4291347640
-0.30628178 0.058301859 -0.095741317 4291414462
-0.30699348 0.060704168 -0.096339226 4291414207
-0.30735257 0.062796332 -0.096309893 4291544509
-0.3080717 0.065227203 -0.096912675 4291477686
-0.30879575 0.067675196 -0.097519502 4291082926
-0.30988994 0.070483699 -0.098771453 4292002742
-0.30912909 0.014236549 -0.12268818 4290557614
-0.30840316 0.015529091 -0.12065572 4290492588
-0.30768234 0.016812893 -0.11863732 4290362542
-0.30660897 0.017837901 -0.11596533 4290624946
-0.30449271 0.018105786 -0.11135603 4290690740
-0.30276251 0.018614434 -0.10747874 4290691253
-0.30139989 0.019360404 -0.10429534 4290560182
-0.3003906 0.020342622 -0.10177585 4290756017
-0.29905975 0.021068856 -0.098667495 4290624177
-0.29873174 0.022526033 -0.097420931 4291150518
-0.29906502 0.024480268 -0.097396225 4290757308
-0.29906765 0.026186325 -0.096760459 4290821294
-0.29973489 0.02840909 -0.097346261 4290690992
-0.30007151 0.030383756 -0.097321026 4290888370
-0.30040923 0.032365289 -0.09729556 4290954164
-0.30041188 0.034083813 -0.09665516 4290822577
-0.30108815 0.036349148 -0.097244211 4291019703
-0.30109084 0.038073979 -0.096601434 4291480001
-0.30109349 0.039799053 -0.095958598 4291743429
-0.30143467 0.041807774 -0.095930219 4291743427
-0.30177701 0.04382354 -0.09590172 4291413951
-0.30212051 0.045846377 -0.095873065 4291610559
-0.30246517 0.047876328 -0.095844135 4291939779
-0.3031553 0.050213486 -0.096435755 4291808450
-0.30350348 0.052261755 -0.09640751 4291545536
-0.30420074 0.054626398 -0.097003847 4291479998
-0.3045525 0.056693278 -0.096976228 4291413949
-0.3052569 0.059085857 -0.09757743 4291479741
-0.30596617 0.061495185 -0.098182693 4291676091
-0.30632403 0.063592568 -0.098156542 4291606192
-0.30704069 0.066030584 -0.098766766 4290937995
-0.30776238 0.068485826 -0.099381186 4291523444
-0.30736384 0.014459789 -0.12323284 4290493095
-0.30664521 0.015749482 -0.12120201 4290625715
-0.3059316 0.017030513 -0.11918524 4290559152
-0.30486909 0.018052781 -0.11651505 4290690998
-0.30346856 0.018815063 -0.11321528 4290690999
-0.30208713 0.01956724 -0.10996044 4290822070
-0.30072439 0.020309452 -0.1067495 4290691510
-0.29971501 0.021290373 -0.10420918 4290624693
-0.29838407 0.022012895 -0.10107414 4290427828
-0.29805604 0.02347352 -0.099819414 4291348153
-0.2980586 0.025182372 -0.099182688 4291017909
-0.29806113 0.026891492 -0.098545887 4290953397
-0.29872602 0.029120548 -0.099138722 4291084983
-0.29906139 0.031099884 -0.099116422 4291150778
-0.29939792 0.033086173 -0.099094041 4291216828
-0.29973558 0.035079367 -0.099071451 4291217340
-0.3004117 0.037355889 -0.099670641 4291348160
-0.30041429 0.03908674 -0.099025741 4291611331
-0.30041686 0.040817857 -0.098380737 4291743173
-0.30075797 0.042835284 -0.09835647 4291677894
-0.30110022 0.0448598 -0.098331973 4291875016
-0.30110282 0.046597544 -0.097684503 4291808968
-0.30144623 0.048632398 -0.097658664 4291742919
-0.30213398 0.050976317 -0.098257534 4291676613
-0.30248091 0.053029571 -0.098232307 4291611075
-0.30317575 0.05540112 -0.098836005 4291742656
-0.30352622 0.057473034 -0.098811455 4291939518
-0.30422822 0.059872638 -0.099420093 4292069816
-0.30458236 0.061963517 -0.099396214 4291668132
-0.30529168 0.064391628 -0.10000985 4291391358
-0.30636355 0.067173116 -0.10127071 4291450712
-0.30744669 0.069984049 -0.10254467 4291650404
-0.30489314 0.015969215 -0.1217467 4290820275
-0.30454057 0.017497037 -0.12040668 4290623666
-0.30348516 0.018517084 -0.11773019 4290821556
-0.30244067 0.019526916 -0.11508121 4291018679
-0.30140686 0.020526601 -0.1124593 4290953397
-0.300044 0.021265028 -0.1092205 4290822069
-0.29903457 0.022244612 -0.10665911 4290756534
-0.29770362 0.022963339 -0.10349712 4290821813
-0.29737556 0.024427474 -0.10223421 4291086782
-0.29737803 0.026142243 -0.10159539 4291150006
-0.29738048 0.027857272 -0.10095648 4290954425
-0.29771349 0.029834449 -0.10093736 4290954172
-0.29838046 0.032085098 -0.10154118 4291150524
-0.29871687 0.034079902 -0.10152276 4291282621
-0.29871935 0.035807528 -0.10087916 4291479229
-0.29973045 0.03836957 -0.10211378 4291610559
-0.29973292 0.040106479 -0.10146671 4291611075
-0.29973543 0.041843649 -0.10081954 4291742917
-0.29973793 0.043581057 -0.10017229 4291808967
-0.30007893 0.045610476 -0.10015089 4292071627
-0.30042106 0.04764707 -0.10012933 4292203981
-0.30042359 0.04939115 -0.099479571 4292071882
-0.3011089 0.051741853 -0.10008567 4291677378
-0.30145457 0.053800117 -0.10006361 4291611071
-0.30180147 0.055865724 -0.10004137 4291938235
-0.30249622 0.058255579 -0.10065326 4291670188
-0.30319577 0.060662206 -0.10126926 4291396235
-0.30390018 0.063085742 -0.10188951 4291847270
-0.30460945 0.065526366 -0.10251388 4291776600
-0.30568141 0.068323694 -0.10379227 4291711058
-0.30676463 0.071150757 -0.10508405 4291586922
-0.30314684 0.016188266 -0.12228963 4290754476
-0.30279782 0.017713256 -0.12095103 4290823352
-0.30210102 0.018981487 -0.11894552 4291412394
-0.30140898 0.020241262 -0.11695375 4291545266
-0.30037862 0.021239214 -0.11431777 4291282612
-0.29935876 0.022227224 -0.11170863 4290953656
-0.29834929 0.023205407 -0.10912588 4290887609
-0.29701838 0.02392029 -0.1059367 4291215801
-0.29669026 0.025387904 -0.10466542 4290954175
-0.29636317 0.026850874 -0.10339829 4291150778
-0.29636553 0.028568948 -0.10275836 4291150777
-0.29669735 0.030550856 -0.10274232 4291085757
-0.29736191 0.032807879 -0.10335322 4291151806
-0.29769707 0.034807485 -0.10333791 4291282623
-0.29803339 0.036814127 -0.10332246 4291413951
-0.29870698 0.039108519 -0.10393921 4291545280
-0.2990467 0.041133236 -0.10392449 4291611331
-0.29904908 0.042876482 -0.10327516 4291611846
-0.29905149 0.044620018 -0.10262574 4291808968
-0.2993924 0.046658322 -0.10260849 4292006091
-0.29973444 0.04870382 -0.10259103 4292072140
-0.29973686 0.050454054 -0.10193911 4292071883
-0.30008006 0.052510094 -0.10192034 4292005575
-0.30042452 0.05457342 -0.10190141 4292003256
-0.30111441 0.056958787 -0.10251983 4292254868
-0.3018091 0.059360839 -0.10314239 4292177010
-0.30250862 0.061779816 -0.10376922 4291778144
-0.30321297 0.064215839 -0.10440027 4291906896
-0.30427748 0.06700626 -0.10568865 4291841616
-0.30535322 0.069826312 -0.10699054 4291648087
-0.30106324 0.019698519 -0.12083469 4291198076
-0.30037346 0.02095817 -0.11883295 4290613142
-0.29934657 0.021954328 -0.11618278 4290420906
-0.29866856 0.023196049 -0.11421391 4290422960
-0.2976591 0.024172822 -0.11160965 4290884014
-0.29632825 0.02488376 -0.10839292 4292134327
-0.29600006 0.026354887 -0.10711324 4291281340
-0.29567301 0.027821369 -0.10583781 4291019964
-0.29567528 0.029545439 -0.10519574 4291085755
-0.29600689 0.031535842 -0.10518372 4291217341
-0.29633969 0.033533227 -0.10517163 4291348672
-0.29700631 0.035812307 -0.10579383 4291479745
-0.29734248 0.037827648 -0.10578252 4291610561
-0.29801592 0.040133525 -0.10640983 4291610817
-0.29835549 0.042167049 -0.10639928 4291677379
-0.29835781 0.043916464 -0.10574776 4291743687
-0.29836014 0.04566614 -0.10509613 4291875017
-0.2987009 0.047713388 -0.10508308 4292005834
-0.29870322 0.049466562 -0.10443015 4292006347
-0.29870552 0.051220004 -0.10377714 4292006347
-0.2990475 0.053281046 -0.10376152 4292333510
-0.29939058 0.055349398 -0.1037457 4292195505
-0.30007806 0.057741754 -0.10437158 4292049281
-0.30077028 0.06015088 -0.10500164 4292300630
-0.30146727 0.062576964 -0.105636 4292037457
-0.30252072 0.065353885 -0.10692873 4291841617
-0.30358526 0.068160266 -0.10823497 4291649626
-0.29967618 0.020163894 -0.1220526 4291319904
-0.29899105 0.021422135 -0.12004668 4290992222
-0.29831073 0.022672007 -0.11805449 4290928489
-0.29763505 0.023913588 -0.11607587 4290928745
-0.29662901 0.024888556 -0.11345771 4291323757
-0.2956332 0.025853852 -0.11086603 4291722117
-0.29497567 0.02706866 -0.10893811 4291341736
-0.29464966 0.028536554 -0.10765745 4291152060
-0.29465184 0.030263724 -0.10701432 4291217342
-0.29498222 0.032258913 -0.10700544 4291348671
-0.29564416 0.034533624 -0.10763399 4291480003
-0.29597792 0.036546718 -0.1076259 4291611331
-0.29631278 0.038566932 -0.10761771 4291611331
-0.29698378 0.04087944 -0.10825235 4291677124
-0.29765937 0.043208074 -0.10889128 4291808710
-0.2973243 0.044670522 -0.1075924 4291940553
-0.29766381 0.046719532 -0.10758373 4292071881
-0.29766601 0.048475631 -0.10692981 4292137161
-0.29766825 0.050231997 -0.1062758 4292071883
-0.29767045 0.051988635 -0.1056217 4292202954
-0.29801109 0.054054718 -0.10560916 4292464065
-0.29835293 0.056128174 -0.10559657 4292386459
-0.29869595 0.058209024 -0.10558382 4292173159
-0.29972762 0.060943749 -0.10686758 4292234321
-0.3004221 0.063376985 -0.10750952 4292038225
-0.30182341 0.066500008 -0.10947518 4291780956
-0.29828885 0.020629346 -0.12327071 4291125610
-0.29760846 0.02188617 -0.12126061 4291577159
-0.29693273 0.023134653 -0.11926431 4291511366
-0.29626167 0.024374839 -0.11728156 4291380039
-0.29559514 0.025606781 -0.11531221 4291511628
-0.29493317 0.026830653 -0.11335619 4291514203
-0.2942757 0.028046427 -0.11141333 4291201669
-0.29394966 0.02951787 -0.11012422 4291476403
-0.29395175 0.031251073 -0.10947893 4291546047
-0.29428196 0.033254869 -0.10947418 4291545536
-0.2946133 0.035265725 -0.10946936 4291676867
-0.29527727 0.037562776 -0.11010948 4291742660
-0.29561198 0.039591789 -0.11010547 4291808709
-0.29628277 0.041915942 -0.11075088 4291874503
-0.29695818 0.044256326 -0.11140054 4292005832
-0.29662305 0.045722194 -0.11009295 4292071882
-0.29662517 0.047481231 -0.10943804 4292137416
-0.29662728 0.049240563 -0.10878302 4292268488
-0.29629335 0.050696187 -0.10748193 4292334283
-0.29629546 0.052453015 -0.10682785 4292530632
-0.29629758 0.054210082 -0.10617368 4292523699
-0.29663575 0.056280434 -0.10616203 4292377986
-0.29697514 0.058358174 -0.10615032 4292366420
-0.29868102 0.061739419 -0.10874015 4292169299
-0.30006763 0.064845487 -0.11071109 4291909978
-0.29622555 0.022350295 -0.12247479 4291516244
-0.29555449 0.023597399 -0.12047434 4291643979
-0.29488805 0.024836166 -0.11848747 4291511369
-0.29422611 0.02606675 -0.11651402 4291577158
-0.2935687 0.027289223 -0.11455396 4291643210
-0.29291573 0.02850366 -0.11260705 4291387488
-0.29259193 0.029974492 -0.11131595 4291595920
-0.2925939 0.031707913 -0.1106707 4291672500
-0.29292172 0.033712674 -0.110668 4291939774
-0.29357868 0.036000431 -0.11131121 4291939779
-0.29424012 0.038304079 -0.11195868 4291939780
-0.29490614 0.040623773 -0.11261056 4291940294
-0.29557669 0.042959616 -0.11326674 4292006344
-0.29625186 0.045311868 -0.11392735 4292203209
-0.29591674 0.046781179 -0.11261099 4292203465
-0.29591876 0.048546493 -0.11195385 4292203464
-0.29558477 0.050008215 -0.11064291 4292334281
-0.29525191 0.051465202 -0.10933634 4292400075
-0.29492024 0.052917473 -0.10803422 4292463301
-0.29492223 0.054674737 -0.10738008 4292385187
-0.29525796 0.056746081 -0.10737054 4292239986
-0.29660642 0.059785143 -0.10931181 4292303965
-0.29831794 0.063196689 -0.11194275 4292109411
-0.29417601 0.024060197 -0.12168457 4291257697
-0.29318398 0.025038075 -0.11902887 4291451226
-0.2925289 0.026266068 -0.11705704 4291579723
-0.29187825 0.027485985 -0.11509843 4291708492
-0.29155555 0.028960973 -0.113801 4291708750
-0.29123393 0.030431224 -0.11250792 4291648611
-0.29155931 0.032433785 -0.11250847 4291790477
-0.29188582 0.034443386 -0.11250895 4291999659
-0.29254031 0.036737721 -0.11315957 4291938239
-0.29319921 0.03904802 -0.11381449 4292006085
-0.29419515 0.041662898 -0.115133 4292072135
-0.29520139 0.044305135 -0.11646505 4292137929
-0.29621816 0.04697514 -0.11781091 4292269002
-0.29588062 0.048451934 -0.11647869 4292269256
-0.29588255 0.05022968 -0.11581703 4292334792
-0.29554623 0.051698841 -0.11449038 4292400073
-0.29521102 0.053163145 -0.11316819 4292465611
-0.29521298 0.054935552 -0.11250849 4292264899
-0.29521489 0.056708183 -0.11184873 4292124325
-0.291814 0.027249325 -0.11958174 4291325540
-0.2911635 0.028470257 -0.11760793 4291516508
-0.29051739 0.029683124 -0.1156474 4291645779
-0.2901969 0.031154817 -0.11434899 4291776080
-0.29052097 0.033162206 -0.11435272 4292105056
-0.29084617 0.035176661 -0.11435638 4291789444
-0.29182482 0.037757959 -0.11567112 4291868076
-0.2928136 0.040366109 -0.11699931 4292071618
-0.29381254 0.043001559 -0.11834119 4292203463
