# .PCD v0.7 - Point Cloud Data file format
VERSION 0.7
FIELDS x y z rgba
SIZE 4 4 4 4
TYPE F F F U
COUNT 1 1 1 1
WIDTH 1004
HEIGHT 1
VIEWPOINT 0 0 0 1 0 0 0
POINTS 1004
DATA ascii
-0.30733278 -0.00084801414 -0.036049839 4285296730
-0.30689147 0.00080582057 -0.035750479 4283657811
-0.3064515 0.0024548771 -0.03545206 4283657554
-0.30631807 0.0040752189 -0.035654727 4283722836
-0.30587959 0.0057173809 -0.03535701 4283723610
-0.30574632 0.0073357332 -0.035559431 4286745464
-0.3053093 0.008971042 -0.035262309 4291740844
-0.30547965 0.010573172 -0.035964392 4292792495
-0.30504301 0.012204096 -0.035666719 4293179277
-0.30521291 0.013811576 -0.036369462 4293442698
-0.30507955 0.015431137 -0.036572039 4293835639
-0.30494612 0.017050916 -0.03677465 4293764973
-0.30451021 0.018673085 -0.036475886 4293958763
-0.30407557 0.020290596 -0.036178038 4293962347
-0.30364221 0.021903539 -0.035881143 4293832557
-0.30321014 0.023511887 -0.035585165 4293767286
-0.30277932 0.025115689 -0.035290059 4293503605
-0.30264679 0.026724823 -0.035491329 4293702516
-0.30251423 0.028334191 -0.035692647 4294031732
-0.30267918 0.029958529 -0.036391523 4293702261
-0.30254638 0.031570777 -0.036593188 4293438320
-0.30271158 0.033202846 -0.0372945 4293896043
-0.30257854 0.034817986 -0.037496526 4293633904
-0.3021479 0.036408946 -0.037198365 4293631849
-0.30201501 0.038022168 -0.037400156 4293566315
-0.30188212 0.039635587 -0.037601974 4293041262
-0.3017492 0.041249275 -0.037803821 4292913022
-0.30132037 0.042829238 -0.037505735 4293046415
-0.30089277 0.044404738 -0.03720862 4292778351
-0.30046645 0.045975782 -0.036912359 4292050516
-0.30033404 0.047583196 -0.037113432 4291327827
-0.30078924 0.049277619 -0.038312331 4291068508
-0.30095136 0.050936304 -0.039015505 4291596391
-0.30081829 0.052551635 -0.039217561 4292385901
-0.30068523 0.054167211 -0.03941964 4292319594
-0.30084735 0.055836398 -0.040125597 4291725412
-0.37854224 0.072169885 -0.17332906 4291203703
-0.3760812 0.07397683 -0.16971816 4291147177
-0.3764618 0.076330803 -0.1709659 4291220430
-0.37627709 0.07857351 -0.17124644 4291083952
-0.30704442 -0.0011762746 -0.038668808 4285824101
-0.30660149 0.00048567035 -0.038364232 4283788884
-0.30646715 0.0021156955 -0.038568214 4283723092
-0.3063328 0.0037459487 -0.038772207 4283854420
-0.30589154 0.0053986646 -0.038468022 4283723606
-0.30575731 0.0070269462 -0.038671792 4284380010
-0.30531761 0.00867269 -0.038368326 4288455838
-0.30518356 0.01029899 -0.038571835 4291416769
-0.30504951 0.01192551 -0.03877537 4292852886
-0.30491543 0.013552305 -0.038978942 4293376129
-0.30478132 0.015179326 -0.039182525 4293640827
-0.3049517 0.016801616 -0.039894931 4293899638
-0.30420965 0.018436536 -0.039082196 4294027375
-0.3037734 0.020061856 -0.038779177 4293767535
-0.30333847 0.021682534 -0.038477167 4293505395
-0.30290478 0.02329858 -0.038176026 4293965939
-0.30247241 0.024910033 -0.037875827 4293569134
-0.30233917 0.026526514 -0.038078118 4293435243
-0.30190822 0.0281312 -0.037778597 4293437039
-0.30207264 0.029760227 -0.038482763 4293506688
-0.30193934 0.031377424 -0.038685136 4293704058
-0.30180603 0.032994892 -0.038887538 4293897839
-0.30197051 0.034634348 -0.039594516 4293766774
-0.30153936 0.036230493 -0.039292417 4293570170
-0.30170336 0.037875291 -0.040000081 4293698415
-0.30156979 0.03949612 -0.040202897 4293697385
-0.30143619 0.041117169 -0.040405754 4293501033
-0.30130255 0.042738494 -0.04060863 4293106546
-0.30087233 0.044323687 -0.040305167 4292643426
-0.30044338 0.045904376 -0.040002637 4291919186
-0.30031008 0.047521535 -0.040204998 4291263317
-0.30076784 0.049226068 -0.041420456 4291133016
-0.3009308 0.050894763 -0.042132623 4291330392
-0.30079687 0.052519925 -0.042335991 4291660639
-0.30066288 0.054145332 -0.042539392 4292057194
-0.30082583 0.055824652 -0.043254357 4292189301
-0.30249107 0.057793241 -0.046562035 4291800725
-0.37441671 0.073665611 -0.17122737 4291479998
-0.37479374 0.076019116 -0.17247838 4290889666
-0.37460887 0.078261994 -0.17275904 4290362541
-0.30692831 0.00010181596 -0.042033918 4284511070
-0.30648276 0.0017723133 -0.041722514 4283920483
-0.30634749 0.0034126213 -0.041927855 4283789410
-0.3059034 0.0050760238 -0.041617114 4283658084
-0.30576828 0.006714338 -0.04182221 4283724135
-0.30532575 0.0083706751 -0.041512217 4285105021
-0.3051908 0.010006975 -0.04171706 4288986794
-0.30505583 0.011643525 -0.04192194 4291544487
-0.30492085 0.013280302 -0.042126827 4292918928
-0.30509239 0.014909475 -0.042848129 4293312898
-0.30495715 0.016549239 -0.043053396 4293703544
-0.30451572 0.018192098 -0.04274172 4293636728
-0.3040756 0.019830227 -0.042430967 4293438066
-0.30363682 0.021463651 -0.042121191 4293111165
-0.30319929 0.023092359 -0.041812394 4293570933
-0.30276313 0.024716403 -0.041504595 4293308534
-0.3023282 0.026335783 -0.041197687 4293172333
-0.30189458 0.027950533 -0.040891748 4293171556
-0.30176061 0.02957494 -0.041095085 4293174645
-0.30162662 0.031199588 -0.041298471 4293441655
-0.3014926 0.032824457 -0.041501887 4293834610
-0.30135858 0.034449574 -0.041705333 4293833580
-0.30122453 0.03607494 -0.041908797 4293504882
-0.30138871 0.037727054 -0.042623714 4293698406
-0.30125442 0.039355341 -0.042827547 4293828709
-0.30141887 0.041015372 -0.043544985 4293765484
-0.30098578 0.042612623 -0.043235302 4293369702
-0.3008514 0.044241622 -0.043439239 4292644188
-0.30071706 0.045870844 -0.043643195 4292184151
-0.30058265 0.047500335 -0.043847185 4291855960
-0.30104458 0.049217802 -0.045082923 4291394903
-0.30090976 0.050852671 -0.045287572 4290999637
-0.30107403 0.05253683 -0.046011113 4291394650
-0.30093893 0.054174662 -0.046216153 4291921509
-0.30110347 0.055866882 -0.046942234 4291925115
-0.30339652 0.057966862 -0.051375873 4291605670
-0.30574653 0.060119305 -0.055919684 4291349448
-0.30783364 0.062259804 -0.06001579 4290558906
-0.30931234 0.064307712 -0.063058436 4288782237
-0.30618724 0.0014532089 -0.044392139 4287143307
-0.30605122 0.0031011978 -0.044598531 4286946186
-0.30591521 0.0047494136 -0.044804946 4286683531
-0.30577916 0.0063978788 -0.045011397 4286618251
-0.30533376 0.0080649508 -0.044694677 4286814864
-0.30519789 0.0097113755 -0.044900876 4288658336
-0.30506197 0.011358051 -0.045107108 4290694328
-0.30492607 0.013004954 -0.045313351 4292003244
-0.30509862 0.014643803 -0.046044081 4292592792
-0.30496243 0.016293723 -0.046250723 4292985229
-0.30482626 0.017943872 -0.046457376 4292983177
-0.30438218 0.01959502 -0.046138667 4293111683
-0.30393949 0.021241382 -0.045821015 4293177990
-0.30319345 0.022878703 -0.044983111 4293503600
-0.30275455 0.02451306 -0.044668723 4293306736
-0.30261928 0.02615191 -0.044873968 4293370218
-0.30218184 0.027779303 -0.044560239 4293500517
-0.30174571 0.029402025 -0.044247486 4293238128
-0.3016108 0.031036612 -0.044452202 4292847473
-0.30117613 0.032652453 -0.044140145 4293441137
-0.30134091 0.034306552 -0.044861723 4293769586
-0.30120596 0.035941858 -0.045066513 4293569388
-0.30137101 0.037603948 -0.045790628 4293433952
-0.30123577 0.039242223 -0.04599582 4293632610
-0.30140108 0.040912289 -0.046722513 4293634408
-0.30126563 0.042553555 -0.046928059 4293043310
-0.30143118 0.044231687 -0.047657296 4292515685
-0.30099466 0.045836784 -0.047339242 4292252512
-0.30085915 0.047478747 -0.047544859 4292253797
-0.30102402 0.049165089 -0.048275128 4292253030
-0.30118939 0.050856814 -0.049007703 4291791200
-0.30135521 0.052553952 -0.049742494 4291132767
-0.30121899 0.054204397 -0.049949203 4290479222
-0.30108276 0.055855099 -0.050155923 4290552736
-0.30277324 0.057851464 -0.053573288 4291151809
-0.30480838 0.059947204 -0.057605658 4290888638
-0.30656838 0.062023371 -0.061163027 4289309860
-0.30836183 0.064139277 -0.064788043 4287465602
-0.30696514 -0.00061973004 -0.048473291 4291480995
-0.30620086 0.0011019842 -0.047616649 4291614126
-0.30606389 0.0027602471 -0.047824416 4291024558
-0.30561528 0.0044427998 -0.04750149 4290826414
-0.30578995 0.0060774819 -0.048240021 4291483311
-0.30534169 0.0077554188 -0.047916517 4291613871
-0.30520487 0.009412095 -0.048124067 4291087789
-0.30506802 0.011069017 -0.048331674 4291217838
-0.30493116 0.012726174 -0.048539292 4291873967
-0.30479428 0.014383581 -0.04874694 4291873969
-0.30496758 0.01603502 -0.049487576 4292464558
-0.30483043 0.017695457 -0.049695607 4292397222
-0.30438355 0.019357262 -0.049370077 4292786574
-0.303938 0.021014219 -0.049045604 4293376385
-0.30318734 0.022662381 -0.04819284 4293572209
-0.30274561 0.024307186 -0.04787166 4293374578
-0.30230522 0.025947221 -0.047551569 4293239920
-0.30186617 0.027582515 -0.04723246 4293436006
-0.30173036 0.029226959 -0.047438484 4293371761
-0.30129278 0.030855229 -0.047120064 4292913267
-0.30115715 0.032497674 -0.047325838 4293308526
-0.30132282 0.034161743 -0.048056748 4293636722
-0.30118695 0.035807136 -0.048262894 4293637496
-0.30135286 0.037479285 -0.048996385 4293437033
-0.30151924 0.039156761 -0.049732134 4293369183
-0.30168614 0.040839616 -0.050470214 4293171807
-0.30185351 0.042527858 -0.051210556 4292778604
-0.30202138 0.044221524 -0.051953189 4292713579
-0.30157986 0.045841519 -0.05162571 4292319844
-0.30144298 0.047498722 -0.051833343 4291795305
-0.30161017 0.049200743 -0.05257703 4292191089
-0.30147305 0.050860975 -0.052785028 4292584050
-0.30164051 0.052571256 -0.053531375 4291728500
-0.30119878 0.054182157 -0.053201135 4290814866
-0.30136576 0.055898044 -0.05394819 4291020730
-0.30214581 0.05773532 -0.055784445 4291020994
-0.30386713 0.059774522 -0.059297122 4290033070
-0.30593988 0.06191824 -0.063443571 4286939006
-0.30773294 0.064040013 -0.067101963 4286219119
-0.30730072 -0.0010200511 -0.052296359 4292396702
-0.30652931 0.00071638182 -0.051421322 4292663731
-0.30607644 0.0024150023 -0.051090412 4291221939
-0.30562496 0.0041086474 -0.050760593 4291283116
-0.30580059 0.0057530697 -0.051508803 4292663476
-0.3053495 0.0074420152 -0.051178381 4292991667
-0.30521172 0.0091090631 -0.05138734 4292005549
-0.30476215 0.01079073 -0.051057633 4290818202
-0.30462456 0.012455689 -0.051266316 4292332454
-0.30448693 0.014120928 -0.051475037 4292138164
-0.30466044 0.015779724 -0.052223433 4292989872
-0.30452257 0.017448021 -0.052432518 4292398767
-0.30438468 0.019116543 -0.052641653 4291801235
-0.30393627 0.020784235 -0.052310202 4292324477
-0.3031809 0.022443382 -0.051442254 4292781427
-0.30243012 0.024092596 -0.05057963 4292978803
-0.30229321 0.025749307 -0.050787274 4293045624
-0.30154738 0.027383847 -0.04992938 4293043052
-0.30141085 0.029035969 -0.050136451 4292847728
-0.30066997 0.030656004 -0.049283199 4292848756
-0.30053383 0.03230359 -0.049489699 4293239655
-0.30069891 0.033972569 -0.050226208 4293303906
-0.3005625 0.035623122 -0.050433088 4293242224
-0.30133423 0.037353039 -0.052241668 4293240429
-0.30180684 0.039069928 -0.053526204 4293304424
-0.30197534 0.040765755 -0.054275859 4293106273
-0.30245209 0.042501662 -0.055572703 4292514912
-0.30262232 0.044211153 -0.056329083 4292189295
-0.30217567 0.045846317 -0.055991936 4291664501
-0.30203745 0.047518998 -0.056201577 4291137390
-0.30220696 0.04923702 -0.056959007 4291202670
-0.30206847 0.050912797 -0.057169065 4291400058
-0.30192995 0.052588832 -0.05737913 4291274135
-0.30148429 0.054212268 -0.057040505 4291151034
-0.30134594 0.055886194 -0.05725031 4291283912
-0.3012076 0.057560381 -0.057460148 4290624951
-0.30323496 0.059663028 -0.061554138 4287467145
-0.30498821 0.061746612 -0.065165907 4285298269
-0.30677488 0.063870251 -0.06884668 4286023537
-0.30686271 0.00032470922 -0.055285659 4292794802
-0.30640572 0.002037324 -0.054946266 4291613358
-0.30595005 0.0037448835 -0.054607935 4291146905
-0.30581114 0.0054245661 -0.054818548 4292527524
-0.3053571 0.0071246629 -0.054480996 4292330407
-0.30521837 0.0088022193 -0.054691341 4292591520
-0.30476594 0.01049494 -0.054354623 4290680452
-0.30462739 0.012170399 -0.054564707 4292593047
-0.30448881 0.013846092 -0.054774806 4292663216
-0.30435023 0.015522035 -0.054984957 4293316007
-0.30421159 0.017198207 -0.055195134 4292662453
-0.30407298 0.018874638 -0.055405337 4291083957
-0.30362284 0.020550594 -0.055068173 4290490016
-0.30286485 0.022218313 -0.054187778 4291535242
-0.30241862 0.023881832 -0.053854112 4292386681
-0.30166778 0.025532084 -0.052981585 4292850299
-0.30122542 0.02718333 -0.052651357 4292781941
-0.30078444 0.028829755 -0.052322198 4292586358
-0.30004311 0.030455511 -0.051459767 4292781681
-0.29960588 0.032089908 -0.051133972 4293239142
-0.29976973 0.033761244 -0.051874276 4293369954
-0.29993406 0.035437953 -0.05261685 4293371237
-0.30070516 0.037172452 -0.054441154 4293305196
-0.30209863 0.038981736 -0.057379238 4292912756
-0.3022688 0.04069072 -0.058140855 4292384874
-0.3030616 0.042474899 -0.060016718 4291857509
-0.30323428 0.04420054 -0.060787216 4291927673
-0.30309445 0.045891415 -0.060999248 4291928440
-0.30295461 0.047582529 -0.061211292 4291466347
-0.30281472 0.049273923 -0.061423376 4291009153
-0.30236343 0.050917376 -0.061075311 4291211171
-0.3019135 0.05255596 -0.060728319 4291283906
-0.301774 0.054242797 -0.060939834 4291350216
-0.30163446 0.055929925 -0.061151382 4290691001
-0.30149493 0.057617277 -0.061362963 4287598731
-0.30259866 0.059550773 -0.063825525 4285363293
-0.30435124 0.061640032 -0.067470364 4284641628
-0.30646235 0.063839473 -0.071774945 4286022769
-0.30752319 -0.00010497397 -0.059773669 4292598706
-0.30706066 0.0016246593 -0.059424076 4292465581
-0.30659959 0.0033490888 -0.059075609 4290490262
-0.30645925 0.0050447527 -0.059288312 4292460440
-0.30631894 0.0067406516 -0.059501033 4291801248
-0.30585968 0.0084551135 -0.059153128 4292984993
-0.30540186 0.010164434 -0.058806315 4290618260
-0.30526191 0.011855759 -0.059018482 4292263571
-0.3048057 0.013557573 -0.058672469 4292990893
-0.30435088 0.015254321 -0.058327582 4293381794
-0.30421129 0.016941132 -0.058539167 4292925106
-0.30375811 0.018630441 -0.058195125 4291021756
-0.30330628 0.020314747 -0.05785213 4290429118
-0.30254561 0.021991102 -0.056959085 4290689197
-0.30178961 0.023657305 -0.056071572 4290554780
-0.30103827 0.025313476 -0.05518958 4291208587
-0.30059543 0.026970277 -0.054855056 4292191616
-0.29985118 0.028609116 -0.053980939 4292390787
-0.29911146 0.03023817 -0.053112216 4292518771
-0.29867491 0.031875525 -0.052783523 4292515690
-0.29883748 0.033549231 -0.053527549 4292516714
-0.2990005 0.035228316 -0.054273888 4292912236
-0.30037647 0.037016861 -0.057201706 4292977773
-0.30177379 0.038833492 -0.060175128 4292320370
-0.30225492 0.040582363 -0.061504729 4291858284
-0.30305248 0.04237739 -0.063408367 4291397224
-0.30417484 0.044227727 -0.065903097 4290808437
-0.30403334 0.045937475 -0.066117562 4290812038
-0.30325928 0.047560606 -0.065186292 4291146657
-0.30343378 0.049311481 -0.065972492 4291218109
-0.30266276 0.050921969 -0.065043166 4291153608
-0.30220872 0.052573547 -0.064687371 4291153092
-0.30175611 0.054220207 -0.064332679 4290231221
-0.3016156 0.055918008 -0.064545661 4287467406
-0.30147508 0.057616077 -0.064758673 4285363295
-0.30227131 0.059499752 -0.066683941 4284379480
-0.30402902 0.061598625 -0.070373543 4284314459
-0.30582058 0.063738167 -0.074134231 4285891185
-0.30754471 -0.00047743617 -0.063199013 4292399785
-0.30707917 0.0012638898 -0.062841915 4292794027
-0.30693763 0.0029728664 -0.063056372 4290490267
-0.3067961 0.004682106 -0.063270859 4292199589
-0.30665454 0.0063916021 -0.063485384 4292664503
-0.30619103 0.0081202919 -0.063128494 4293450162
-0.30604964 0.0098275784 -0.063342735 4291738273
-0.30558777 0.011548626 -0.062986702 4292063889
-0.30512738 0.013264481 -0.062631853 4293056427
-0.30466837 0.014975191 -0.062278096 4293185699
-0.30421078 0.016680773 -0.061925508 4293187500
-0.30375463 0.018381238 -0.061574083 4289379235
-0.3029865 0.02007664 -0.060662445 4289310890
-0.30222318 0.021761715 -0.059756551 4290101945
-0.30146453 0.023436539 -0.058856282 4290167487
-0.30040464 0.025093464 -0.057411499 4290559160
-0.29965743 0.026745563 -0.056525506 4290753450
-0.29891485 0.028387778 -0.055645019 4290753693
-0.29817674 0.030020136 -0.054769922 4290949011
-0.29774085 0.031660441 -0.054438304 4291143823
-0.29790211 0.033336539 -0.0551861 4291141769
-0.29806387 0.035018016 -0.055936236 4291007105
-0.30004445 0.036859769 -0.059988193 4290811524
-0.30144566 0.038683835 -0.06299749 4290878856
-0.30192792 0.040440608 -0.064342335 4290945422
-0.30304307 0.042278606 -0.06684304 4290817180
-0.30417237 0.044140246 -0.069375619 4290886833
-0.30371088 0.045820054 -0.069008946 4291021252
-0.30356857 0.047538307 -0.069224574 4291088333
-0.30342627 0.049256798 -0.069440231 4291284426
-0.3026503 0.050877817 -0.068494201 4290955199
-0.30219331 0.05254003 -0.068130761 4289180074
-0.30173776 0.054197237 -0.067768566 4286808966
-0.30159628 0.055905923 -0.067982979 4284970082
-0.30145475 0.057614841 -0.068197444 4284248409
-0.30194059 0.059448197 -0.069569699 4284117080
-0.30338347 0.061490633 -0.072713405 4284313949
-0.30517447 0.063636154 -0.076508947 4285825647
-0.30742359 0.00086782401 -0.066884629 4291414180
-0.30728084 0.0025906127 -0.06710092 4291154093
-0.30681255 0.0043387939 -0.066735432 4291809711
-0.30666998 0.0060593062 -0.066951439 4292071083
-0.30652741 0.0077801105 -0.067167461 4292529832
-0.306061 0.0095179966 -0.066802613 4292462500
-0.3059186 0.011236556 -0.06701836 4292526751
-0.30513263 0.012977978 -0.06607639 4292661672
-0.3046706 0.014700122 -0.065715075 4292398246
-0.30421004 0.016417077 -0.065354913 4292727463
-0.30375087 0.018128837 -0.064995922 4288522386
-0.30297783 0.019835848 -0.0640679 4286282356
-0.30220962 0.021532398 -0.063145734 4286552466
-0.30144617 0.023218557 -0.062229346 4288918704
-0.30037963 0.024886962 -0.060759861 4290824379
-0.29962778 0.02655012 -0.059858095 4290760130
-0.2985779 0.028190663 -0.058411065 4290759365
-0.29753768 0.029816315 -0.056977399 4290889666
-0.296507 0.031427283 -0.055556927 4290954173
-0.29666626 0.033103149 -0.05630656 4290953659
-0.296826 0.034784395 -0.057058521 4290888379
-0.29879305 0.03662375 -0.061122764 4290823871
-0.30080327 0.038503759 -0.065276355 4290890435
-0.3015976 0.040297464 -0.067206986 4290890692
-0.30271584 0.042143442 -0.069737889 4290825672
-0.3035281 0.043975111 -0.071711473 4290825418
-0.30370507 0.045742389 -0.072518297 4291284424
-0.30324197 0.047428079 -0.072144955 4291481538
-0.30309886 0.049154952 -0.072361767 4290297522
-0.30232015 0.050784137 -0.071402043 4290029715
-0.30186141 0.052454554 -0.071032375 4291473779
-0.30140409 0.054119941 -0.070663929 4290292075
-0.30094817 0.055780314 -0.070296675 4289175395
-0.30080611 0.057494774 -0.070511915 4288252251
-0.30129138 0.059333701 -0.071895994 4285295445
-0.3024146 0.061315924 -0.074473426 4284313948
-0.30419898 0.06346336 -0.078292206 4286153836
-0.30744424 0.00049689505 -0.070400335 4287011203
-0.30730045 0.0022308759 -0.070618123 4287275402
-0.30682904 0.0039909952 -0.070244752 4287801486
-0.30668542 0.0057227192 -0.070462257 4288260498
-0.3062157 0.0074749487 -0.070089802 4288653972
-0.30607229 0.0092043998 -0.070307009 4288850322
-0.30592886 0.010934087 -0.070524246 4288982163
-0.30513772 0.012687765 -0.069565207 4289112210
-0.30467263 0.014421498 -0.06919609 4289046672
-0.30420902 0.016149966 -0.068828233 4289178257
-0.30374685 0.017873174 -0.068461545 4286748037
-0.3029688 0.019591955 -0.067516744 4284905312
-0.30219564 0.021300131 -0.066577926 4284575833
-0.30080453 0.02298863 -0.064505078 4285623905
-0.30004534 0.024670651 -0.063584566 4286284923
-0.2992909 0.026342379 -0.062669858 4287145636
-0.29793498 0.027979434 -0.060646988 4288854198
-0.2968944 0.029611211 -0.059198651 4290694076
-0.29616007 0.031245349 -0.058310214 4291547581
-0.29602212 0.032909032 -0.058519159 4291612859
-0.29618123 0.034595314 -0.059276935 4291481532
-0.29875693 0.036489584 -0.064505696 4291612603
-0.30077937 0.038380127 -0.068723053 4291940794
-0.30157849 0.040184766 -0.070682466 4292006327
-0.30270365 0.042041987 -0.073251903 4291481017
-0.30352098 0.043885037 -0.075255185 4290036669
-0.30337691 0.045622639 -0.075473405 4288261295
-0.302912 0.047316764 -0.075093672 4287400840
-0.30276811 0.049052082 -0.075311609 4288447592
-0.3019866 0.050689537 -0.074337982 4290681699
-0.30152607 0.052368235 -0.073961951 4290420062
-0.30106699 0.054041855 -0.073587194 4289824599
-0.30092394 0.055767134 -0.073803879 4290944348
-0.3010962 0.057552315 -0.074613035 4290161507
-0.30190429 0.059469327 -0.076619945 4285688661
-0.30304223 0.061471712 -0.079252914 4284248409
-0.3048501 0.063641824 -0.083155811 4286284650
-0.30779615 8.8735134e-05 -0.074563697 4286024297
-0.30798328 0.0018073135 -0.075387649 4285828203
-0.30750602 0.003585377 -0.07500302 4286024552
-0.30703035 0.0053579505 -0.074619696 4287007847
-0.3065562 0.0071250321 -0.074237682 4288712808
-0.3064115 0.0088686161 -0.074456751 4289762155
-0.30593905 0.010627691 -0.074075624 4290223211
-0.30546808 0.012381391 -0.073695771 4290155112
-0.30467448 0.014139243 -0.072722055 4289695333
-0.30420774 0.015879381 -0.072346263 4289104483
-0.30374253 0.017614195 -0.071971722 4287530337
-0.30295941 0.019344926 -0.071009785 4285430363
-0.30218127 0.021064863 -0.070054017 4284380505
-0.30140805 0.022774182 -0.069104359 4284117847
-0.29939896 0.02444537 -0.065864868 4284052054
-0.29864407 0.0261232 -0.064940229 4284576088
-0.29759037 0.027778806 -0.063458361 4285623388
-0.29654649 0.029419243 -0.061990306 4286476389
-0.29551223 0.031044746 -0.060535889 4286871665
-0.29537374 0.032713696 -0.060745586 4286743934
-0.29612908 0.034449432 -0.062622324 4286681483
-0.29872012 0.036353681 -0.067931443 4286814097
-0.3007549 0.038254868 -0.072213851 4287207308
-0.30155894 0.040070608 -0.074202605 4287399805
-0.30237067 0.041904069 -0.076210551 4287462000
-0.30319023 0.043755535 -0.078237958 4286739815
-0.30304533 0.045501653 -0.078457355 4285560421
-0.30290043 0.047248069 -0.078676775 4284838493
-0.30243391 0.048948139 -0.078290172 4285689940
-0.3016496 0.05059398 -0.077302389 4287988823
-0.30118728 0.052281063 -0.076919928 4287865186
-0.30104321 0.054017279 -0.077138066 4287732834
-0.30121669 0.055810995 -0.077957883 4288517466
-0.3017101 0.057671189 -0.07938619 4290288476
-0.30285221 0.059671566 -0.082049944 4286081363
-0.30400923 0.061698306 -0.084748499 4284248408
-0.30584738 0.063895829 -0.088750854 4286481000
-0.30882609 -0.00039303178 -0.080028936 4286682478
-0.30867925 0.0013753708 -0.080251217 4286289774
-0.3081961 0.0031717417 -0.079854965 4288455791
-0.30771452 0.0049625062 -0.079460099 4286750318
-0.30690193 0.0067694192 -0.07845328 4285829502
-0.30675596 0.0085273162 -0.078674242 4287337606
-0.30627897 0.010301413 -0.07828328 4288452737
-0.30613321 0.012056962 -0.078503929 4288387970
-0.30500233 0.013843213 -0.076898545 4287862663
-0.30453125 0.015598028 -0.076513112 4287274374
-0.30373791 0.017351851 -0.075527325 4286094463
-0.30327109 0.019093063 -0.075146012 4286028915
-0.30248559 0.020827753 -0.07416939 4287202916
-0.30170509 0.02255162 -0.073199116 4286085468
-0.30061495 0.024258096 -0.071647264 4284511834
-0.29984653 0.025957923 -0.070692718 4283987034
-0.29877377 0.027635342 -0.069165058 4283986265
-0.29649639 0.029239694 -0.065373451 4284181846
-0.29515749 0.030859526 -0.063334092 4284312662
-0.29472113 0.032517124 -0.062986039 4284313431
-0.29487902 0.034213502 -0.063755661 4285494107
-0.2971471 0.036089379 -0.06850554 4287468134
-0.29978561 0.038041789 -0.073966719 4287539566
-0.30122027 0.039923005 -0.077165961 4286682726
-0.3020342 0.041764788 -0.079198062 4287463516
-0.30253267 0.04358663 -0.08063715 4287529049
-0.30271026 0.045379471 -0.081470512 4285364309
-0.30224171 0.047090743 -0.081077605 4284181842
-0.30209622 0.04884319 -0.081297882 4285691475
-0.30130911 0.050497442 -0.080295719 4288777304
-0.300845 0.052192979 -0.079906695 4287863647
-0.30133873 0.054047108 -0.081345998 4287663451
-0.30119336 0.055797752 -0.081566043 4289106266
-0.30266029 0.057853758 -0.084874339 4290094175
-0.30415133 0.059943765 -0.08823707 4286015573
-0.30533206 0.06199925 -0.091012299 4284313945
-0.30720791 0.064229272 -0.095130958 4286940519
-0.31022322 -0.00092086941 -0.086257599 4287403885
-0.30973104 0.00090303569 -0.085846275 4287012201
-0.30889961 0.0027498472 -0.084803395 4286550886
-0.30841199 0.0045591849 -0.084396541 4285763192
-0.30758896 0.0063853953 -0.083363652 4289450166
-0.30710587 0.0081803594 -0.082961261 4289976011
-0.30662429 0.0099697104 -0.082560159 4289509321
-0.30614427 0.011753468 -0.082160421 4289051085
-0.30533531 0.013542331 -0.081143424 4290565578
-0.3048597 0.015312068 -0.080747992 4289646532
-0.30405879 0.017081192 -0.079740629 4289573052
-0.30326301 0.018839108 -0.078739733 4288459676
-0.30247238 0.020585949 -0.077745378 4286876531
-0.3026495 0.022332668 -0.078571074 4286478946
-0.30250442 0.024078814 -0.078790642 4285496414
-0.3017174 0.025806731 -0.077797785 4284512859
-0.30093548 0.027523821 -0.076811351 4285821015
-0.3001585 0.029230155 -0.075831279 4287397208
-0.30001473 0.030960562 -0.076048873 4286610774
-0.29955652 0.032671094 -0.07566949 4284969301
-0.29909974 0.034376398 -0.07529135 4284705877
-0.29926935 0.036127664 -0.076104142 4285757270
-0.30038661 0.037970621 -0.078725234 4287400280
-0.30087811 0.039773956 -0.080158196 4289169494
-0.30137277 0.041589227 -0.081600465 4290677079
-0.30187067 0.043416582 -0.083052188 4290812508
-0.30172461 0.045174312 -0.083273232 4287794778
-0.30157852 0.046932351 -0.083494306 4284639825
-0.30143246 0.048690628 -0.083715379 4285166161
-0.30064479 0.050350893 -0.082702212 4288317781
-0.30049914 0.052103981 -0.08292266 4288390495
-0.30099404 0.053967021 -0.084378883 4288912988
-0.30181587 0.055900767 -0.086469829 4290680152
-0.30297348 0.057915799 -0.089215308 4290356832
-0.31137738 0.061391618 -0.1060013 4285884245
-0.31521934 0.064076789 -0.11398438 4284182617
-0.31768411 0.066536739 -0.11931375 4287334247
-0.31559366 -0.0018695066 -0.10001476 4287732849
-0.31011245 0.00048532529 -0.090271838 4287405672
-0.30927271 0.0023490603 -0.089205682 4285303913
-0.30843854 0.0042006895 -0.088146582 4287535239
-0.30794913 0.006017033 -0.087732337 4291092172
-0.30746132 0.0078276116 -0.087319434 4291078315
-0.30663854 0.0096497452 -0.0862737 4291071636
-0.30649039 0.01143165 -0.086497843 4290347676
-0.30567351 0.013236452 -0.085458286 4290932863
-0.30486196 0.015029659 -0.084425613 4290802812
-0.30405572 0.016811384 -0.08339972 4291077797
-0.30358127 0.018579351 -0.083000146 4291023811
-0.30343467 0.020342218 -0.08322192 4287607969
-0.30296198 0.022102064 -0.082823344 4285762672
-0.30281559 0.023862565 -0.08304482 4285235810
-0.30234459 0.025614329 -0.082647257 4284776288
-0.30155292 0.027348882 -0.081635632 4285430107
-0.30140719 0.029101597 -0.081856124 4286548060
-0.30062106 0.030819805 -0.080850407 4286814048
-0.30047575 0.032567386 -0.081070259 4286814049
-0.30001223 0.034292255 -0.08067923 4287466846
-0.30018508 0.036063302 -0.08151003 4288908891
-0.30035847 0.03784034 -0.082343481 4290220376
-0.30021283 0.039591786 -0.082563825 4291465557
-0.30070686 0.041412503 -0.084018759 4292056402
-0.30088183 0.043207709 -0.084860452 4291796566
-0.30105743 0.045008976 -0.085704975 4289039962
-0.30091077 0.046772879 -0.085926868 4285032272
-0.30044258 0.048490752 -0.085525043 4284708435
-0.29997596 0.050203316 -0.085124612 4287206491
-0.30014965 0.052014094 -0.085968263 4287670115
-0.30064574 0.053886071 -0.087441653 4289505118
-0.30146977 0.055829074 -0.08955808 4291602011
-0.30296057 0.057916209 -0.092981897 4290683228
-0.31142178 0.061416157 -0.11004609 4285883987
-0.31604016 0.064276174 -0.11962966 4284182103
-0.31892693 0.066848636 -0.12584274 4287662182
-0.3153044 -0.0022485594 -0.10332939 4288061045
-0.31015077 9.4222494e-05 -0.094111994 4287471720
-0.30895972 0.0020022918 -0.092371821 4285042029
-0.30812231 0.0038644921 -0.091296978 4288191627
-0.30763084 0.0056906245 -0.090875499 4291222996
-0.30680197 0.0075318119 -0.089811027 4291936447
-0.30631512 0.0093432944 -0.089394182 4292847245
-0.30616614 0.011134233 -0.089619569 4292647043
-0.30534613 0.012949082 -0.088564634 4291987063
-0.30519757 0.014734617 -0.088789336 4291130740
-0.30438346 0.01653216 -0.087740734 4290416530
-0.30390444 0.018315265 -0.087330841 4291220170
-0.30342701 0.020092759 -0.086922385 4289580485
-0.30295113 0.021864694 -0.086515233 4286419839
-0.30313167 0.023642719 -0.087369129 4285301861
-0.30265617 0.025409339 -0.086961336 4285039459
-0.30185691 0.027158873 -0.085927449 4285169502
-0.30170989 0.028926082 -0.086149842 4286284634
-0.30123898 0.030676214 -0.085746132 4287598425
-0.3007696 0.032420915 -0.085343748 4288122713
-0.300623 0.034183145 -0.085565522 4287988312
-0.30015534 0.035919815 -0.085164152 4289363798
-0.30032972 0.037708338 -0.086009152 4290940245
-0.29986247 0.039439809 -0.085607134 4290220884
-0.30035767 0.041269109 -0.08707922 4289697620
-0.30021071 0.043035492 -0.08730153 4290223959
-0.30038562 0.044842526 -0.088152915 4288712025
-0.3002384 0.046612311 -0.088375628 4285097807
-0.2997697 0.048336215 -0.08796861 4285036627
-0.29930249 0.050054751 -0.087562926 4288453725
-0.29947558 0.051871344 -0.088413499 4288980835
-0.29997095 0.053749114 -0.089899756 4290094941
-0.30210379 0.055933829 -0.094614819 4290682717
-0.30530292 0.058362421 -0.10144495 4289833053
-0.31110534 0.061369315 -0.11343401 4285687636
-0.31574085 0.064243644 -0.12314676 4284247894
-0.31089395 -0.00037153866 -0.099349491 4287537514
-0.3096869 0.0015583779 -0.097565204 4285306220
-0.30883843 0.0034410658 -0.096462056 4286813836
-0.30765182 0.0053361566 -0.09470731 4290698453
-0.30681723 0.0071910145 -0.093623079 4292070856
-0.30598819 0.0090337507 -0.092546098 4292382597
-0.30550092 0.01084918 -0.092123426 4291850107
-0.30501524 0.012658822 -0.091702171 4291390579
-0.30486584 0.014453402 -0.091928087 4290929774
-0.304382 0.016254609 -0.091507994 4291075732
-0.30389971 0.018050123 -0.091089271 4291745996
-0.30375075 0.019839546 -0.091314547 4291222222
-0.30327022 0.021626685 -0.09089689 4287797897
-0.30345273 0.023419207 -0.091765225 4285694566
-0.30264276 0.025192497 -0.090705328 4285302373
-0.30216563 0.026965715 -0.090290152 4285366880
-0.3023456 0.028761914 -0.091154709 4287007579
-0.30154189 0.030512584 -0.09010037 4288647767
-0.30139375 0.032292072 -0.090324402 4288318293
-0.30092016 0.034048855 -0.089911401 4286674771
-0.30077222 0.035825931 -0.090135135 4286934354
-0.30062425 0.037603274 -0.090358898 4288315219
-0.3001526 0.039349254 -0.089946568 4287796312
-0.30032822 0.041158773 -0.090806551 4287732318
-0.3001802 0.042936902 -0.091030404 4288848223
-0.30035609 0.044755805 -0.091893598 4287992667
-0.29988405 0.046493962 -0.091478236 4285032017
-0.29973593 0.048272897 -0.091702208 4285166161
-0.29926562 0.050002944 -0.091287859 4289496916
-0.29943967 0.051831525 -0.092150226 4290356059
-0.29993805 0.053721678 -0.093658723 4291472733
-0.30109444 0.055742517 -0.096479513 4289107294
-0.3029336 0.057916917 -0.10066725 4289307230
-0.30757853 0.060685344 -0.11046171 4285885012
-0.31543812 0.064210683 -0.12670171 4284313687
-0.31165218 -0.00084699068 -0.10469525 4287733869
-0.31007487 0.0011377247 -0.10218217 4286290283
-0.30886775 0.0030669379 -0.10037751 4285435017
-0.30767283 0.0049768724 -0.098591179 4290171081
-0.30648997 0.0068678232 -0.096822917 4292073676
-0.30565774 0.0087210489 -0.095729925 4291463316
-0.30516848 0.010546254 -0.095299892 4291266196
-0.30434477 0.012378472 -0.094217502 4291596171
-0.30419475 0.014179199 -0.094444312 4291655797
-0.30371028 0.015987003 -0.094018675 4291597960
-0.30322739 0.017789045 -0.093594484 4291874494
-0.30307782 0.019584557 -0.093820624 4292075212
-0.30292821 0.021380339 -0.094046801 4288389264
-0.3031109 0.023181537 -0.094924837 4285891689
-0.30296099 0.024980856 -0.095151462 4285433701
-0.30281109 0.026780419 -0.095378116 4285498466
-0.30232954 0.028566113 -0.094951861 4287140702
-0.30184963 0.030346185 -0.094527118 4288714328
-0.30170015 0.032140568 -0.094753124 4288448595
-0.30122197 0.03391229 -0.094329432 4286478419
-0.30107269 0.035704248 -0.094555117 4286345555
-0.30092338 0.037496448 -0.094780847 4287726932
-0.30077404 0.039288919 -0.095006622 4286880091
-0.3006247 0.041081663 -0.095232405 4287601248
-0.30047533 0.042874653 -0.095458247 4289175648
-0.30032593 0.044667915 -0.095684096 4287928669
-0.29985067 0.046417844 -0.095259793 4285032018
-0.29970148 0.048208654 -0.095485345 4284837712
-0.29922801 0.049950399 -0.095062166 4288249170
-0.29940301 0.051791124 -0.095936552 4288714327
-0.29990453 0.053693861 -0.097467765 4290943318
-0.30106825 0.055728123 -0.10033288 4289767006
-0.30291942 0.057917181 -0.10458796 4290616413
-0.30759603 0.060704894 -0.11454505 4286474578
-0.31475249 0.06409847 -0.12952997 4284378455
-0.31242594 -0.0013323701 -0.11015259 4287667315
-0.31082684 0.00067637238 -0.107576 4287011947
-0.3088972 0.0026876398 -0.10434674 4284977018
-0.3076939 0.0046126489 -0.10252813 4289707181
-0.30650282 0.0065183928 -0.10072802 4292008906
-0.30498376 0.0084247626 -0.098279893 4291333529
-0.30449384 0.010256737 -0.097844236 4291990149
-0.30400559 0.01208284 -0.097410172 4292515211
-0.30351892 0.013903089 -0.096977517 4292711029
-0.30336827 0.015710233 -0.097205214 4292055165
-0.30288342 0.017521931 -0.096773706 4292134317
-0.30306688 0.019325314 -0.097660728 4292337608
-0.30291617 0.021133251 -0.097888529 4288390295
-0.30309996 0.022946255 -0.098778971 4285826156
-0.30294892 0.024757743 -0.099007227 4285367908
-0.30279788 0.026569536 -0.099235512 4285367394
-0.30231306 0.02836767 -0.098800078 4286089565
-0.30216223 0.030176951 -0.099028051 4287334487
-0.30167919 0.031966612 -0.098593764 4288119889
-0.3011978 0.033750582 -0.098160982 4287660626
-0.30104741 0.035554625 -0.098388299 4288184661
-0.30056781 0.037330177 -0.097956613 4289172053
-0.30008975 0.039100096 -0.097526394 4287864409
-0.29993978 0.040898941 -0.09775304 4288452443
-0.29978982 0.042698059 -0.097979724 4290026328
-0.2999669 0.044538036 -0.098864824 4288585308
-0.29948977 0.046297047 -0.098433219 4285228626
-0.29933971 0.048096955 -0.098660007 4284641103
-0.29886439 0.04984767 -0.098229587 4287203158
-0.29903954 0.051697534 -0.099113688 4289176672
-0.29987025 0.053665586 -0.10132787 4289239900
-0.30070925 0.055653721 -0.10356434 4289694547
-0.30222851 0.057789404 -0.10718826 4290355036
-0.30446109 0.060098376 -0.1122724 4286409810
-0.30781233 0.062685147 -0.11964851 4284575062
-0.31507558 -0.0020219274 -0.11938151 4287797879
-0.31305778 6.5830784e-05 -0.11596377 4287143278
-0.30892679 0.0023030643 -0.10837087 4285764465
-0.307715 0.0042433804 -0.10651926 4287930511
-0.30616954 0.0061878217 -0.10400263 4291152576
-0.30498603 0.0080859652 -0.10219519 4291140775
-0.304153 0.009948154 -0.10107689 4291923845
-0.30366275 0.011784148 -0.10063528 4291659410
-0.30317405 0.013614218 -0.10019516 4292182904
-0.30268699 0.015438425 -0.099756509 4291529083
-0.30253571 0.01725205 -0.099985123 4291607209
-0.30271941 0.019064246 -0.10088214 4292074181
-0.30256781 0.02088144 -0.10111121 4288455832
-0.30308855 0.022707742 -0.10268527 4285628780
-0.3029364 0.024531594 -0.10291518 4285104738
-0.30278423 0.026355755 -0.10314511 4285038944
-0.30229607 0.028166531 -0.10270033 4286284636
-0.30214411 0.029988114 -0.10292995 4287137882
-0.3016578 0.031790297 -0.10248629 4287138646
-0.30117303 0.033586677 -0.10204414 4287532373
-0.30102152 0.03540295 -0.10227308 4288055894
-0.30053866 0.037190817 -0.10183219 4288450901
-0.30005735 0.038972955 -0.10139272 4288257881
-0.29990628 0.040783979 -0.10162099 4289173594
-0.29975519 0.042595275 -0.10184931 4290286419
-0.29960406 0.044406813 -0.10207766 4289107286
-0.29945293 0.046218626 -0.10230604 4285359954
-0.29930174 0.048030719 -0.10253447 4284574287
-0.29882318 0.04979337 -0.10209476 4287785805
-0.29932755 0.051708583 -0.10366218 4291338070
-0.29983529 0.053636909 -0.10524012 4290489697
-0.30067968 0.055638459 -0.10751163 4289700189
-0.30220893 0.05778873 -0.11119398 4288645975
-0.30307704 0.05983958 -0.11352731 4285754960
-0.30640408 0.062422 -0.12092538 4284443992
-0.3120099 -0.00023995074 -0.11797485 4286748526
-0.30931401 0.0018815596 -0.11316264 4286486126
-0.30808961 0.0038409692 -0.11127028 4287008887
-0.30652821 0.0058049937 -0.10869961 4289047454
-0.30464464 0.0077635138 -0.10547763 4290031026
-0.30380845 0.0096364077 -0.10434267 4291467158
-0.30297786 0.011496897 -0.10321541 4291399574
-0.30282545 0.013322399 -0.10344561 4291924106
-0.30267304 0.015148148 -0.10367585 4291467392
-0.30252063 0.016974173 -0.10390611 4291409569
-0.30270544 0.018798307 -0.10481596 4290890426
-0.3025527 0.020627951 -0.10504668 4287666570
-0.30307683 0.022465939 -0.10664491 4285629029
-0.30326343 0.024309499 -0.10756414 4285104224
-0.3027702 0.026139015 -0.10710812 4284775261
-0.30227861 0.027962586 -0.10665366 4287595866
-0.30212551 0.02979669 -0.10688496 4289237849
-0.30197239 0.031631049 -0.10711627 4287730522
-0.30148292 0.033443045 -0.10666272 4287138392
-0.30099505 0.035249196 -0.10621067 4286874965
-0.30050883 0.037049532 -0.10576019 4286745431
-0.30002427 0.038844053 -0.10531132 4286878044
-0.29987204 0.040667415 -0.10554125 4287860057
-0.29971981 0.042491052 -0.10577122 4289365586
-0.29956755 0.044314932 -0.10600121 4289169234
-0.29908526 0.0460953 -0.10555279 4285885778
-0.29893321 0.047916673 -0.10578247 4284312911
-0.29878113 0.049738321 -0.1060122 4285820753
-0.29928866 0.051666383 -0.10760343 4287262549
-0.29979959 0.053607766 -0.10920557 4287002197
-0.29997966 0.055502478 -0.11012655 4286875736
-0.30150798 0.057659086 -0.11384393 4288583004
-0.30271843 0.059784688 -0.116911 4286213973
-0.30641273 0.062454067 -0.12514748 4285428318
-0.31206197 -0.0006564029 -0.12220976 4286090089
-0.30970779 0.0014526536 -0.11803854 4286091881
-0.30811331 0.0034604757 -0.11538517 4286942824
-0.30689287 0.0054155122 -0.11347816 4287076213
-0.30533686 0.0073724901 -0.11088804 4288979857
-0.30346012 0.0093213962 -0.10764207 4291205767
-0.30296576 0.011177487 -0.10718495 4291926912
-0.30247307 0.013027551 -0.10672944 4291932557
-0.30265865 0.014853868 -0.10764875 4291603584
-0.30318579 0.016680893 -0.10926406 4291539079
-0.30303165 0.01852604 -0.10949684 4289834389
-0.30321908 0.020371936 -0.1104257 4287009139
-0.30340716 0.022224434 -0.11135779 4285761375
-0.3032524 0.024076719 -0.11159147 4285103965
-0.30309767 0.025929257 -0.11182517 4284577112
-0.30260119 0.027768916 -0.11135887 4286806100
-0.30210638 0.029602576 -0.1108942 4289299280
-0.30195209 0.031449631 -0.11112721 4289695315
-0.30179781 0.033296939 -0.11136025 4289891415
-0.30130517 0.03511887 -0.11089654 4289102418
-0.30081415 0.036934879 -0.11043438 4287988307
-0.30066028 0.038776714 -0.11066674 4287070549
-0.29950416 0.040514588 -0.10882627 4286544211
-0.30001754 0.042423226 -0.11043784 4286806099
-0.29986387 0.044262763 -0.11066991 4287139926
-0.29971018 0.046102557 -0.11090202 4287464541
-0.29922345 0.047895413 -0.11044162 4285425743
-0.29940274 0.049782984 -0.11136632 4287268437
-0.29924902 0.051623587 -0.11159851 4289308516
-0.30043566 0.053692713 -0.11462928 4288587879
-0.30095741 0.055668123 -0.11627758 4287931491
-0.30148271 0.057657402 -0.11793733 4288260452
-0.30235586 0.059729192 -0.1203301 4289233249
-0.30606252 0.06241177 -0.12867656 4290614641
-0.31211451 -0.0010788449 -0.12650526 4285562722
-0.30974305 0.001049709 -0.1222593 4285104482
-0.30849683 0.0030447349 -0.12028946 4285433443
-0.30762064 0.0049928199 -0.11906718 4286090339
-0.30604324 0.0069732978 -0.11641139 4287989602
-0.30414093 0.008945914 -0.11308447 4289367146
-0.30364019 0.010821929 -0.11261342 4289564526
-0.30314115 0.012691792 -0.11214402 4289040240
-0.30298615 0.014546026 -0.11237802 4288713072
-0.30317441 0.016394204 -0.11331668 4288908395
-0.30370861 0.018245876 -0.11496839 4288840546
-0.30355275 0.020110512 -0.11520373 4287400543
-0.30339688 0.021975443 -0.11543908 4285563227
-0.30324093 0.023840645 -0.1156745 4284445527
-0.30274075 0.02569646 -0.11519849 4284116820
-0.30224222 0.027546151 -0.11472411 4284771410
-0.30208677 0.029405765 -0.11495881 4286084691
-0.30159017 0.031246487 -0.11448571 4287399254
-0.30143496 0.033103447 -0.11472007 4287725909
-0.3016203 0.03498625 -0.1156631 4286347091
-0.30112442 0.03681821 -0.11518891 4285627733
-0.30063027 0.038644154 -0.11471643 4285762398
-0.30047521 0.040499058 -0.11495055 4285830243
-0.30065849 0.042392418 -0.1158924 4285699171
-0.30016506 0.044209626 -0.11541883 4285698658
-0.30034775 0.046109911 -0.11636158 4285626458
-0.30019233 0.047969066 -0.11659621 4285361488
-0.30003688 0.049828503 -0.1168309 4290679379
-0.30089954 0.051851675 -0.11920965 4288312406
-0.30108467 0.053779397 -0.12016565 4287001432
-0.30161399 0.055775791 -0.1218504 4289037654
-0.30284181 0.057917926 -0.12501641 4289833065
-0.30444086 0.060160939 -0.12897635 4291403638
-0.3120065 0.063683122 -0.14559783 4292649339
-0.31216756 -0.0015073799 -0.13086273 4285364832
-0.30977854 0.00064101291 -0.12654032 4284445786
-0.30888686 0.0026216055 -0.12528084 4284381019
-0.30800146 0.004588515 -0.12403025 4284708701
-0.30676425 0.0065656425 -0.12205128 4285232732
-0.30589396 0.0085021164 -0.120823 4285494876
-0.30397958 0.010475594 -0.1174349 4285625948
-0.30452123 0.012322099 -0.11911537 4285364061
-0.30436394 0.014202275 -0.11935277 4285232987
-0.30420667 0.016082741 -0.11959018 4285232471
-0.30404931 0.017963486 -0.11982765 4285362006
-0.3035433 0.019844936 -0.11934026 4284902741
-0.30338621 0.021722961 -0.11957737 4284246867
-0.30288216 0.023595173 -0.11909135 4283984466
-0.30237988 0.025461165 -0.11860708 4283918672
-0.30187926 0.027321022 -0.11812446 4283918673
-0.30172288 0.029190421 -0.11836049 4284180825
-0.30122423 0.031041179 -0.11787921 4284770653
-0.30141008 0.032930043 -0.11883265 4285229404
-0.30159658 0.034825731 -0.11978941 4284705890
-0.30109718 0.036670774 -0.11930493 4284706659
-0.30094069 0.038541563 -0.11954114 4285362017
-0.30112633 0.040447783 -0.12049924 4284706655
-0.30131251 0.042360883 -0.12146065 4284378206
-0.30081269 0.044197191 -0.12097263 4284509530
-0.30065584 0.046072297 -0.12120938 4284443993
-0.30084115 0.047996003 -0.12217212 4284576601
-0.30068401 0.049874932 -0.12240934 4289045091
-0.30225295 0.052030955 -0.12631884 4290423659
-0.30209437 0.053926874 -0.12655821 4290686059
-0.30368957 0.056138217 -0.13053878 4291536231
-0.30749574 0.058802575 -0.13925256 4291667053
-0.30918625 0.061122976 -0.14346401 4292452469
-0.31518126 0.064378537 -0.15690638 4293238642
-0.31741565 0.066932462 -0.1623188 4291795569
-0.31034687 -0.0017448114 -0.13140592 4285496417
-0.30944511 0.00026184498 -0.13011792 4284181844
-0.30854973 0.0022545406 -0.12883912 4283854164
-0.30802411 0.0042052199 -0.12832429 4283854166
-0.30713847 0.0061739259 -0.1270587 4283920215
-0.30770278 0.0080440734 -0.12880918 4283920471
-0.30717951 0.0099818697 -0.12829544 4284050776
-0.30665809 0.011913097 -0.1277836 4284050519
-0.30613849 0.013837756 -0.12727359 4283919445
-0.30526403 0.01576357 -0.12601851 4283788115
-0.30439574 0.017676122 -0.12477232 4283721811
-0.30388454 0.01957467 -0.12427215 4283787602
-0.30337515 0.021466896 -0.12377378 4283787601
-0.30286747 0.023352776 -0.12327714 4283787601
-0.30236158 0.025232345 -0.12278227 4283853393
-0.30185744 0.027105691 -0.1222892 4283853655
-0.30204591 0.02900376 -0.12325861 4286215274
-0.30119765 0.030852353 -0.12203524 4289955957
-0.30138466 0.032754179 -0.12300267 4291271543
-0.30157223 0.034662951 -0.12397341 4291010689
-0.30141428 0.036549896 -0.12421175 4290223237
-0.30125633 0.038437102 -0.12445013 4289566083
-0.30213886 0.04043097 -0.12690645 4290486911
-0.30163226 0.042289779 -0.12640385 4290748026
-0.30147368 0.044184443 -0.12664318 4290680176
-0.30166227 0.046124924 -0.12762564 4290154348
-0.30185154 0.048072468 -0.12861162 4290023019
-0.30204141 0.050027158 -0.12960111 4291404146
-0.30400082 0.052272361 -0.13439557 4291732852
-0.30312884 0.054077957 -0.13310938 4291601522
-0.3036783 0.056125388 -0.13488224 4292582502
-0.30714202 0.058738925 -0.142948 4293238369
-0.3088384 0.061071604 -0.14721635 4293632098
-0.31485662 0.064344138 -0.1608475 4293960806
-0.31791687 0.067091174 -0.16810606 4292123502
-0.30947837 -0.0001577717 -0.13450979 4284574290
-0.3089453 0.0018181357 -0.13397937 4283788113
-0.30841416 0.0037872251 -0.13345087 4283590994
-0.30825195 0.0057238741 -0.13369559 4283787601
-0.30882725 0.007616106 -0.13549209 4283918674
-0.30866441 0.0095602851 -0.13573775 4283787608
-0.30739897 0.011550792 -0.13365737 4283852629
-0.30687237 0.013496907 -0.1331315 4283787090
-0.30634758 0.015436349 -0.13260752 4283721810
-0.30546451 0.017373998 -0.13132255 4283787090
-0.30423158 0.019299608 -0.12929142 4283852882
-0.30371693 0.02120913 -0.12877986 4283852882
-0.30285236 0.023106894 -0.12752201 4283852881
-0.3023428 0.025000257 -0.12701635 4283787345
-0.30183503 0.026887285 -0.12651248 4284050004
-0.30167621 0.028783178 -0.12675205 4286478436
-0.30117044 0.030660832 -0.12624964 4290088312
-0.30135858 0.032575827 -0.12723127 4291269501
-0.30154732 0.034497794 -0.12821646 4290808186
-0.30138814 0.036398139 -0.12845658 4289756783
-0.30157727 0.038330786 -0.12944567 4289959034
-0.30176699 0.040270522 -0.13043828 4291403904
-0.30266145 0.042295713 -0.13295266 4292125053
-0.30179727 0.044128887 -0.13167599 4292255351
-0.30269343 0.046178773 -0.13420144 4291664244
-0.30324233 0.048200727 -0.13598137 4291073136
-0.30308071 0.050130107 -0.13622516 4292515430
-0.30399171 0.052231386 -0.13879773 4293239396
-0.30382919 0.054171711 -0.13904291 4293174885
-0.30402616 0.05617689 -0.1400708 4293699425
-0.30678415 0.058674522 -0.14668404 4294225504
-0.30848646 0.061019611 -0.15101026 4294422880
-0.31777525 0.06498839 -0.17193204 4294424168
-0.31967968 0.067527093 -0.17674613 4292452976
-0.30988657 -0.00062103051 -0.13975763 4284640342
-0.30897477 0.0014075992 -0.13842337 4283787602
-0.30881101 0.0033616207 -0.13867038 4283722323
-0.30901965 0.0052891849 -0.13970797 4284247637
-0.30848336 0.0072705485 -0.13916452 4288116057
-0.30869138 0.0092057604 -0.14020307 4287266657
-0.30741659 0.011212691 -0.13808364 4285623127
-0.30688599 0.013173569 -0.13754612 4285228894
-0.30599299 0.015136553 -0.136232 4286346346
-0.30510631 0.017085804 -0.13492733 4285953899
-0.30422592 0.019021479 -0.13363196 4285295716
-0.30335176 0.02094369 -0.13234575 4284834139
-0.30248377 0.022852628 -0.13106878 4284178016
-0.30162182 0.024748357 -0.12980075 4283850084
-0.30146211 0.026654156 -0.13004164 4283849311
-0.30130234 0.028560216 -0.1302826 4284833374
-0.30079445 0.030448347 -0.12977144 4286408034
-0.30098277 0.032373194 -0.1307646 4287328103
-0.30117175 0.034305166 -0.13176131 4288116332
-0.30101162 0.036215711 -0.13200283 4288575076
-0.30050322 0.038094781 -0.13148788 4287789154
-0.30104047 0.040072933 -0.1332456 4288050787
-0.30193412 0.042104419 -0.13578394 4288640608
-0.30177274 0.044029675 -0.13602732 4289100384
-0.30303216 0.046140358 -0.13937432 4291002721
-0.30430973 0.048281759 -0.14276956 4292255845
-0.30450892 0.050290052 -0.14381161 4293502045
-0.30470884 0.052305914 -0.14485745 4294225245
-0.30345726 0.054082993 -0.14271751 4294489952
-0.30365452 0.056099012 -0.14375776 4294688101
-0.30605096 0.058539063 -0.14964391 4294426986
-0.31356794 0.062051024 -0.16683918 4294361452
-0.31704319 0.064870052 -0.17515486 4294428017
-0.31811097 0.067234144 -0.17816852 4292585844
-0.3090044 0.00099102617 -0.1429324 4283787860
-0.30883932 0.0029594405 -0.14318134 4284246103
-0.30830035 0.004955708 -0.14262867 4288844389
-0.30813551 0.00692114 -0.14287722 4289893996
-0.30834392 0.008866447 -0.14392833 4286870369
-0.30706391 0.010886314 -0.14177725 4287982690
-0.30653098 0.012858545 -0.14123029 4289893250
-0.30563429 0.014833456 -0.13989595 4290948248
-0.30474398 0.016794452 -0.13857116 4290553756
-0.3038601 0.018741716 -0.13725592 4289436561
-0.30298239 0.02067535 -0.13595004 4288908927
-0.30175802 0.022591114 -0.1338874 4289172613
-0.30089551 0.02449465 -0.13260511 4289174669
-0.30038643 0.02639618 -0.13208807 4289172099
-0.3002263 0.028305754 -0.13232954 4289102202
-0.29971927 0.030197773 -0.13181397 4289165937
-0.29955935 0.032104563 -0.13205512 4288511080
