# .PCD v0.7 - Point Cloud Data file format
VERSION 0.7
FIELDS x y z rgba
SIZE 4 4 4 4
TYPE F F F U
COUNT 1 1 1 1
WIDTH 997
HEIGHT 1
VIEWPOINT 0 0 0 1 0 0 0
POINTS 997
DATA ascii
-0.30433634 0.01062159 -0.012756504 4285429853
-0.30469278 0.012319941 -0.012950893 4283986778
-0.3041597 0.01359789 -0.011841286 4283593304
-0.30481234 0.015442601 -0.01246849 4283527764
-0.30606884 0.017593957 -0.013976454 4283658831
-0.30764505 0.019923219 -0.015947305 4283724366
-0.30862626 0.021973254 -0.017045477 4283855694
-0.31086779 0.024686309 -0.019976772 4284051019
-0.31156087 0.026622999 -0.020647669 4283657289
-0.31162259 0.028234741 -0.020398689 4283264073
-0.31105235 0.029507173 -0.019232037 4283197769
-0.31111389 0.031114595 -0.018983712 4283066697
-0.31054688 0.032375187 -0.01782465 4283132490
-0.30998319 0.033628535 -0.016672356 4283395146
-0.30973318 0.035050727 -0.015975455 4284251475
-0.30948392 0.036468938 -0.015280552 4286814310
-0.30985546 0.038243987 -0.015482152 4289308794
-0.30991659 0.039840955 -0.015235449 4290161531
-0.31060183 0.041810542 -0.015887009 4289902466
-0.31192288 0.044173606 -0.017450675 4288851573
-0.31230193 0.045979571 -0.01765744 4285824613
-0.31268215 0.047791209 -0.017864816 4285430636
-0.31274408 0.049408447 -0.017614974 4286745197
-0.31312552 0.051228389 -0.017822508 4287536760
-0.31350815 0.053053983 -0.018030608 4287211647
-0.31389192 0.054885335 -0.01823931 4287274619
-0.31427684 0.056722414 -0.018448632 4288386938
-0.31433919 0.05835057 -0.018197108 4287661926
-0.31472537 0.060196064 -0.018406549 4285890161
-0.38539296 0.019044001 -0.14210236 4286479200
-0.38547671 0.021235261 -0.14176399 4285822297
-0.38614407 0.023646491 -0.14230144 4284312146
-0.38622805 0.025842844 -0.14196225 4283526226
-0.30956152 -0.0020045491 -0.026673021 4283329874
-0.30899632 -0.00064455782 -0.025486706 4283329363
-0.30843446 0.00070758071 -0.024307378 4283264084
-0.30818537 0.0021800676 -0.0235969 4283133537
-0.307937 0.0036484338 -0.022888469 4288257926
-0.30768937 0.0051126769 -0.022182092 4291873702
-0.30682951 0.0063052317 -0.020565649 4292854934
-0.30628067 0.0076222876 -0.019414445 4292918410
-0.30543327 0.0087956246 -0.017821867 4292719487
-0.30429491 0.0098219709 -0.015800636 4291930746
-0.30376059 0.011112406 -0.014678099 4289831809
-0.30382037 0.012675809 -0.014436658 4288190330
-0.30388016 0.014239448 -0.014195181 4287400044
-0.30393994 0.015803326 -0.01395367 4287005026
-0.30489346 0.017811242 -0.015030496 4286019671
-0.30615774 0.019989397 -0.016562289 4284772950
-0.30682573 0.021880785 -0.017212499 4283723093
-0.30904186 0.024585018 -0.020136898 4283394895
-0.3094148 0.026351228 -0.020347213 4283197774
-0.30947614 0.027955959 -0.020099405 4283132491
-0.30922565 0.029392086 -0.019394532 4283132234
-0.30928692 0.030994907 -0.019147001 4283132233
-0.30872688 0.032252278 -0.017990908 4283263817
-0.30817014 0.033502486 -0.016841587 4283197770
-0.30792344 0.034920808 -0.016146539 4283460427
-0.30767751 0.036335237 -0.015453527 4284377163
-0.30804518 0.038105018 -0.015654799 4285098578
-0.30841395 0.039880246 -0.015856672 4285299557
-0.30909368 0.041847188 -0.016509149 4285698681
-0.3104037 0.044207118 -0.018074244 4286026096
-0.31046522 0.045816824 -0.017825669 4284774492
-0.31084153 0.047622986 -0.018032718 4284776538
-0.31090316 0.049235571 -0.017783679 4285173858
-0.31096482 0.050848402 -0.017534619 4284908139
-0.31134242 0.05266545 -0.017741412 4284646014
-0.31172118 0.054488186 -0.017948814 4284716942
-0.31210104 0.056316588 -0.018156789 4285502340
-0.31248206 0.058150709 -0.018365342 4286813035
-0.31286421 0.059990551 -0.018574502 4285890415
-0.38366741 0.017152764 -0.14391346 4287135846
-0.38375106 0.019343907 -0.14357521 4286150234
-0.38441476 0.021751177 -0.14411649 4285165654
-0.38449863 0.023947449 -0.14377743 4283984464
-0.38458246 0.026144022 -0.14343832 4283460433
-0.30804351 -0.0019068248 -0.027283264 4283395153
-0.3077938 -0.0004241743 -0.026565323 4283525971
-0.3075448 0.0010542987 -0.025849426 4283460948
-0.30698803 0.0023998106 -0.024670826 4283265126
-0.30704907 0.003998782 -0.024423983 4288586124
-0.3068023 0.0054648598 -0.023714337 4292460696
-0.30625018 0.0067921053 -0.022547124 4293441419
-0.30570135 0.0081117712 -0.021386709 4293572229
-0.30515575 0.0094239293 -0.0202331 4293507202
-0.30401397 0.010451257 -0.01818902 4293310086
-0.303478 0.011745648 -0.017054707 4293049486
-0.30324116 0.013174173 -0.016368927 4292851079
-0.30300498 0.014598823 -0.01568513 4292716920
-0.30306479 0.016165104 -0.015443329 4292387438
-0.30401579 0.018177696 -0.016528288 4290877803
-0.30497518 0.02020818 -0.017622758 4288845944
-0.30533713 0.0219444 -0.017826743 4287074170
-0.30722651 0.024484355 -0.020296235 4286283878
-0.30759555 0.026245361 -0.02050625 4285954142
-0.30765665 0.027845504 -0.020259218 4285232214
-0.30740947 0.029277701 -0.019556241 4284378959
-0.3074705 0.030875945 -0.019309502 4283394638
-0.30722398 0.032302056 -0.018608904 4283264332
-0.30697823 0.033724148 -0.017910309 4283066955
-0.30642822 0.034966767 -0.016764656 4283198025
-0.3064889 0.036556564 -0.016519215 4283263560
-0.30685475 0.038326826 -0.016722111 4283329353
-0.30691555 0.039919443 -0.016476251 4283329354
-0.30758977 0.041883778 -0.017129669 4283460681
-0.30857795 0.044049978 -0.018240888 4283853642
-0.30863923 0.045655094 -0.017993083 4283657036
-0.3087005 0.047260456 -0.017745243 4283592018
-0.30876178 0.048866034 -0.017497391 4283990881
-0.30882308 0.05047185 -0.017249482 4285434472
-0.30919576 0.052280422 -0.017454991 4287070050
-0.30988282 0.05430074 -0.018116901 4287400805
-0.31025875 0.056123566 -0.018324548 4286484841
-0.31032044 0.057739902 -0.018075008 4285101926
-0.311014 0.059786316 -0.018741632 4285431919
-0.38063011 0.010494499 -0.14463949 4289108848
-0.38071328 0.012676028 -0.14430282 4287861614
-0.38079643 0.01485789 -0.14396609 4287204726
-0.38087961 0.017040081 -0.14362933 4286478942
-0.38096282 0.019222604 -0.1432925 4285822297
-0.38161808 0.021620076 -0.14383109 4284574805
-0.38170147 0.023807658 -0.14349349 4283787858
-0.38178486 0.025995541 -0.14315584 4283460689
-0.30714926 -0.0015627408 -0.028836759 4283395155
-0.30659106 -0.00020373879 -0.027644118 4283460691
-0.30665225 0.0014020684 -0.027396305 4283592275
-0.30640489 0.0028782133 -0.026679203 4283396459
-0.30646604 0.0044821189 -0.026431665 4288458145
-0.30652717 0.0060862717 -0.02618411 4292003756
-0.30597335 0.0074177352 -0.025004454 4292918162
-0.30572814 0.0088793719 -0.024293944 4293376898
-0.30517912 0.010197163 -0.023124993 4293441921
-0.30403045 0.011226142 -0.021052038 4293372026
-0.30379057 0.01266792 -0.02035448 4293633393
-0.30355147 0.014105736 -0.01965896 4293896302
-0.30331302 0.01553956 -0.018965427 4293895787
-0.30307528 0.016969439 -0.018273832 4293633643
-0.30313537 0.018545268 -0.018030643 4292980604
-0.3040922 0.02058048 -0.019133344 4292526736
-0.30445331 0.022319973 -0.019339949 4292001681
-0.30603135 0.024705747 -0.021367967 4291602817
-0.30609223 0.026303448 -0.021121394 4291467378
-0.30615315 0.027901413 -0.020874783 4290613866
-0.3059085 0.029331563 -0.020172006 4288450401
-0.30627498 0.031097999 -0.020381456 4286021222
-0.30572531 0.032351695 -0.019225249 4284839520
-0.30548203 0.033771802 -0.018526843 4284248151
-0.3052395 0.035188001 -0.017830489 4284116557
-0.30530012 0.036777951 -0.017585106 4283657037
-0.30566412 0.038548723 -0.01778963 4283460942
-0.30572483 0.040141501 -0.017543813 4283198287
-0.30639547 0.042106617 -0.01820044 4283198028
-0.30707005 0.044083606 -0.018860919 4283394890
-0.30713114 0.045686532 -0.018613541 4283395402
-0.30688477 0.047095101 -0.017912641 4283461194
-0.3069458 0.048696119 -0.017665561 4283657805
-0.30700684 0.050297353 -0.017418444 4284181841
-0.30737564 0.052100483 -0.017623685 4284836948
-0.30805516 0.054114424 -0.018284174 4285034325
-0.30842718 0.055931728 -0.018491514 4284772950
-0.30880031 0.05775471 -0.018699463 4284248922
-0.30948821 0.059798259 -0.019366985 4285432429
-0.3789117 0.0086109638 -0.14644313 4289568633
-0.37899473 0.010792413 -0.14610659 4288715627
-0.37907773 0.012974197 -0.14577 4287532392
-0.37916079 0.015156276 -0.14543335 4286545765
-0.37924388 0.017338686 -0.14509666 4286150747
-0.37932697 0.019521393 -0.14475989 4286020190
-0.37997881 0.021919692 -0.14530155 4286742887
-0.30800349 -0.0037190337 -0.033784352 4285495906
-0.3074367 -0.0023395545 -0.032564368 4283985760
-0.30656224 -0.0010930463 -0.030872669 4283526236
-0.30600408 0.00026877297 -0.029670449 4283526229
-0.30606538 0.0018795331 -0.029421953 4283657812
-0.30612671 0.0034905628 -0.029173404 4283462256
-0.30618805 0.0051017869 -0.028924821 4288000430
-0.30624938 0.0067132809 -0.028676204 4291547072
-0.30600181 0.0081867799 -0.027955011 4292787602
-0.30575502 0.0096561452 -0.027235966 4293442941
-0.30520257 0.010979633 -0.026051398 4293574526
-0.30434972 0.012152655 -0.024410728 4293569391
-0.30410755 0.013603873 -0.023703156 4293761375
-0.30386609 0.015051041 -0.022997594 4294025057
-0.30332497 0.016346006 -0.021837555 4293960805
-0.30278698 0.017633609 -0.020684198 4293434988
-0.30254924 0.019065019 -0.019988151 4293307003
-0.30320641 0.020953931 -0.020648601 4293573761
-0.30326676 0.022539616 -0.020403963 4292656259
-0.30453241 0.024765912 -0.021981088 4291471242
-0.30459315 0.026361434 -0.021734936 4291665278
-0.3049576 0.028123165 -0.021946827 4291862653
-0.30471462 0.029553171 -0.021242527 4291671166
-0.30477536 0.0311494 -0.020996269 4291341951
-0.30453303 0.03257329 -0.020294296 4290549880
-0.30429143 0.033993233 -0.019594379 4290217829
-0.30405053 0.035409264 -0.018896522 4289036635
-0.30411109 0.036999397 -0.018651189 4286807908
-0.30417162 0.038589753 -0.018405827 4284839014
-0.30423215 0.040180348 -0.018160446 4283723362
-0.30489728 0.042142857 -0.018817935 4283395159
-0.30556637 0.04411719 -0.019479308 4283394637
-0.30532259 0.045525953 -0.018778283 4283264075
-0.30538341 0.047124527 -0.018531658 4283198537
-0.30544427 0.04872334 -0.018285001 4283329353
-0.30550516 0.050322372 -0.018038291 4283394637
-0.3058711 0.052123051 -0.018244179 4283460175
-0.30654511 0.054134224 -0.018905615 4283657550
-0.30722311 0.0561576 -0.019570891 4283723090
-0.30759439 0.057981052 -0.019780498 4283854678
-0.30796671 0.059810199 -0.019990671 4285825898
-0.37727609 0.008908744 -0.14791043 4289239919
-0.377359 0.011090412 -0.14757395 4288518760
-0.37744194 0.013272379 -0.14723743 4287269219
-0.37752488 0.015454676 -0.14690088 4286348124
-0.37760785 0.017637305 -0.14656425 4285888605
-0.37769082 0.019820267 -0.14622757 4287990894
-0.30798301 -0.0046417168 -0.037094131 4290161803
-0.30678421 -0.0034960182 -0.034878023 4289375371
-0.30684608 -0.0018687814 -0.034627054 4287470216
-0.30597153 -0.0006204854 -0.032921046 4287073144
-0.30572277 0.00087182887 -0.032189403 4286611814
-0.30578429 0.0024899957 -0.031939831 4285167457
-0.30553618 0.0039759073 -0.031210687 4283856759
-0.30590731 0.0057270937 -0.031440586 4287802538
-0.30565906 0.0072086011 -0.030712118 4291282618
-0.30572051 0.0088253273 -0.030462781 4292786829
-0.30578196 0.010442276 -0.03021341 4293375866
-0.3055343 0.01191524 -0.029487761 4293573758
-0.30467352 0.013093001 -0.027819613 4293637494
-0.30412427 0.014406913 -0.026633291 4293697896
-0.30388129 0.015861642 -0.025919311 4293829478
-0.3033368 0.017162006 -0.024743779 4293898604
-0.30279553 0.018454963 -0.023575157 4293700206
-0.30285603 0.020047365 -0.023329578 4293634420
-0.30291656 0.021639993 -0.023083951 4293703805
-0.30297711 0.023232853 -0.022838289 4293181582
-0.30364034 0.025148669 -0.023512032 4292717702
-0.30339921 0.026582733 -0.02280554 4291795841
-0.30345988 0.02817866 -0.022559408 4290877065
-0.30321935 0.029606633 -0.02185528 4290486405
-0.30358121 0.031371195 -0.022067027 4290813807
-0.30304009 0.03262255 -0.02090767 4290880630
-0.30310062 0.034214702 -0.020662108 4291008116
-0.30286139 0.035630565 -0.019962743 4290743925
-0.30292183 0.037220854 -0.019717472 4291147147
-0.3029823 0.038811397 -0.019472163 4290356876
-0.30304274 0.040402148 -0.01922683 4289760383
-0.30340329 0.042179022 -0.0194338 4289890928
-0.30406693 0.044150718 -0.02009609 4288841573
-0.30412766 0.045749214 -0.019849561 4286413403
-0.30388626 0.047153886 -0.019149026 4284444503
-0.30394697 0.048750505 -0.018902771 4283591764
-0.30400765 0.050347365 -0.0186565 4283394898
-0.30467409 0.052347284 -0.019317264 4283329359
-0.30503926 0.054154009 -0.019525394 4283329614
-0.30571172 0.056174602 -0.020191593 4283460945
-0.3063882 0.058207456 -0.020861741 4283789141
-0.30675867 0.060037103 -0.021073572 4286548329
-0.37564021 0.0092065362 -0.14937797 4288846699
-0.37572303 0.011388423 -0.14904158 4288256358
-0.37580585 0.013570642 -0.14870514 4287005535
-0.37588868 0.015753159 -0.14836864 4286216795
-0.37597153 0.017936008 -0.1480321 4286020966
-0.37605438 0.020119186 -0.1476955 4289899657
-0.3083443 -0.0038058639 -0.040693305 4292136358
-0.30681834 -0.0027804428 -0.037942205 4291875498
-0.30688047 -0.0011431646 -0.037689775 4291282600
-0.30600044 0.00010953939 -0.03595959 4291542428
-0.30575004 0.001609934 -0.035219081 4290949516
-0.30581185 0.0032380482 -0.034968048 4288848775
-0.30556214 0.0047319205 -0.034229994 4286946449
-0.30562383 0.0063580591 -0.033979286 4288852392
-0.3053748 0.0078454893 -0.033243768 4291413171
-0.30574727 0.0096110469 -0.033477768 4292722835
-0.30549809 0.011094049 -0.032742918 4293179265
-0.30524966 0.012572862 -0.032010302 4293243523
-0.30500197 0.014047475 -0.03127978 4293373819
-0.30444753 0.01536852 -0.030074321 4293437552
-0.30420217 0.016832819 -0.02934991 4293437036
-0.30365258 0.018140147 -0.028155526 4293571183
-0.30310628 0.019439945 -0.026968163 4293701229
-0.30286476 0.020888079 -0.026253622 4293303912
-0.30292559 0.022490317 -0.026006579 4293109362
-0.30298641 0.024092771 -0.025759526 4293441154
-0.30304724 0.025695467 -0.025512429 4293900916
-0.30280617 0.027133144 -0.024800947 4293503334
-0.30316889 0.02890159 -0.025018122 4292911215
-0.30322975 0.030504987 -0.024770927 4292192896
-0.30238682 0.031593032 -0.023138003 4291922535
-0.30214784 0.033016592 -0.022432996 4291336571
-0.30220833 0.03461127 -0.022187151 4290682254
-0.30197001 0.036028776 -0.021484513 4290156171
-0.30203044 0.037621569 -0.021238942 4290748539
-0.30209091 0.039214581 -0.020993339 4290811501
-0.30215135 0.040807832 -0.020747701 4290609764
-0.3025111 0.042588096 -0.020957299 4290347372
-0.30287188 0.044373859 -0.021167502 4290943868
-0.30263224 0.045780495 -0.020465115 4290616184
-0.30269283 0.047377039 -0.020218959 4289695601
-0.30305392 0.049170565 -0.02042797 4289170541
-0.30311462 0.05076991 -0.020181382 4288644451
-0.30347684 0.052571572 -0.020390553 4287725147
-0.30414361 0.054584421 -0.02105845 4286150744
-0.30481431 0.056609455 -0.021730248 4284576348
-0.30548903 0.058646809 -0.022406025 4284052839
-0.30585864 0.060479987 -0.022620568 4287533685
-0.37392136 0.0073226062 -0.15118207 4289568115
-0.37400404 0.0095044142 -0.1508458 4288584554
-0.37408674 0.011686522 -0.15050949 4287664742
-0.37416944 0.013868956 -0.15017311 4286545502
-0.37481046 0.016255481 -0.15072612 4285954910
-0.37489334 0.018442979 -0.15038899 4287662963
-0.37497625 0.020630807 -0.15005177 4291086241
-0.30838838 -0.0030824146 -0.043835852 4292662957
-0.30685264 -0.0020560997 -0.041043978 4292331172
-0.30628228 -0.00066437869 -0.039787278 4292131492
-0.30571535 0.00071911293 -0.038538139 4292726957
-0.30546418 0.0022255732 -0.037790339 4292727722
-0.30552614 0.0038612343 -0.037538249 4291875243
-0.30527565 0.0053611374 -0.036793031 4290824621
-0.30533758 0.0069948123 -0.036541231 4291216300
-0.30508775 0.0084881876 -0.035798576 4292200108
-0.30546141 0.010262892 -0.036037542 4292724126
-0.30521142 0.0117518 -0.035295576 4292787605
-0.30527326 0.013383973 -0.035044007 4292916620
-0.305024 0.014866436 -0.034304619 4293308537
-0.30477545 0.016344637 -0.033567362 4293241459
-0.30421913 0.017665148 -0.032349642 4293044085
-0.30366611 0.018977985 -0.031139139 4293111669
-0.30311644 0.020283215 -0.029935861 4293178488
-0.3031776 0.02189732 -0.029687094 4292911983
-0.30293444 0.023350826 -0.028964223 4293043047
-0.30299553 0.024962993 -0.028715754 4293307250
-0.30275303 0.026410241 -0.027995387 4293508990
-0.30281407 0.028020501 -0.027747195 4293636974
-0.30317888 0.029800957 -0.027970096 4293635953
-0.30324 0.031414077 -0.027721485 4293441152
-0.30360603 0.03320273 -0.027944641 4293365598
-0.301851 0.033760458 -0.02488789 4293174128
-0.30221227 0.035539802 -0.025105119 4292580707
-0.30197242 0.036964506 -0.024394067 4292782960
-0.30203316 0.038566884 -0.024147104 4292652666
-0.30179393 0.039985448 -0.023438444 4292123506
-0.30155545 0.041400105 -0.022731839 4290874747
-0.30161601 0.042998463 -0.0224855 4289956230
-0.30197591 0.044787616 -0.022698313 4290485125
-0.30173719 0.046195861 -0.021992702 4290814587
-0.30179781 0.047794916 -0.021746239 4290551670
-0.3018584 0.049394213 -0.02149976 4290420600
-0.30221871 0.051193755 -0.021710955 4290222454
-0.30258009 0.052998878 -0.021922767 4289828208
-0.30324507 0.05501613 -0.022596238 4289172083
-0.30452561 0.057467904 -0.024204765 4288189051
-0.3055115 0.05973294 -0.025361098 4288325269
-0.36900601 0.0065158783 -0.14735465 4289305197
-0.36908755 0.0086717196 -0.1470225 4288519016
-0.36862996 0.010637747 -0.14582135 4287137635
-0.36871138 0.012789906 -0.14548975 4286217054
-0.36772022 0.014547297 -0.14343329 4285824615
-0.3656809 0.01589383 -0.1396967 4289637001
-0.36576143 0.018021459 -0.13936889 4292072106
-0.37175909 0.022468371 -0.14852583 4292269226
-0.3718414 0.024643844 -0.14819066 4292063893
-0.30568016 -0.00018263953 -0.04189777 4292194200
-0.3057425 0.0014652221 -0.04164388 4292200874
-0.30548969 0.0029798811 -0.04088689 4292661937
-0.30555198 0.0046257023 -0.040633302 4291938474
-0.30529985 0.0061337142 -0.03987892 4291083942
-0.30536205 0.0077775307 -0.039625645 4291806377
-0.30511057 0.0092789559 -0.038873833 4292594090
-0.30517271 0.010920722 -0.038620874 4292791464
-0.30523482 0.012562733 -0.038367882 4292398759
-0.304984 0.014055351 -0.037619047 4292395414
-0.3047339 0.015543685 -0.036872402 4292982654
-0.30417424 0.016874496 -0.035637397 4293310330
-0.30361795 0.018197551 -0.034409828 4293111160
-0.30337182 0.019669181 -0.033673517 4292912755
-0.30282047 0.020978389 -0.032457277 4292650615
-0.30257666 0.022439715 -0.031727135 4292778091
-0.30263796 0.024059063 -0.03147763 4292974178
-0.30269924 0.025678635 -0.031228103 4292914799
-0.30276054 0.027298447 -0.030978525 4293443447
-0.30282184 0.028918508 -0.03072891 4293769322
-0.30288315 0.030538816 -0.030479275 4293699695
-0.30294448 0.032159366 -0.030229589 4293705856
-0.30331162 0.033957344 -0.030457564 4293500005
-0.30337304 0.035580792 -0.030207433 4293501817
-0.30343449 0.037204459 -0.029957268 4292907620
-0.30227709 0.038093682 -0.027809324 4292979838
-0.30233818 0.03970819 -0.027560573 4292852623
-0.30209666 0.041135788 -0.026841652 4292451177
-0.30185586 0.042559393 -0.026124779 4291591001
-0.30161577 0.043978997 -0.025410043 4290934873
-0.30137643 0.045394648 -0.024697371 4291334758
-0.3011378 0.046806339 -0.023986755 4291601268
-0.30119848 0.048410289 -0.023739642 4291403898
-0.30125919 0.050014473 -0.023492478 4291074942
-0.30161959 0.051820438 -0.02370733 4290419335
-0.3022826 0.053837124 -0.024387183 4289896076
-0.30325395 0.056075428 -0.025539307 4289765517
-0.30423406 0.058334142 -0.026701719 4290226842
-0.30522302 0.060613479 -0.027874624 4291547584
-0.36412638 0.0035981615 -0.14394635 4289698938
-0.36368385 0.0055505293 -0.14276566 4288912235
-0.3637642 0.0076768156 -0.14243816 4288058726
-0.36332327 0.0096179349 -0.14126275 4286742366
-0.3634035 0.011740653 -0.14093579 4286085726
-0.31571206 -0.0038900808 -0.06306766 4287137905
-0.31404385 -0.0028084444 -0.059988216 4290824353
-0.31240213 -0.0017437228 -0.056957573 4292532398
-0.307827 -0.0018655079 -0.049186617 4291216036
-0.30660105 -0.00070975994 -0.046844777 4291145362
-0.30570716 0.00056239852 -0.045043435 4292197791
-0.30576983 0.0022205464 -0.044788036 4291674535
-0.30551529 0.0037434995 -0.044021621 4291872170
-0.30557787 0.0053995829 -0.04376654 4291212184
-0.30564049 0.0070558907 -0.043511424 4290816399
-0.30538657 0.0085698664 -0.042748019 4291872162
-0.30513346 0.010079434 -0.04198692 4292334253
-0.30551159 0.01187865 -0.042238407 4292531119
-0.3052583 0.013383652 -0.041477993 4292334255
-0.30500579 0.014884287 -0.040719848 4291935639
-0.30444098 0.016227158 -0.039463863 4292194684
-0.30387956 0.017562155 -0.038215451 4292654458
-0.30332154 0.018889284 -0.036974538 4293113209
-0.30307466 0.020366697 -0.036231063 4293176690
-0.30252162 0.021679869 -0.035001699 4292912756
-0.30227709 0.023146912 -0.034264471 4292912498
-0.30233854 0.024773732 -0.034013916 4292977774
-0.3020947 0.02623439 -0.033279255 4292779369
-0.30215609 0.02785925 -0.033028986 4293177458
-0.30221751 0.029484339 -0.032778684 4293507702
-0.30258453 0.03128339 -0.033011265 4293372276
-0.30264604 0.032911386 -0.03276052 4293045627
-0.30270755 0.034539632 -0.032509733 4293632868
-0.30276909 0.036168128 -0.032258913 4293174891
-0.30313757 0.037980925 -0.03249095 4293108080
-0.30289218 0.039425857 -0.031757142 4292976750
-0.30203795 0.04049157 -0.030068442 4292776803
-0.30179572 0.041924585 -0.029342597 4291986006
-0.30125239 0.043163106 -0.028146042 4291394390
-0.30101243 0.044586234 -0.027426219 4291198040
-0.30077314 0.046005338 -0.026708486 4291595869
-0.30083403 0.047616374 -0.026460348 4292126059
-0.30089492 0.049227625 -0.026212176 4292256623
-0.3012563 0.051040407 -0.026432136 4291727208
-0.3019211 0.053063735 -0.027123278 4290676336
-0.30258992 0.055099364 -0.027818499 4290220674
-0.30387789 0.057573907 -0.029473178 4290489500
-0.30455869 0.059642117 -0.030181747 4290954427
-0.30587044 0.062167313 -0.031865802 4291743167
-0.35944054 0.0028538727 -0.14029387 4289370737
-0.35850638 0.0046115206 -0.13830194 4288584809
-0.35808155 0.0065321238 -0.13715062 4287400290
-0.35816056 0.0086258817 -0.13682823 4286348125
-0.35723683 0.010351922 -0.13486114 4285757538
-0.31580594 -0.0031276296 -0.066529416 4289107577
-0.31378034 -0.002177418 -0.062836342 4291742372
-0.31213275 -0.0011124659 -0.059768528 4292597422
-0.30852246 -0.00085739332 -0.053501152 4291147683
-0.30728066 0.00030306552 -0.051110592 4291278488
-0.30573428 0.0013166806 -0.048228193 4292265129
-0.30579725 0.0029852232 -0.047971278 4292134054
-0.30522281 0.0043795533 -0.046677768 4291347871
-0.30560386 0.0061830622 -0.046938654 4291015311
-0.30534837 0.0077075954 -0.046165358 4291805076
-0.30541116 0.0093720071 -0.045909084 4292465064
-0.30515638 0.010889801 -0.045138519 4292660650
-0.30553678 0.012701537 -0.045396432 4292726958
-0.30528185 0.014214685 -0.044626564 4291807413
-0.3047117 0.015569841 -0.043349031 4290818463
-0.30445918 0.017072149 -0.042585757 4291405694
-0.30389422 0.018412871 -0.041320205 4292585066
-0.30333269 0.019745668 -0.040062398 4292978024
-0.30277461 0.021070622 -0.038812142 4293044591
-0.30221987 0.022387773 -0.0375694 4292911723
-0.30197456 0.023860563 -0.036825031 4292977005
-0.30173007 0.025329145 -0.036082909 4292980854
-0.30179164 0.026961276 -0.035831604 4292781420
-0.30185324 0.028593637 -0.03558027 4293045622
-0.30191484 0.03022624 -0.035328891 4292982921
-0.30197644 0.031859092 -0.035077482 4292978552
-0.30203807 0.033492185 -0.034826014 4292712291
-0.30209967 0.035125513 -0.034574535 4293633123
-0.30216131 0.036759079 -0.034323022 4293373549
-0.30252987 0.038578402 -0.034558885 4292649589
-0.30228463 0.040026959 -0.033819839 4292777057
-0.30204007 0.04147137 -0.033082943 4292511832
-0.30118829 0.042529885 -0.031385764 4291854421
-0.30094689 0.043962389 -0.030656852 4291001176
-0.30070624 0.045390841 -0.029930102 4290543200
-0.30076736 0.04701145 -0.029680574 4290807905
-0.30082852 0.048632279 -0.029431015 4291598180
-0.30149493 0.050657135 -0.030134395 4292387177
-0.30186039 0.052488577 -0.030362284 4292253545
-0.30283991 0.054744266 -0.031553801 4291202934
-0.3038283 0.057020713 -0.032756064 4291078036
-0.30545411 0.059757076 -0.03495435 4291281080
-0.307105 0.062535778 -0.037186462 4291218369
-0.34263581 -0.0020093678 -0.1163964 4288912492
-0.34137404 -0.00049042527 -0.11387166 4288125032
-0.34012601 0.0010122402 -0.11137439 4286873695
-0.33889157 0.0024988768 -0.10890419 4286085469
-0.33767048 0.0039697578 -0.10646059 4285363810
-0.32668835 0.0017267145 -0.087877974 4288386424
-0.32104594 0.0013701046 -0.078155957 4290229394
-0.31890783 0.0023044026 -0.074237347 4290954145
-0.30956399 0.00030397743 -0.058447007 4291676066
-0.30797282 0.0013350436 -0.055457111 4292399778
-0.30576146 0.0020803735 -0.051452722 4292531629
-0.30550364 0.0036225526 -0.050666612 4292596652
-0.30492738 0.0050215567 -0.04935883 4291609754
-0.30499035 0.0066933581 -0.049101505 4291276433
-0.30505335 0.0083654122 -0.048844144 4292134309
-0.30479786 0.0098917121 -0.048065554 4292399022
-0.30486077 0.011561668 -0.047808524 4292398512
-0.30492368 0.013231868 -0.047551427 4292202420
-0.30498663 0.014902326 -0.047294315 4291283131
-0.30441466 0.016261794 -0.046002705 4290230965
-0.30416137 0.017770138 -0.045231897 4290554007
-0.30359462 0.019115031 -0.043952476 4292059513
-0.30303136 0.020451985 -0.042680886 4292977256
-0.30247152 0.021781007 -0.041416992 4292979310
-0.30191508 0.023102188 -0.04016073 4292650610
-0.30136207 0.024415605 -0.038912069 4292911981
-0.30142382 0.026055073 -0.038659718 4293044332
-0.3014856 0.027694784 -0.038407333 4292780656
-0.30154738 0.029334756 -0.038154911 4292649329
-0.30160919 0.030974941 -0.037902437 4292853645
-0.30167097 0.032615382 -0.037649948 4292848507
-0.3020404 0.034436151 -0.037892174 4292580714
-0.3024109 0.036262665 -0.038135048 4293041254
-0.30247292 0.037908841 -0.03788168 4293042279
-0.30253494 0.039555233 -0.037628256 4292583790
-0.30228812 0.041011244 -0.036880121 4292185952
-0.30204201 0.042463101 -0.036134169 4291989342
-0.30210385 0.044105228 -0.035881411 4291990628
-0.30063841 0.044768918 -0.033190507 4291265884
-0.30069983 0.046399169 -0.032939583 4290673240
-0.30076125 0.048029687 -0.03268861 4291002975
-0.3011266 0.049862359 -0.032921169 4291595363
-0.30179888 0.051906407 -0.033640452 4291794030
-0.30247524 0.053963087 -0.034364078 4291798405
-0.30346641 0.056246299 -0.035584815 4291408289
-0.30509686 0.058989234 -0.037814993 4291412920
-0.30869684 0.063143224 -0.043156553 4291086271
-0.3401877 -0.0040162937 -0.11654568 4289305460
-0.33850759 -0.0026409475 -0.11329728 4288584554
-0.33642328 -0.0014349701 -0.10937735 4287336038
-0.33437616 -0.00025023994 -0.10552736 4286282846
-0.33319417 0.0012169017 -0.10313224 4285692253
-0.33161378 0.0025151963 -0.10007571 4285234016
-0.32148477 0.00052298052 -0.08275272 4286022505
-0.31859127 0.001187656 -0.077532902 4286484083
-0.31227228 0.00044173666 -0.066616751 4287274371
-0.31029016 0.0013539882 -0.062940583 4289176711
-0.30867797 0.0023867101 -0.059886627 4290491793
-0.30611286 0.0029904672 -0.055256065 4290822558
-0.30552921 0.0044044484 -0.053921778 4291609505
-0.30527046 0.0059506674 -0.053128157 4292329876
-0.30469212 0.0073493528 -0.051806629 4292658834
-0.30475533 0.0090293782 -0.051548127 4292464036
-0.30449903 0.010561951 -0.050761767 4292529830
-0.30424348 0.012089994 -0.049977776 4292201896
-0.30462524 0.013918008 -0.050245386 4291083433
-0.30436954 0.015441324 -0.049462106 4290295475
-0.30411467 0.016960207 -0.048681237 4290233282
-0.30354443 0.018315852 -0.047383405 4290164400
-0.3029778 0.019663405 -0.046093535 4290684562
-0.3024146 0.021002907 -0.044811498 4292059512
-0.30185485 0.022334477 -0.043537296 4292913517
-0.30129853 0.023658179 -0.042270813 4292914280
-0.3010526 0.025140574 -0.041513752 4292715890
-0.30080748 0.026618686 -0.040758908 4292780147
-0.30086935 0.02826355 -0.040505819 4293371234
-0.30123854 0.030082684 -0.040753305 4292975980
-0.30160886 0.031907581 -0.041001465 4292585085
-0.30198032 0.033738289 -0.041250348 4292845931
-0.30204251 0.035391662 -0.040995933 4293239660
-0.30272669 0.037417311 -0.041750349 4292973918
-0.30278909 0.039076231 -0.041495085 4292581470
-0.30316412 0.040927336 -0.041745726 4292648553
-0.30229139 0.042007595 -0.039977945 4292121703
-0.30235362 0.043662176 -0.039723355 4291596648
-0.30210587 0.045119271 -0.038968589 4292059252
-0.30247813 0.046972107 -0.03921406 4291990888
-0.30069315 0.047419753 -0.035985727 4291198555
-0.3013671 0.049465403 -0.036717743 4290806117
-0.30173656 0.051317111 -0.036958568 4290941559
-0.30210724 0.05317473 -0.037200116 4291077006
-0.3027896 0.055251155 -0.037940159 4291148204
-0.30378973 0.05755794 -0.039186765 4291216828
-0.30671918 0.061232861 -0.043515556 4290494394
-0.33653116 -0.0044791084 -0.11418609 4289173355
-0.33446822 -0.0032588772 -0.11026531 4288190057
-0.33285889 -0.0019130361 -0.10711984 4286677344
-0.33086133 -0.0007343677 -0.10332397 4286019674
-0.32970822 0.00072263234 -0.10096162 4285364574
-0.32776606 0.0018623954 -0.097272411 4285500265
-0.31790543 -8.1346705e-05 -0.080244698 4285632621
-0.31473222 0.00044508599 -0.074511267 4286090858
-0.31269044 0.0013735583 -0.070692219 4286418281
-0.31000766 0.0020055524 -0.065803722 4287072873
-0.30805653 0.002898938 -0.062152904 4287466095
-0.30646956 0.0039149718 -0.059119675 4287797374
-0.30620635 0.0054789479 -0.058309201 4288521354
-0.30561864 0.0068944199 -0.056956917 4289965965
-0.30503467 0.0083013149 -0.055613138 4291017621
-0.30509827 0.0099946763 -0.055352673 4291346338
-0.30451772 0.011387935 -0.054017987 4291740070
-0.30426049 0.012924425 -0.053224113 4290690721
-0.30432382 0.014610605 -0.052964758 4287666313
-0.30406728 0.016140129 -0.052173652 4287597969
-0.30381158 0.017665181 -0.051384967 4289901755
-0.3029235 0.018864984 -0.049548458 4290561217
-0.3023569 0.020215167 -0.048247959 4290230197
-0.30179381 0.02155727 -0.046955459 4290686110
-0.30123416 0.022891406 -0.045670796 4291603844
-0.30067796 0.02421762 -0.044393986 4292324471
-0.30043215 0.025703819 -0.04363139 4292648811
-0.30049419 0.027356161 -0.043377232 4292646498
-0.30055627 0.029008729 -0.04312304 4293306725
-0.3012358 0.031014005 -0.043884166 4292978543
-0.30160829 0.032851685 -0.044138707 4292781422
-0.30229419 0.034878522 -0.0449064 4292651635
-0.30235678 0.036544789 -0.044650093 4292385135
-0.30336243 0.038779899 -0.04593794 4292317537
-0.30310991 0.040261682 -0.045164417 4292581476
-0.30317271 0.04193382 -0.044907212 4292385637
-0.30260724 0.043212298 -0.043624502 4291728742
-0.30298361 0.045078989 -0.043879542 4291466091
-0.30399379 0.047358427 -0.045165628 4291665785
-0.30373999 0.048830479 -0.04439196 4291533432
-0.30411988 0.050715294 -0.044649273 4291137909
-0.30418295 0.052394081 -0.044391036 4290812807
-0.30235758 0.052798707 -0.04107048 4290687395
-0.3030459 0.054889869 -0.04182826 4290887860
-0.30342302 0.056776296 -0.042080261 4290691772
-0.30411783 0.05888994 -0.042844631 4289966769
-0.33294007 -0.0049335831 -0.11186919 4288779881
-0.33051485 -0.003863537 -0.10729832 4287401828
-0.3281408 -0.0028158457 -0.10282395 4286348379
-0.32621223 -0.0016455678 -0.099118613 4285953624
-0.32470745 -0.00034981189 -0.096143045 4285890659
-0.32322344 0.00092836225 -0.093208447 4286223981
-0.3172828 0.00044852612 -0.082696825 4286356333
-0.31446373 0.0011101341 -0.077512309 4287600238
-0.31171829 0.0017547518 -0.072463118 4288585073
-0.30972216 0.0026634724 -0.068694808 4289176176
-0.30809882 0.0036959776 -0.065565482 4289829996
-0.30683172 0.0048542391 -0.063045025 4289894251
-0.30623633 0.0062851156 -0.061664976 4288975723
-0.30531833 0.007561666 -0.059742372 4287727721
-0.30440897 0.0088264076 -0.057837896 4287136619
-0.30479625 0.010674782 -0.05812189 4287206010
-0.30421382 0.012072672 -0.056772325 4287996040
-0.30395576 0.01361545 -0.055970434 4287206268
-0.30466393 0.015623352 -0.05679274 4285036899
-0.30408287 0.017004253 -0.05544934 4284839781
-0.30318648 0.018216448 -0.05357958 4287337361
-0.30229843 0.019417575 -0.051727191 4290166205
-0.30173194 0.020770386 -0.050415967 4290825924
-0.30116895 0.022115106 -0.049112797 4290560189
-0.30060944 0.023451788 -0.047817662 4290557356
-0.30005333 0.024780499 -0.046530385 4290686617
-0.30011559 0.026440352 -0.046275143 4291012490
-0.30048683 0.028273301 -0.04653395 4291270522
-0.30054921 0.029936187 -0.046278242 4291662443
-0.30123278 0.03195684 -0.047053795 4292058224
-0.30160749 0.033807494 -0.047314879 4292321396
-0.30261266 0.036036491 -0.048619263 4292055664
-0.30267566 0.03771583 -0.048361033 4291660391
-0.30369055 0.039973989 -0.049676318 4290939493
-0.30375385 0.041661669 -0.049416807 4291729527
-0.30413666 0.043548949 -0.049684238 4291729266
-0.30646533 0.046671312 -0.053156793 4291138161
-0.30652946 0.048381064 -0.052893892 4291072632
-0.30594087 0.049668051 -0.051557742 4291273864
-0.3040705 0.050103862 -0.048118662 4291079833
-0.30574378 0.052862197 -0.050500181 4291015332
-0.30483836 0.053913414 -0.04864987 4291149488
-0.30490193 0.055608392 -0.04838923 4290758075
-0.30336913 0.056205004 -0.045517977 4289837491
-0.30374965 0.058108296 -0.045777783 4288980382
-0.30413133 0.060017742 -0.046038304 4288320400
-0.33267257 -0.0061862366 -0.11565454 4289108340
-0.32982421 -0.0052387449 -0.11030496 4288386406
-0.32704613 -0.0043143621 -0.10508739 4286939743
-0.32433584 -0.0034122695 -0.099997036 4286085723
-0.32246003 -0.0022487799 -0.096354596 4285626972
-0.32061633 -0.0011049289 -0.092774503 4286419814
-0.31880391 1.9741048e-05 -0.089255087 4286815338
-0.31665567 0.00098199351 -0.085165635 4286487657
-0.31383553 0.0016389107 -0.079931282 4286222194
-0.31178564 0.0025636246 -0.07602758 4287205513
-0.30977571 0.0034705279 -0.0722 4289569169
-0.30814144 0.0045033488 -0.06902235 4290815626
-0.30686581 0.0056640487 -0.066463597 4289569671
-0.30659804 0.0072480924 -0.06562981 4287340681
-0.30600044 0.008678616 -0.064234912 4286423686
-0.30540669 0.010100283 -0.062848881 4287601265
-0.30547103 0.011818216 -0.062584803 4288910179
-0.30520761 0.013380927 -0.061763603 4287924320
-0.30494502 0.014938956 -0.060944993 4285495388
-0.30468327 0.016492274 -0.060128909 4284379995
-0.30409843 0.01787935 -0.058766581 4284051546
-0.30319622 0.019095175 -0.056869499 4284707429
-0.30230248 0.020299876 -0.05499015 4286613895
-0.30141711 0.021493571 -0.053128302 4288920242
-0.30085239 0.02284245 -0.051810756 4290759873
-0.30029118 0.024183268 -0.050501324 4290758852
-0.30004314 0.025685692 -0.04972123 4290495421
-0.30010569 0.02735596 -0.049464475 4290756019
-0.30016825 0.029026477 -0.049207684 4290884260
-0.30054182 0.030875159 -0.049472675 4290881171
-0.30122951 0.032911416 -0.050262984 4291142539
-0.30192149 0.034960605 -0.051058199 4291338632
-0.30261782 0.037022822 -0.051858384 4291140483
-0.30299929 0.038905222 -0.052130189 4290943362
-0.30402362 0.041186884 -0.053473618 4290813572
-0.30408734 0.042887975 -0.053212136 4291472019
-0.30415103 0.044589359 -0.052950609 4291473049
-0.30649456 0.04774325 -0.056481522 4291014815
-0.30590227 0.049040366 -0.055125713 4290884261
-0.30563962 0.05054241 -0.054319333 4291148972
-0.30537781 0.052039966 -0.053515516 4291151286
-0.30544189 0.053750634 -0.053252555 4290626747
-0.30518079 0.055241279 -0.05245154 4289968562
-0.3052448 0.056949772 -0.052188911 4289046173
-0.30530879 0.058658492 -0.051926252 4287402121
-0.3053728 0.060367476 -0.051663551 4287006074
-0.30414477 0.061159708 -0.04927225 4289043330
-0.33078986 -0.006062184 -0.11623552 4288451696
-0.3275626 -0.0052588354 -0.11017738 4287795302
-0.32442594 -0.0044777561 -0.10428923 4286544989
-0.32176143 -0.0035781844 -0.099235088 4285757531
-0.31991729 -0.0024190787 -0.095618047 4286350172
-0.31810457 -0.0012794406 -0.092062585 4287011942
-0.31669012 -1.6238231e-05 -0.089205354 4286684778
-0.31457025 0.0009433279 -0.08513014 4285435502
-0.31320289 0.0021712619 -0.082366511 4287797907
-0.3115024 0.0032383222 -0.079031684 4290430915
-0.3098298 0.0042881775 -0.075751357 4290889930
-0.30852443 0.0054671718 -0.073111512 4290294470
-0.30723596 0.0066312137 -0.070505813 4289772232
-0.30663046 0.0080774501 -0.069081821 4290499529
-0.30602887 0.0095146736 -0.067666978 4291219125
-0.30609375 0.011249064 -0.067400455 4291015311
-0.3054958 0.012672039 -0.06599544 4288714360
-0.30523056 0.014243546 -0.065163612 4287467375
-0.30496615 0.0158103 -0.064334378 4286945383
-0.30470264 0.017372308 -0.063507795 4285237858
-0.30411392 0.018765554 -0.062126108 4284183387
-0.30320585 0.019985061 -0.060201187 4284051800
-0.30198726 0.021027511 -0.057749782 4284510813
-0.30109912 0.022223553 -0.055866316 4285693809
-0.30053267 0.023576653 -0.054534122 4287208595
-0.29996973 0.024921607 -0.053210191 4289182136
-0.29972094 0.026430041 -0.05242233 4290759356
-0.29978371 0.028108241 -0.052164447 4290823616
-0.30015832 0.029964043 -0.052435335 4290430145
-0.30053407 0.031825829 -0.052706983 4290494653
-0.30154189 0.034062795 -0.054047022 4290625464
-0.30224019 0.036131807 -0.054860424 4290821556
-0.3029429 0.038214106 -0.055678867 4290821554
-0.30332783 0.04011336 -0.055958938 4290756020
-0.3043617 0.04241899 -0.057331197 4290821812
-0.30540541 0.044746831 -0.058716539 4291150263
-0.30546987 0.04647002 -0.058451734 4291217082
-0.30619299 0.048616432 -0.059293192 4291152317
-0.30625767 0.050345618 -0.059027474 4290693311
-0.30533528 0.051425103 -0.057107445 4289970361
-0.3047466 0.052711256 -0.055749625 4289508010
-0.30513689 0.054647554 -0.056031264 4288717721
-0.30487496 0.056144025 -0.055222139 4287204997
-0.30493918 0.057860799 -0.05495831 4286085742
-0.30500337 0.059577808 -0.05469447 4285889384
-0.3050676 0.061295096 -0.054430578 4287796604
-0.32932863 -0.0057968809 -0.11754648 4287991658
-0.32693309 -0.0047134794 -0.11289871 4287071587
-0.32419053 -0.0037952007 -0.10764924 4286216541
-0.32112798 -0.0030408218 -0.10184755 4285364830
-0.31890374 -0.0020242278 -0.097529732 4286616165
-0.31709647 -0.00088583789 -0.093951911 4287274857
-0.31568637 0.00037702188 -0.091077112 4285565804
-0.31321359 0.0011908213 -0.086347133 4286877068
-0.31256574 0.002707185 -0.084818244 4290037708
-0.31156859 0.0040665297 -0.082681648 4291680209
-0.30988434 0.0051166699 -0.079349741 4291464605
-0.3089135 0.0064468533 -0.077267997 4291001744
-0.30795214 0.0077642589 -0.075206585 4291003015
-0.3073383 0.0092211263 -0.073753491 4290743441
-0.30774328 0.011133377 -0.074073374 4289963438
-0.30713117 0.01257743 -0.0726263 4289770168
-0.30685928 0.014171923 -0.071771666 4289180853
-0.30658832 0.015761547 -0.070919789 4287732108
-0.30531847 0.016855447 -0.06834057 4287201377
-0.30472201 0.018263677 -0.066930175 4286545247
-0.30412936 0.019663168 -0.065528832 4284773726
-0.30321538 0.020886315 -0.063575484 4284052315
-0.30198893 0.021929823 -0.061087303 4283986009
-0.30109513 0.023129307 -0.059176337 4284116825
-0.30052504 0.024488224 -0.057825491 4284642400
-0.29995853 0.025838889 -0.056483008 4286152306
-0.29970813 0.027355487 -0.055685233 4287533705
-0.30008483 0.029221633 -0.055963367 4287868331
-0.30046275 0.031093834 -0.056242384 4288659650
-0.30084184 0.032972191 -0.056522224 4289840319
-0.30185896 0.035232335 -0.057890903 4290759358
-0.30256367 0.037321568 -0.058722898 4291021501
-0.30424857 0.040015906 -0.061223503 4291087295
-0.304313 0.041741259 -0.060958471 4290824640
-0.30536309 0.044080678 -0.062370177 4290299841
-0.30542782 0.045814812 -0.062103797 4289775296
-0.30516279 0.047338359 -0.061277501 4290166707
-0.30588832 0.049498077 -0.062132102 4291148707
-0.30595323 0.05123575 -0.061865162 4290885272
-0.30502778 0.052316312 -0.059922423 4288716942
-0.30476424 0.053825721 -0.059102103 4286547067
-0.30515698 0.055776309 -0.059390917 4285756519
-0.30489326 0.057280701 -0.058571368 4285165917
-0.3046304 0.058780558 -0.057754356 4284971361
-0.3046948 0.060505953 -0.057489317 4286483827
-0.32911304 -0.0051020361 -0.12107635 4287399010
-0.3267068 -0.0040200916 -0.11636557 4286283357
-0.32435188 -0.0029609136 -0.11175518 4285693023
-0.31971958 -0.0027846028 -0.10311106 4286088549
-0.31788644 -0.0016279486 -0.099448204 4287011689
-0.3157143 -0.00063405582 -0.095191844 4286356326
-0.31431347 0.00062730483 -0.0923087 4284846712
-0.31221375 0.0015823694 -0.088195518 4288726192
-0.31121328 0.0029540658 -0.086031444 4291287505
-0.3105742 0.0044600042 -0.084508739 4292072649
-0.30993935 0.0059561972 -0.082996093 4292329644
-0.30896172 0.0072911792 -0.080882601 4292912004
-0.30833742 0.0087662572 -0.079394206 4292775270
-0.3080599 0.010387387 -0.078517482 4291263335
-0.30812603 0.012161761 -0.078245007 4289628302
-0.30750754 0.013614432 -0.076772429 4289771200
-0.30723277 0.015220468 -0.075904153 4290564559
-0.30662024 0.016656611 -0.074446321 4288653722
-0.30601174 0.018083706 -0.072997957 4286611812
-0.30507374 0.019333918 -0.070977025 4286021986
-0.3044751 0.020741412 -0.069551356 4284840800
-0.303552 0.021969328 -0.067563094 4284708700
-0.30231357 0.023014452 -0.065029785 4285100377
-0.30141106 0.024218487 -0.063085005 4284182358
-0.30083537 0.025584852 -0.061711162 4283984978
-0.30058074 0.027118504 -0.060896438 4284378196
-0.30032688 0.028647602 -0.060084186 4285232480
-0.30070809 0.030533602 -0.060372006 4288387956
-0.30109045 0.032425813 -0.06066063 4289829501
-0.30147403 0.034324277 -0.060950182 4289045378
-0.30250376 0.036612604 -0.062353093 4288713605
-0.30321723 0.038726404 -0.063207336 4288779653
-0.30426359 0.041054755 -0.064632274 4289108105
-0.30432835 0.042791333 -0.064365588 4288977292
-0.3053852 0.04515107 -0.065802909 4288321676
-0.30545029 0.04689654 -0.065534882 4289177230
-0.30551538 0.048642281 -0.065266803 4289045637
-0.30591363 0.050605711 -0.065569066 4289502580
-0.30597883 0.052354764 -0.06530048 4290093672
-0.3057107 0.053881019 -0.064462319 4288714082
-0.30511212 0.055178218 -0.063061409 4286216798
-0.30517709 0.056919605 -0.06279397 4284641116
-0.30491152 0.058431998 -0.061963741 4284577119
-0.30497637 0.060171131 -0.061696678 4285891692
-0.32847613 -0.0045452877 -0.12389233 4286676063
-0.32606801 -0.0034652632 -0.11913422 4285823070
-0.32331166 -0.0025539764 -0.11376054 4285760870
-0.31831089 -0.002528308 -0.10437482 4286751604
-0.31611556 -0.001516634 -0.10003103 4287406955
-0.31433189 -0.00038220719 -0.096431993 4285567337
-0.31294033 0.00087763224 -0.093540512 4287207816
-0.31085432 0.0018303565 -0.089415006 4290432708
-0.31056687 0.0034945258 -0.088504151 4292007365
-0.3099277 0.0050038584 -0.086968124 4292652685
-0.30964324 0.006654934 -0.086065806 4292114296
-0.30901033 0.0081467619 -0.084545448 4291980144
-0.30872884 0.0097849565 -0.08365155 4291260014
-0.30844826 0.011417961 -0.08276055 4289819521
-0.30816859 0.013045837 -0.081872433 4289628569
-0.30754584 0.014505381 -0.080378287 4290755518
-0.30726907 0.016120661 -0.07949841 4290565070
-0.30665234 0.017563483 -0.078019328 4287802523
-0.30637842 0.019166363 -0.077147521 4285498727
-0.3057676 0.020592667 -0.075683296 4285236326
-0.30482617 0.021837221 -0.07363946 4284841314
-0.30389386 0.023069944 -0.071615383 4284973150
-0.30297056 0.024291018 -0.069610804 4286483294
-0.3017318 0.025325064 -0.067056291 4287858778
-0.30147275 0.026876181 -0.066223994 4287071318
-0.30089313 0.028243227 -0.064831495 4284640595
-0.30063674 0.029782845 -0.064006612 4284510547
-0.30102131 0.031685822 -0.064303003 4288713559
-0.30140716 0.033595107 -0.064600311 4289434713
-0.30179423 0.035510741 -0.064898469 4287205469
-0.30283365 0.037823282 -0.066331677 4287851868
-0.30355385 0.039958179 -0.06720569 4286474584
-0.30427864 0.042107079 -0.068085253 4285753687
-0.30467543 0.044062242 -0.068392791 4285753687
-0.30507344 0.046024002 -0.068701245 4285950551
-0.30513874 0.04777813 -0.068431959 4288709721
-0.30520406 0.04953251 -0.068162635 4289041759
-0.30526936 0.051287167 -0.067893282 4287992416
-0.30533472 0.053042054 -0.067623869 4287798371
-0.3050667 0.054572321 -0.06677936 4288193640
-0.30479953 0.056097899 -0.065937482 4287727972
-0.30486467 0.057847921 -0.065668821 4285558109
-0.30459827 0.059366275 -0.06483002 4285562214
-0.30466336 0.061114002 -0.064561717 4288649596
-0.32741675 -0.0041311653 -0.12597117 4286412634
-0.32501569 -0.0030534866 -0.12118201 4285953635
-0.32147443 -0.0024377764 -0.11433664 4287205491
-0.31690195 -0.0022719745 -0.1056388 4287273583
-0.31472105 -0.0012627576 -0.10128204 4286684269
-0.31294918 -0.00013031323 -0.097672388 4285042297
-0.31156692 0.0011280014 -0.094772555 4288527019
-0.3098484 0.0022237604 -0.091272168 4291417801
-0.309562 0.0038902285 -0.090356663 4291666091
-0.30927667 0.0055514006 -0.089444235 4291464840
-0.30899224 0.0072072549 -0.088534787 4291665295
-0.30870876 0.0088578565 -0.087628335 4291924861
-0.30842626 0.010503235 -0.086724877 4290739833
-0.3084932 0.012304313 -0.086448491 4289826722
-0.30821154 0.013941756 -0.085548393 4290625222
-0.3079308 0.015574006 -0.084651247 4291745232
-0.30765104 0.017201098 -0.083757088 4290167226
-0.30737221 0.018823059 -0.082865797 4286551432
-0.30675095 0.020266935 -0.081365839 4285105255
-0.30613378 0.021701517 -0.079875715 4285105509
-0.30552068 0.023127003 -0.078395352 4284907616
-0.304241 0.024188485 -0.075733818 4284973917
-0.30364007 0.025592513 -0.074281253 4286483292
-0.30238491 0.026628319 -0.071671963 4289039705
-0.30212224 0.028192528 -0.070824258 4288320858
-0.30186045 0.029751949 -0.069979273 4287529816
-0.30159947 0.031306587 -0.069136925 4287201877
-0.30198985 0.033233628 -0.069444984 4287530067
-0.30238152 0.035167094 -0.069753923 4287537757
-0.30244637 0.036911387 -0.069486238 4287992410
-0.30316865 0.0390536 -0.070374787 4290217562
-0.30389562 0.041209921 -0.071268991 4286805080
-0.3042936 0.043173082 -0.071583308 4284575317
-0.30469286 0.045142878 -0.071898535 4284312917
-0.30475837 0.046905495 -0.071628042 4286217563
-0.30482391 0.048668344 -0.071357511 4287334235
-0.3045553 0.05021257 -0.070503026 4288253536
-0.30462077 0.051973097 -0.070232831 4289632355
-0.30468622 0.053733863 -0.069962628 4289634403
-0.30441824 0.05526815 -0.069111593 4287795810
-0.30415118 0.056797717 -0.068263277 4286084956
-0.30421641 0.058553576 -0.067993827 4285494627
-0.30395016 0.060075883 -0.067148663 4287467126
-0.32552513 -0.0040095043 -0.12653984 4286084184
-0.32314876 -0.0029348556 -0.12175325 4285561188
-0.31964344 -0.0023219457 -0.11491093 4286552446
-0.31436926 -0.0024433101 -0.10485003 4287011697
-0.31259117 -0.0012949801 -0.1011913 4286355821
-0.31084335 -0.00016591806 -0.097594813 4285173380
-0.30947989 0.0010885645 -0.094705351 4289186239
-0.30848619 0.0024722458 -0.092494145 4291677890
-0.308202 0.0041384827 -0.091576658 4291858317
-0.30791885 0.0057994211 -0.090662256 4292054917
-0.30763656 0.0074550435 -0.089750834 4292454279
-0.30770364 0.009261827 -0.089473642 4291338121
-0.3077707 0.011068862 -0.089196436 4289562780
-0.30783781 0.012876143 -0.08891917 4290091433
-0.30755618 0.014518254 -0.08801201 4291611073
-0.30762318 0.016323062 -0.087735131 4291090380
-0.30769017 0.018128151 -0.087458223 4288327583
-0.3070626 0.019586232 -0.085930645 4285696367
-0.30712941 0.021385856 -0.085654564 4285171813
-0.30650583 0.022828808 -0.084137924 4285498723
-0.30554497 0.024083182 -0.082018614 4286219869
-0.30459362 0.025325444 -0.079920165 4287140442
-0.30465958 0.027102454 -0.079647563 4287925849
-0.30371729 0.028324353 -0.077570915 4288580440
-0.30344892 0.029906355 -0.076702602 4287136342
-0.30318144 0.031483471 -0.075837046 4289892694
-0.30291483 0.033055723 -0.074974291 4288780886
-0.30331236 0.035010889 -0.07529591 4287400536
-0.30304557 0.036577914 -0.074433938 4288455771
-0.30344331 0.038539328 -0.074754618 4291073620
-0.30350882 0.040303949 -0.074483901 4291072602
-0.30424279 0.04248219 -0.075398959 4287068506
-0.3043085 0.044253085 -0.075127289 4284706645
-0.30437425 0.046024248 -0.074855573 4285297496
-0.30444002 0.047795653 -0.074583806 4288519776
-0.30417058 0.049348775 -0.073719919 4288452448
-0.30423626 0.05111783 -0.073448531 4287135581
-0.30430195 0.052887145 -0.073177084 4288184152
-0.30403319 0.054430224 -0.072316773 4288907354
-0.30376533 0.055968516 -0.071459211 4286743394
-0.30349839 0.057502136 -0.070604458 4285035613
-0.30356377 0.059263874 -0.070334189 4286220144
