# .PCD v0.7 - Point Cloud Data file format
VERSION 0.7
FIELDS x y z rgba
SIZE 4 4 4 4
TYPE F F F U
COUNT 1 1 1 1
WIDTH 1002
HEIGHT 1
VIEWPOINT 0 0 0 1 0 0 0
POINTS 1002
DATA ascii
-0.29993662 0.050783105 -0.041301634 4287852638
-0.2991055 0.052375477 -0.040967386 4287987563
-0.2985532 0.053881548 -0.041081071 4288183908
-0.29772949 0.055458732 -0.040749013 4288116830
-0.29718143 0.056954399 -0.04086272 4287984735
-0.29690546 0.058375277 -0.041420776 4287656039
-0.29662949 0.059796348 -0.041978907 4288714376
-0.29662406 0.061150707 -0.042984582 4288652442
-0.29716286 0.06237841 -0.044896092 4287533447
-0.30049488 0.06296698 -0.05146512 4286741866
-0.30163482 0.064102679 -0.054413188 4286808936
-0.30484629 0.064805977 -0.060846552 4287400558
-0.30725783 0.065729119 -0.065973677 4287925361
-0.31130943 0.066356562 -0.073895141 4288056690
-0.31754413 0.066617243 -0.085556351 4287925872
-0.32276207 0.067166157 -0.095563859 4287662954
-0.3256776 0.068216011 -0.1017129 4287662184
-0.32868159 0.069297999 -0.10804866 4289041524
-0.32225695 -0.0030124485 -0.045673016 4286615153
-0.32162896 -0.001315557 -0.045785293 4283850053
-0.32100284 0.00037631684 -0.045897312 4283130692
-0.31972539 0.0023870775 -0.045039468 4283328070
-0.31943056 0.0039046381 -0.045635596 4284182346
-0.3191357 0.005422405 -0.046231814 4285956436
-0.32014582 0.0063187941 -0.048784189 4287072870
-0.31952175 0.0080001159 -0.048892066 4287795576
-0.3192254 0.0095255412 -0.049491271 4287468151
-0.31860361 0.011199833 -0.049598068 4286418296
-0.31766075 0.013014676 -0.049214181 4285171313
-0.31672353 0.014818698 -0.048832703 4284446816
-0.31547478 0.016750667 -0.047968827 4284311632
-0.3145512 0.018530238 -0.047594193 4283851334
-0.3133215 0.02043142 -0.046742544 4283130179
-0.31241116 0.022187117 -0.046374526 4282736195
-0.31150621 0.023932522 -0.046008825 4282473537
-0.3106066 0.025667777 -0.045645364 4282407492
-0.31001478 0.027272789 -0.045755614 4283194436
-0.30912355 0.028990859 -0.045394696 4284571461
-0.30793938 0.0308134 -0.044568375 4285230420
-0.30706066 0.032508858 -0.044213738 4285231707
-0.30618709 0.034194581 -0.043861307 4285624665
-0.30502778 0.03597635 -0.043050408 4286672720
-0.30445507 0.037537187 -0.043162834 4287525468
-0.30330995 0.039294485 -0.042359829 4288050780
-0.30274299 0.040841877 -0.042472802 4288055405
-0.30189428 0.042480234 -0.04213091 4287460195
-0.30133173 0.044016775 -0.042243872 4287326048
-0.30077076 0.045549076 -0.042356618 4287327337
-0.29993248 0.047165107 -0.04201724 4287394407
-0.299099 0.048772093 -0.041679926 4288116573
-0.29854509 0.050287284 -0.041792918 4288511071
-0.29799274 0.051798344 -0.041905668 4288643432
-0.2974419 0.053305317 -0.042018142 4289299552
-0.29689261 0.054808177 -0.042130414 4289230675
-0.29634485 0.056306984 -0.042242438 4288768077
-0.2960684 0.057729971 -0.04280141 4288243798
-0.29606211 0.059083186 -0.043809712 4288908668
-0.29605573 0.060440503 -0.044820979 4288849567
-0.29659352 0.061668746 -0.046745952 4288454041
-0.29768714 0.062776923 -0.049613182 4287071351
-0.29851699 0.06396579 -0.052051146 4286479719
-0.30163988 0.064659514 -0.058376253 4287333998
-0.30398282 0.06557107 -0.063416488 4287925360
-0.30885077 0.065994635 -0.072780177 4287925360
-0.31563196 0.066108659 -0.085465357 4287860592
-0.32113361 0.066574588 -0.096038401 4287662954
-0.32365915 0.067681283 -0.10156491 4287531111
-0.32662237 0.068751641 -0.1078773 4287991404
-0.33044219 0.069723591 -0.11570699 4289568891
-0.321064 -0.0036362438 -0.046677861 4287073903
-0.32076693 -0.0021076105 -0.04727843 4284046662
-0.32079959 -0.00074620481 -0.048371259 4282999107
-0.32149598 0.00028689482 -0.050461277 4283065157
-0.32119694 0.0018256577 -0.051065829 4283525447
-0.32089788 0.0033646415 -0.051670451 4284576585
-0.3196089 0.0053809104 -0.050778445 4285098312
-0.31931108 0.0069132475 -0.051380482 4284835402
-0.31836021 0.0087520042 -0.050988704 4284309833
-0.31741512 0.010579737 -0.050599448 4283916615
-0.31647575 0.012396559 -0.050212648 4283327047
-0.31522426 0.014345281 -0.049339905 4282934085
-0.31398407 0.016276579 -0.048475124 4282736970
-0.31306621 0.018054988 -0.048099652 4282867533
-0.31215385 0.019822951 -0.047726516 4283392586
-0.31063458 0.021839317 -0.046402346 4284442441
-0.31004092 0.023454452 -0.046511747 4285298004
-0.3088457 0.025311897 -0.045675412 4285493594
-0.30825818 0.026912767 -0.045785431 4286411353
-0.3073746 0.028626913 -0.045425601 4288050007
-0.30649617 0.030331187 -0.045067985 4288446052
-0.30591628 0.031913538 -0.045178317 4288121194
-0.30504596 0.033601094 -0.044823185 4287988840
-0.30389154 0.035385557 -0.04400818 4287921767
-0.30332038 0.036947343 -0.044119332 4287985776
-0.30218008 0.038707294 -0.043312296 4288378468
-0.30161464 0.040255643 -0.043424014 4288643428
-0.30076912 0.04189577 -0.043079477 4288643940
-0.30020806 0.04343323 -0.043191209 4288775532
-0.29964861 0.044966489 -0.043302707 4288576363
-0.29881343 0.046584278 -0.042960733 4288178272
-0.29798305 0.048193015 -0.042620838 4288703573
-0.29770473 0.049625237 -0.04318352 4289032275
-0.29715267 0.051139485 -0.04329456 4289427796
-0.29660216 0.052649628 -0.043405376 4289626711
-0.29632449 0.054078363 -0.043966692 4289625943
-0.29577586 0.055582579 -0.04407651 4289230678
-0.2957691 0.056936488 -0.045089573 4288837983
-0.29549131 0.05836587 -0.045651149 4289105784
-0.29575527 0.059656572 -0.047124613 4288849053
-0.29629394 0.06088683 -0.049067967 4288980639
-0.29683727 0.062127985 -0.051028255 4287205511
-0.29766327 0.0633149 -0.053478118 4286283114
-0.29963049 0.064258575 -0.057885945 4287070567
-0.30193594 0.065160774 -0.062897198 4287663468
-0.30581221 0.065766767 -0.0706328 4287795823
-0.31017455 0.066334151 -0.079251602 4287927665
-0.31778377 0.066326909 -0.093529932 4287729258
-0.32165372 0.067149982 -0.10141811 4287465573
-0.32494318 0.068141639 -0.10834436 4287531624
-0.32872477 0.069100544 -0.11616957 4288845171
-0.31954297 -0.0040875752 -0.047192566 4287663982
-0.31957364 -0.0027314306 -0.048283588 4284243017
-0.31927639 -0.001202473 -0.048884384 4282933317
-0.31996456 -0.00017298813 -0.050973672 4282867780
-0.31966588 0.0013635011 -0.051577412 4282998594
-0.31936714 0.0029001897 -0.052181251 4283129665
-0.31841317 0.0047565871 -0.051785812 4283260997
-0.31778961 0.0064456775 -0.051889624 4282933579
-0.31684476 0.0082831541 -0.051497065 4282802511
-0.3159056 0.010109631 -0.051106941 4283261775
-0.31497219 0.011925191 -0.050719317 4284048971
-0.31404433 0.013729954 -0.050334133 4284771663
-0.31280935 0.015664132 -0.049464971 4285034075
-0.31189495 0.017444506 -0.049086642 4285297252
-0.31037262 0.019481011 -0.047750406 4286282077
-0.30917051 0.021364164 -0.046904732 4288118104
-0.30827901 0.023104437 -0.046539336 4289502059
-0.30739275 0.024834605 -0.046176188 4289499498
-0.30680811 0.026433887 -0.046285402 4288972912
-0.30593002 0.028147029 -0.045924764 4288972395
-0.30505705 0.029850278 -0.045566306 4288511343
-0.30448002 0.031431109 -0.045675918 4288447086
-0.30361503 0.033117708 -0.045319926 4288513128
-0.30275509 0.03479467 -0.04496615 4288052585
-0.30218548 0.036357407 -0.04507602 4288248428
-0.30105001 0.038120016 -0.044264939 4289363302
-0.30048609 0.039669305 -0.044375401 4289560160
-0.29964373 0.041311208 -0.044028237 4289889377
-0.29908419 0.042849608 -0.044138707 4290025074
-0.29852623 0.044383783 -0.04424898 4290087525
-0.29769418 0.046003342 -0.043904394 4289424206
-0.29714057 0.04752681 -0.044014681 4289028682
-0.29658845 0.049046133 -0.044124722 4288766798
-0.29630998 0.050478633 -0.044687606 4288834639
-0.29603148 0.05191135 -0.04525058 4288771156
-0.29575291 0.053344283 -0.045813635 4289230680
-0.29547429 0.054777417 -0.046376765 4289364058
-0.29546693 0.05613609 -0.047397587 4289299811
-0.29545948 0.057498857 -0.048421409 4289171830
-0.29572481 0.058794603 -0.049911514 4288848797
-0.29599157 0.060098033 -0.051410284 4289111972
-0.29625988 0.061409231 -0.052917816 4287600275
-0.29708481 0.062595531 -0.055385951 4286150761
-0.29820102 0.063730627 -0.05836761 4286413150
-0.30019495 0.064689361 -0.062879592 4287138407
-0.30402237 0.065283582 -0.070591472 4287663983
-0.30801588 0.065903828 -0.078638166 4287927153
-0.31483263 0.06601619 -0.091652751 4287794537
-0.32036602 0.0664846 -0.10250441 4287465060
-0.32363376 0.067465186 -0.10944903 4287465573
-0.32701299 0.068479508 -0.11663082 4288057197
-0.31705737 -0.0040217703 -0.046243731 4287991663
-0.31676233 -0.0025045837 -0.046839993 4284308809
-0.31678838 -0.0011539956 -0.047924004 4282867526
-0.31521595 0.0010208755 -0.046575777 4282736455
-0.31492212 0.0025318067 -0.047169566 4282867528
-0.31431234 0.0042008627 -0.047278911 4283262028
-0.31528652 0.005084625 -0.049822524 4284182103
-0.31467333 0.0067578508 -0.049928527 4284905316
-0.31374642 0.0085777529 -0.049545597 4285103985
-0.31313825 0.010238543 -0.049651701 4285694579
-0.31222007 0.012040093 -0.049271502 4287201118
-0.3113074 0.013831042 -0.048893705 4288777827
-0.31009388 0.015750339 -0.048037712 4289432682
-0.30949831 0.017381374 -0.048145138 4289695855
-0.30860183 0.019140972 -0.047774348 4290024296
-0.30741107 0.021020148 -0.046931222 4289955174
-0.30682465 0.022629492 -0.047039606 4290419312
-0.30564871 0.024482541 -0.046204876 4290222708
-0.30477527 0.026198773 -0.045845043 4289501049
-0.30419776 0.02778695 -0.045954317 4289303409
-0.30362195 0.029370686 -0.046063382 4289102960
-0.30275938 0.031063203 -0.045706306 4289494891
-0.3021881 0.032635618 -0.045815419 4289957477
-0.30133343 0.034311641 -0.045460787 4289628006
-0.30076662 0.035872884 -0.045569934 4289888860
-0.29991972 0.037532628 -0.045217752 4290677600
-0.29935732 0.039082851 -0.045326963 4290282595
-0.29851812 0.040726539 -0.044977169 4290085218
-0.29823732 0.042170495 -0.045544632 4290022767
-0.29767966 0.043707959 -0.045653131 4290416494
-0.29712361 0.045241188 -0.045761406 4289884241
-0.29656908 0.04677023 -0.045869429 4289095500
-0.29628932 0.048208803 -0.046434786 4289031246
-0.29600954 0.04964757 -0.047000226 4288901459
-0.29572973 0.051086567 -0.047565732 4288440654
-0.29572266 0.052445453 -0.048592664 4288833614
-0.29544231 0.05388695 -0.049159177 4289162832
-0.29543474 0.055252273 -0.050190009 4289360727
-0.29542711 0.056621715 -0.051223934 4289367410
-0.29569376 0.057922527 -0.052730892 4289046173
-0.29596189 0.059231099 -0.054246694 4289309606
-0.29623157 0.060547493 -0.055771407 4287796883
-0.29678151 0.061803907 -0.05778731 4285624678
-0.29790032 0.062938295 -0.06079996 4285427545
-0.29961067 0.063958086 -0.064858541 4286742369
-0.30283839 0.064671323 -0.071590215 4287726953
-0.30618572 0.06541124 -0.078571662 4288188014
-0.31391352 0.065299772 -0.093295857 4287794793
-0.31907809 0.0658191 -0.10359093 4287268452
-0.32196197 0.066858098 -0.10991316 4287203430
-0.32493407 0.067929178 -0.11642897 4287531626
-0.32761598 0.06910143 -0.12246613 4288451696
-0.31397179 -0.0036178096 -0.044347893 4288057713
-0.31367934 -0.0021142992 -0.044938855 4284440910
-0.31370038 -0.00077527849 -0.046010327 4283065164
-0.31340739 0.00073094375 -0.046602357 4283000662
-0.31280166 0.0023975591 -0.046712283 4283001698
-0.31219777 0.0040593739 -0.046821993 4284447089
-0.31159559 0.0057163956 -0.046931412 4287927938
-0.31099519 0.0073686554 -0.047040612 4289701765
-0.31039658 0.0090161599 -0.047149587 4290031496
-0.3097997 0.010658953 -0.047258299 4289768844
-0.30890101 0.012440508 -0.046889376 4289830519
-0.30830899 0.01407127 -0.046998166 4290355826
-0.30741864 0.015835134 -0.04663185 4290679911
-0.30683133 0.017454037 -0.0467407 4291005021
-0.30654311 0.018935798 -0.047323115 4291005532
-0.30595788 0.020548096 -0.047430955 4290675299
-0.30507964 0.022283245 -0.047065869 4290480743
-0.30391476 0.024132455 -0.046233594 4290287484
-0.30304891 0.025844766 -0.045874879 4290551666
-0.30247548 0.027428893 -0.045983903 4290615917
-0.30190372 0.029008605 -0.046092696 4290548841
-0.30133361 0.030583896 -0.046201274 4290614376
-0.30076513 0.032154828 -0.046309628 4290680931
-0.30019823 0.033721395 -0.046417706 4290876007
-0.29963297 0.035283592 -0.046525571 4291137120
-0.29906926 0.036841456 -0.046633236 4290877546
-0.29878682 0.038293473 -0.047203958 4290677094
-0.29794672 0.039944299 -0.046847839 4290939485
-0.297665 0.04139255 -0.047417082 4290675803
-0.29710644 0.042935651 -0.047523312 4290677095
-0.2965495 0.04447455 -0.047629289 4290148695
-0.29626846 0.045919225 -0.048197135 4289556818
-0.2959874 0.047364119 -0.048765067 4289885775
-0.29598066 0.048723176 -0.049798124 4289887061
-0.29569909 0.050170582 -0.050367042 4289492564
-0.29569182 0.051536117 -0.05140407 4289361234
-0.29540977 0.052986037 -0.05197398 4289164371
-0.29540199 0.054358054 -0.05301502 4288769886
-0.29539415 0.055734284 -0.054059185 4289040512
-0.29566213 0.057040177 -0.055583313 4289112226
-0.29593167 0.058353905 -0.057116464 4289375912
-0.29620272 0.059675537 -0.058658663 4287598991
-0.29675567 0.06093559 -0.060699314 4285164899
-0.29731348 0.062207025 -0.062758178 4284639571
-0.29873481 0.063289531 -0.066343762 4285822811
-0.30165416 0.064058959 -0.072589144 4287267427
-0.30406165 0.064988285 -0.077966467 4287925866
-0.30939063 0.065341271 -0.088557489 4287598188
-0.31709364 0.065295272 -0.1034385 4287137383
-0.3195816 0.066392966 -0.10910123 4287137125
-0.32250223 0.067451611 -0.11557177 4287399782
-0.32513681 0.068611406 -0.12156625 4287728233
-0.32784474 0.069803707 -0.1277277 4288910453
-0.31186545 -0.0037241913 -0.043905091 4288518524
-0.31157419 -0.0022273737 -0.044493519 4284903267
-0.31159186 -0.00089448213 -0.045559604 4284247130
-0.31130007 0.00060502061 -0.046149094 4284249700
-0.31070015 0.00226441 -0.04625931 4283332982
-0.31010199 0.0039190184 -0.046369351 4284056199
-0.30950558 0.0055688922 -0.046479084 4287732120
-0.30891091 0.0072140438 -0.046588596 4289898642
-0.30831796 0.0088545056 -0.046697881 4290748025
-0.30772677 0.010490277 -0.046806913 4290748026
-0.30713728 0.012121381 -0.04691568 4290485630
-0.30625167 0.013888307 -0.046550199 4290484087
-0.30537128 0.015644968 -0.046186969 4290677604
-0.30478954 0.017257031 -0.046296116 4291002710
-0.30538675 0.018333206 -0.048297554 4291268185
-0.30421534 0.020207809 -0.047456104 4291267674
-0.30363601 0.021811422 -0.047563482 4291073126
-0.30247912 0.023660079 -0.046730373 4290744687
-0.30161861 0.02537133 -0.04637083 4290677604
-0.30133384 0.026834713 -0.046946116 4290679403
-0.30104905 0.028298305 -0.047521472 4290745966
-0.30076423 0.029762095 -0.04809691 4290813808
-0.30019474 0.031338923 -0.048202913 4290944363
-0.29962695 0.032911338 -0.048308704 4291400288
-0.29906076 0.034479365 -0.048414256 4291530845
-0.29849616 0.036043048 -0.048519559 4291140195
-0.29849321 0.03739607 -0.049560864 4291138398
-0.29737177 0.039157424 -0.048729561 4291070042
-0.2973671 0.040511478 -0.049768262 4290742627
-0.297084 0.041966338 -0.050340198 4290614127
-0.29652372 0.043515641 -0.050442852 4290349407
-0.29624096 0.04496881 -0.05101411 4290150237
-0.29595813 0.046422195 -0.051585466 4290149717
-0.29595119 0.047787905 -0.052628756 4290087261
-0.29566789 0.049243823 -0.053201113 4290415456
-0.29566044 0.050616052 -0.054248456 4290613346
-0.29565293 0.051992487 -0.055298958 4290217306
-0.29564533 0.053373169 -0.056352597 4289363300
-0.29563767 0.054758124 -0.057409391 4289240723
-0.29590824 0.056070819 -0.058954723 4289310634
-0.29590085 0.057466272 -0.060020152 4289508011
-0.2961733 0.058793195 -0.061580177 4287335816
-0.2967293 0.060056861 -0.063646026 4284705373
-0.29729021 0.061332054 -0.065730423 4283983184
-0.29814309 0.06255056 -0.068342328 4284902743
-0.30017522 0.063514367 -0.073064603 4286480482
-0.30165741 0.064635918 -0.076832771 4287729772
-0.30656955 0.065044753 -0.086761147 4287663984
-0.314439 0.064916901 -0.10206084 4287202922
-0.31722468 0.065932326 -0.10829759 4287267940
-0.32009473 0.06697876 -0.11472341 4287333990
-0.32305303 0.068057649 -0.12134705 4287597159
-0.3253426 0.069305755 -0.12679304 4287992171
-0.32691485 0.070716292 -0.13096118 4289503865
-0.30948776 -0.0023395249 -0.044052377 4285368696
-0.30919763 -0.00084911438 -0.044638384 4283721564
-0.30860439 0.00080236798 -0.044750281 4283589458
-0.30831462 0.0022909893 -0.045335565 4283393106
-0.30772349 0.0039357874 -0.045446411 4283656022
-0.30713403 0.0055758837 -0.045557003 4285625966
-0.30684501 0.0070607238 -0.046140809 4288648588
-0.30625769 0.0086941542 -0.046250392 4289897870
-0.30567208 0.010322965 -0.04635971 4290422413
-0.30508816 0.011947162 -0.046468817 4290749060
-0.30450591 0.013566746 -0.046577685 4291010170
-0.30392534 0.015181769 -0.046686303 4291008621
-0.30363822 0.016656937 -0.04726629 4291138919
-0.30393627 0.017864842 -0.04879551 4291202658
-0.30306381 0.019607883 -0.048426542 4291268704
-0.30248606 0.021212479 -0.048532601 4291139945
-0.30190998 0.022812529 -0.048638456 4291140199
-0.30104849 0.024531404 -0.048272334 4291073895
-0.30076277 0.025999185 -0.04884943 4290810979
-0.30047703 0.027467169 -0.0494266 4290740321
-0.30019122 0.028935365 -0.050003879 4290808930
-0.29962087 0.030518098 -0.05010755 4290877548
-0.29905212 0.032096423 -0.050210949 4291271272
-0.29848498 0.033670336 -0.050314113 4291599716
-0.29820028 0.035132956 -0.050889187 4291271520
-0.29791555 0.03659578 -0.051464338 4291204963
-0.29707164 0.038263783 -0.051093448 4290939488
-0.29734597 0.039522056 -0.052614875 4290875239
-0.29706109 0.040985517 -0.053190287 4290416234
-0.29649746 0.042545438 -0.053289499 4290612834
-0.29649121 0.043913104 -0.054341346 4290808673
-0.29648495 0.045285009 -0.055396389 4290742873
-0.2961995 0.046751495 -0.055972975 4290283613
-0.29619274 0.048130006 -0.057032131 4290345560
-0.29618582 0.0495128 -0.058094442 4290350183
-0.29617891 0.050899863 -0.059159998 4289890148
-0.29617193 0.052291237 -0.060228799 4289563510
-0.29616487 0.05368695 -0.061300818 4289440162
-0.29615778 0.055087015 -0.062376123 4289574066
-0.29615059 0.056491438 -0.063454673 4289310634
-0.2964257 0.057825416 -0.06503658 4286874492
-0.29670238 0.059167575 -0.066628009 4284442200
-0.29698071 0.060517952 -0.068229064 4283786832
-0.29783547 0.061737154 -0.070867896 4284115538
-0.29957858 0.062764816 -0.075114287 4285298524
-0.30076116 0.063950941 -0.0783756 4287202667
-0.30440989 0.064616762 -0.08610858 4287924851
-0.3118186 0.064543322 -0.10070124 4287465067
-0.31352189 0.065756716 -0.10501345 4287332963
-0.31630296 0.06678842 -0.11131541 4287333734
-0.31989068 0.067714766 -0.11913048 4287531367
-0.32286602 0.068812847 -0.12586826 4287793769
-0.32440847 0.070211835 -0.13000681 4288648050
-0.30743086 -0.0011300088 -0.044670828 4285564005
-0.3065432 0.0006774331 -0.044311035 4283918935
-0.30625463 0.0021594903 -0.044893846 4283656532
-0.30566904 0.0037972182 -0.04500496 4283656275
-0.30508518 0.0054303352 -0.045115855 4284246355
-0.30479735 0.0069086328 -0.045697175 4285822305
-0.30450943 0.0083871745 -0.0462786 4287995011
-0.30422151 0.0098659219 -0.046860099 4289641121
-0.30393356 0.011344905 -0.047441673 4290426521
-0.30335289 0.012965467 -0.047549229 4291011193
-0.30277392 0.014581468 -0.047656536 4291207541
-0.30277759 0.015920116 -0.048711102 4291275131
-0.30278119 0.017262934 -0.04976888 4291470199
-0.30249304 0.018742997 -0.050350882 4291402350
-0.3019143 0.02035371 -0.050454553 4291335783
-0.30133724 0.021959856 -0.050557993 4290942572
-0.30076188 0.023561493 -0.050661191 4290878066
-0.3007623 0.024912719 -0.051719166 4290811242
-0.30047476 0.02638948 -0.052299876 4290874983
-0.30018717 0.02786646 -0.052880682 4291332959
-0.2996133 0.029460222 -0.052980796 4291333983
-0.29904112 0.03104951 -0.053080704 4291201634
-0.29847053 0.032634333 -0.053180408 4291204191
-0.2979016 0.034214698 -0.053279899 4291273837
-0.29789752 0.035577174 -0.054337636 4291468654
-0.2970486 0.03725807 -0.05395627 4291534957
-0.29732433 0.038520884 -0.055495214 4291269729
-0.29731929 0.039892368 -0.056558046 4290808161
-0.29703215 0.041366939 -0.057137914 4290742369
-0.296745 0.042841718 -0.057717849 4290742365
-0.29702091 0.044127524 -0.059275132 4290282083
-0.29673281 0.045607112 -0.059856962 4289957232
-0.29672664 0.046996269 -0.060931403 4289953627
-0.29672039 0.048389778 -0.0620091 4289820506
-0.2964313 0.049874391 -0.062592909 4289363565
-0.29614219 0.051359255 -0.063176803 4289504150
-0.29641771 0.052679375 -0.064760126 4289640113
-0.29612762 0.054169055 -0.065345936 4289705907
-0.29640383 0.055501964 -0.066940621 4288521374
-0.29639679 0.056919925 -0.068035871 4285953899
-0.29667494 0.058267497 -0.069645986 4284245071
-0.29695472 0.05962339 -0.071265832 4283852365
-0.2972362 0.060987685 -0.072895601 4283852623
-0.29868457 0.062080994 -0.076645173 4284509524
-0.29986197 0.063263811 -0.079923332 4286086496
-0.30196562 0.064261086 -0.084907249 4287138412
-0.30955988 0.064103238 -0.099959344 4287204461
-0.31089854 0.065376423 -0.1036305 4287204199
-0.31327966 0.066464871 -0.1092402 4287335274
-0.31607553 0.067514531 -0.11564834 4287465318
-0.32004836 0.068393119 -0.1242746 4287662184
-0.32118499 0.069845207 -0.1276819 4288188012
-0.30538574 7.2609109e-05 -0.045286089 4285827174
-0.30480137 0.0017133248 -0.045396667 4284181335
-0.30421874 0.0033493971 -0.045507021 4283853396
-0.30363777 0.0049808156 -0.045617133 4283919187
-0.30364284 0.0063059852 -0.046669848 4284181076
-0.30335483 0.0077846199 -0.047251392 4285100643
-0.30306682 0.0092634615 -0.047833007 4286485634
-0.30277872 0.010742523 -0.048414722 4289046429
-0.30249059 0.012221796 -0.048996504 4290622095
-0.3022024 0.013701282 -0.049578395 4291144068
-0.30220512 0.015042689 -0.050639071 4291471996
-0.30250001 0.016251372 -0.05218542 4291733110
-0.30221042 0.017738124 -0.052770175 4291274114
-0.3019208 0.019225119 -0.053355001 4291402096
-0.30134019 0.020842595 -0.05345488 4291205488
-0.30076125 0.022455499 -0.053554516 4291469174
-0.30076158 0.02381321 -0.05462322 4291466858
-0.30047223 0.025298856 -0.055207506 4291141491
-0.30018282 0.026784718 -0.055791892 4291269221
-0.29960543 0.028389672 -0.055888407 4291466849
-0.29902974 0.029990071 -0.055984717 4291468141
-0.29845572 0.031585917 -0.056080848 4291531618
-0.29788333 0.033177301 -0.056176763 4291469929
-0.29787907 0.034546394 -0.057245202 4291071080
-0.29702505 0.036240377 -0.056853056 4291466090
-0.29730228 0.037507731 -0.058409881 4291729760
-0.29729703 0.038885947 -0.059483442 4291073125
-0.29729173 0.040268481 -0.060560297 4290943346
-0.29728636 0.041655324 -0.061640456 4290742626
-0.29728094 0.043046538 -0.06272389 4290216799
-0.29727545 0.044442128 -0.063810676 4290353011
-0.29755604 0.045748644 -0.065405138 4290482281
-0.29726434 0.047246486 -0.065994218 4289759859
-0.29697254 0.048744544 -0.06658341 4289634963
-0.29668069 0.050242804 -0.067172684 4289639857
-0.29667407 0.051656555 -0.068271443 4289707193
-0.29638174 0.053157527 -0.068861768 4289705902
-0.29637456 0.054578226 -0.069964916 4287401095
-0.29608169 0.056081884 -0.070556305 4284902237
-0.29636005 0.057433121 -0.072181374 4283852368
-0.29635271 0.058867343 -0.073294781 4283852622
-0.29663303 0.060233582 -0.074935682 4283853134
-0.29749587 0.061466299 -0.07764788 4284050001
-0.29866403 0.062644497 -0.080933861 4285165656
-0.3001501 0.063772343 -0.084822252 4286413664
-0.30667785 0.063810207 -0.098034866 4286874981
-0.30700874 0.065279186 -0.099858753 4287138921
-0.30930799 0.066352256 -0.1053463 4287401582
-0.31166795 0.067453913 -0.11097887 4287335275
-0.31655422 0.068115324 -0.12136704 4287531111
-0.31765527 0.069550768 -0.12471986 4287793771
-0.31987125 0.070813447 -0.13018836 4288713844
-0.30423403 0.00079000974 -0.047319572 4285432674
-0.30394474 0.0022746886 -0.047903582 4284116054
-0.30336148 0.0039150752 -0.048010759 4283984979
-0.30336607 0.0052446811 -0.049071852 4284050261
-0.30307665 0.0067300145 -0.049656123 4284181593
-0.30308077 0.0080662258 -0.050721455 4284706657
-0.30279085 0.0095542138 -0.051306762 4286087804
-0.30250087 0.011042397 -0.051892161 4287539875
-0.30221087 0.012530814 -0.052477639 4289574056
-0.30192083 0.014019457 -0.053063203 4291015569
-0.30221608 0.015230593 -0.054623876 4291736709
-0.30192509 0.016724125 -0.055211369 4291211665
-0.30163404 0.018217882 -0.055798952 4290753939
-0.30134296 0.019711848 -0.056386612 4290950804
-0.30076045 0.021336166 -0.056482617 4291145610
-0.30046973 0.022828359 -0.05706957 4291207544
-0.30017895 0.024320746 -0.057656616 4291666798
-0.29988813 0.025813369 -0.05824374 4291731558
-0.29930851 0.027427018 -0.058337167 4291730785
-0.29901803 0.028917843 -0.058923583 4291596644
-0.29844046 0.030524919 -0.059016015 4291663718
-0.29786459 0.032127436 -0.059108287 4291598948
-0.29786018 0.033503231 -0.060187548 4291661915
-0.29728508 0.035101723 -0.060278237 4291791961
-0.29756504 0.036375258 -0.061857015 4291925602
-0.29756001 0.037762169 -0.062943891 4291335787
-0.29755494 0.039153457 -0.064034112 4291073902
-0.29754984 0.040549118 -0.065127693 4290872927
-0.29783249 0.04184949 -0.066733241 4290476118
-0.29782769 0.043255974 -0.067836024 4289820510
-0.29840285 0.044474471 -0.069973841 4289496692
-0.29781789 0.046082366 -0.070051782 4289767062
-0.29752332 0.047594067 -0.070646435 4289902261
-0.29722875 0.049106028 -0.07124117 4289903549
-0.29693413 0.050618198 -0.071835987 4290165176
-0.29663944 0.052130595 -0.072430901 4288324251
-0.29634473 0.053643201 -0.07302589 4286742888
-0.29604995 0.055156045 -0.073620997 4287725397
-0.29604205 0.05659106 -0.074739963 4288578133
-0.29603407 0.058030616 -0.075862423 4286543186
-0.29631463 0.059400622 -0.077518761 4284377935
-0.29688761 0.060706742 -0.079721481 4283918671
-0.2977598 0.061954036 -0.082488291 4284312659
-0.29894072 0.063147284 -0.085842475 4285495387
-0.30352756 0.063592739 -0.095556885 4286874723
-0.30447686 0.064909019 -0.098535635 4288056684
-0.30672833 0.065970451 -0.10397069 4288713336
-0.30837575 0.067194626 -0.1083015 4288318836
-0.3127839 0.067910574 -0.11786506 4287727720
-0.31419674 0.069262177 -0.12181789 4287728492
-0.31670797 0.070444033 -0.12787835 4288254066
-0.32040286 0.071467631 -0.13622954 4288977274
-0.30366811 0.0011902183 -0.050321847 4285104747
-0.30308253 0.0028396745 -0.050426006 4284313963
-0.30279219 0.0043293182 -0.05101205 4285627240
-0.30279577 0.005665821 -0.052082639 4287662188
-0.30279934 0.0070065395 -0.053156525 4289304184
-0.30250803 0.008501309 -0.053744588 4289700486
-0.3025111 0.0098487493 -0.054822773 4289768597
-0.30221924 0.011346197 -0.05541189 4290753947
-0.30192733 0.012843846 -0.056001097 4291671700
-0.30222425 0.014058849 -0.057580158 4291936407
-0.30193138 0.015561468 -0.058171313 4291019682
-0.30163848 0.017064324 -0.05876255 4291281824
-0.30134553 0.018567378 -0.059353881 4291081631
-0.3007594 0.020203283 -0.059446108 4290158724
-0.30075949 0.021574151 -0.060536802 4290419065
-0.30046642 0.023077898 -0.061128393 4291402093
-0.30017328 0.024581818 -0.061720069 4291727458
-0.29958877 0.026209578 -0.061809074 4291468906
-0.29900596 0.027832644 -0.061897941 4290943094
-0.29871359 0.029332738 -0.062488101 4291269993
-0.29842117 0.030833039 -0.063078344 4291468138
-0.29841742 0.032219414 -0.064173445 4291465567
-0.2975488 0.033945914 -0.063754931 4291332703
-0.29783151 0.035225641 -0.06535615 4291203172
-0.29811591 0.036513284 -0.066967167 4290941796
-0.2986933 0.037702203 -0.069104038 4290876518
-0.29868975 0.039112702 -0.070218712 4290612844
-0.29868609 0.040527742 -0.071336851 4289760885
-0.29868245 0.041947275 -0.072458506 4289303947
-0.2986787 0.043371387 -0.073583663 4289572777
-0.29838139 0.044896804 -0.074183784 4289904056
-0.29779187 0.046516586 -0.074256152 4290034875
-0.29749492 0.048040144 -0.074855544 4290428090
-0.29690754 0.049653128 -0.07492692 4288785575
-0.29661095 0.051174808 -0.075525582 4289305970
-0.29631433 0.052696697 -0.076124318 4289109850
-0.29601768 0.054218844 -0.076723158 4287271515
-0.29572096 0.055741191 -0.077322081 4287008602
-0.29571235 0.057186119 -0.078453735 4287796572
-0.29599306 0.05855995 -0.080125675 4286544983
-0.2962755 0.059942391 -0.081808016 4284507982
-0.29685259 0.06126136 -0.084047697 4283984462
-0.29802814 0.062451154 -0.087419279 4284772436
-0.30166635 0.063095175 -0.095436826 4286283103
-0.30260065 0.06440416 -0.098405458 4287794288
-0.30450058 0.065524712 -0.10321625 4289174142
-0.30611804 0.066738702 -0.10751867 4288779640
-0.30910057 0.067710459 -0.11444431 4287662442
-0.31046614 0.069044694 -0.11832271 4287598186
-0.31150934 0.07046517 -0.12160478 4288125042
-0.31683788 0.071152791 -0.13314402 4287992431
-0.31759441 0.07269948 -0.13593496 4289504122
-0.30281487 0.0071341642 -0.057196219 4291873699
-0.30252117 0.0086405501 -0.057788931 4291611560
-0.30222744 0.010147135 -0.05838174 4291214753
-0.30222991 0.011507784 -0.059475396 4290357391
-0.30223233 0.012872766 -0.060572442 4290818958
-0.30193758 0.014384589 -0.0611673 4291283619
-0.30193946 0.015756465 -0.062268771 4291085977
-0.30134794 0.017408894 -0.062357295 4291283112
-0.30105305 0.018921375 -0.062952437 4290230701
-0.30075812 0.020434098 -0.063547648 4289834404
-0.30046317 0.021947023 -0.064142942 4289699472
-0.29987457 0.023588479 -0.06422887 4289372550
-0.29957998 0.025099577 -0.064823449 4289763459
-0.29899353 0.026734227 -0.064908385 4290090880
-0.29869926 0.028243475 -0.065502241 4290617216
-0.29869586 0.02963417 -0.066607714 4290879873
-0.29869241 0.031029291 -0.067716613 4291140468
-0.29810625 0.032658339 -0.067797661 4290483838
-0.29868534 0.03383293 -0.069944762 4290220156
-0.29868174 0.035241477 -0.071064085 4289760376
-0.29956269 0.03632557 -0.073768206 4289630850
-0.29956028 0.037749212 -0.074902132 4289897107
-0.29926118 0.039283406 -0.075505801 4289900200
-0.29896203 0.040817834 -0.076109558 4289903031
-0.29925525 0.042149674 -0.077786453 4289904317
-0.29806918 0.043985944 -0.076782398 4289968825
-0.29777032 0.045518696 -0.0773855 4290428597
-0.29717886 0.047145277 -0.077453524 4288455332
-0.29688039 0.048676126 -0.078055881 4286152821
-0.29629111 0.050295848 -0.078122914 4288906841
-0.29599303 0.05182483 -0.078724526 4290943832
-0.29569486 0.053354014 -0.079326227 4290549079
-0.29539669 0.054883424 -0.079928026 4290223195
-0.29538745 0.056333788 -0.081068985 4289368925
-0.29537806 0.0577888 -0.082213514 4287922263
-0.29565933 0.059173245 -0.083907515 4285757265
-0.29594231 0.060566436 -0.085612051 4284180815
-0.29681641 0.061824877 -0.088441469 4284247377
-0.29951161 0.062672533 -0.094739266 4285363289
-0.30042768 0.063972734 -0.097689502 4286875242
-0.30229399 0.065083139 -0.10246922 4288256381
-0.30420259 0.066219009 -0.10735754 4288583549
-0.30648345 0.067314029 -0.11298931 4287531114
-0.30781814 0.068636276 -0.1168301 4287466602
-0.30951464 0.069916837 -0.12139186 4288189809
-0.31194079 0.071098015 -0.12739554 4288123248
-0.31301168 0.072557338 -0.13079594 4288189295
-0.30283016 0.0072640227 -0.061297968 4291609764
-0.30253407 0.0087821865 -0.061895426 4291608484
-0.30223796 0.010300544 -0.062492948 4291075731
-0.30224025 0.011672122 -0.063601412 4290942854
-0.3019436 0.013193257 -0.064200021 4291540633
-0.30164689 0.01471462 -0.064798735 4291742628
-0.30135015 0.016236182 -0.065397538 4291348383
-0.30105335 0.017757988 -0.065996423 4291217839
-0.30046028 0.019415462 -0.066080011 4289839287
-0.30016384 0.020935388 -0.066678159 4289837738
-0.29986736 0.022455545 -0.067276403 4289640623
-0.29927683 0.024104036 -0.067358159 4289376948
-0.29868808 0.02574772 -0.067439802 4289507247
-0.29868457 0.027140843 -0.068553247 4289702823
-0.29838839 0.028659586 -0.069150932 4289899175
-0.29809213 0.030178538 -0.069748707 4289898662
-0.29896817 0.03122942 -0.072440527 4289834153
-0.2998549 0.032293465 -0.075165577 4289769131
-0.30045179 0.033486661 -0.07738357 4289770671
-0.30015033 0.035032362 -0.077991851 4289706423
-0.29984882 0.036578283 -0.07860025 4289641403
-0.29954728 0.038124431 -0.079208709 4289707197
-0.29924572 0.039670806 -0.079817265 4290230966
-0.29894406 0.041217417 -0.080425918 4290624688
-0.29804909 0.042966101 -0.079946637 4288984491
-0.2977483 0.04450839 -0.080553584 4287205259
-0.29715315 0.046146631 -0.080617301 4285624935
-0.29685274 0.04768699 -0.081223495 4284508501
-0.29625973 0.049318276 -0.081286222 4285951312
-0.29595971 0.050856747 -0.081891656 4287919950
-0.29536891 0.052481107 -0.081953458 4288314448
-0.29506925 0.054017678 -0.082558148 4287592275
-0.29476953 0.055554453 -0.083162934 4287264085
-0.29504928 0.056933984 -0.084862538 4288449882
-0.29503918 0.058399227 -0.086020134 4288319323
-0.29532102 0.059794437 -0.087736651 4285097809
-0.29619384 0.061052091 -0.090588182 4283984720
-0.29797831 0.062109057 -0.095199563 4284575571
-0.29857862 0.063474618 -0.097563386 4285823837
-0.30041817 0.064576015 -0.10232661 4287532914
-0.30229929 0.065702543 -0.10719766 4288978301
-0.30487287 0.066719353 -0.11343987 4287795312
-0.30619195 0.068034612 -0.11727815 4287268969
-0.30753297 0.069371998 -0.12118055 4287794543
-0.31026885 0.070478119 -0.12783669 4288254836
-0.31238055 0.071744189 -0.13330594 4287795054
-0.30284518 0.0073961858 -0.065463118 4290492316
-0.30254665 0.0089263013 -0.066065356 4290422936
-0.30285156 0.010155682 -0.067709833 4290685595
-0.3022503 0.011839302 -0.067791305 4290488971
-0.3019512 0.013372442 -0.068394743 4291802525
-0.30135217 0.015048982 -0.068475239 4292003495
-0.30075493 0.016720613 -0.068555593 4291805603
-0.30045661 0.018249735 -0.069157444 4291215525
-0.29986155 0.019914363 -0.069236793 4287867783
-0.29956362 0.021441592 -0.069837898 4286683804
-0.29897073 0.023099273 -0.069916241 4287540402
-0.29867312 0.024624599 -0.070516616 4288722357
-0.29837552 0.026150171 -0.071117066 4289970100
-0.29837137 0.027552729 -0.072243236 4290495669
-0.29836714 0.028959807 -0.0733729 4290561204
-0.30105358 0.029281184 -0.07935632 4290626995
-0.30196854 0.030351423 -0.082171701 4290692018
-0.30196974 0.031796683 -0.083343767 4290692017
-0.30074877 0.033714827 -0.08229474 4290429619
-0.30044433 0.035275299 -0.082908936 4289904307
-0.29983762 0.036947299 -0.08296942 4288657333
-0.29923275 0.038614303 -0.083029807 4287210405
-0.29892913 0.040170632 -0.083642371 4286940802
-0.29832658 0.041830488 -0.083701842 4286018923
-0.2977258 0.043485433 -0.083761171 4284771937
-0.29712686 0.045135498 -0.083820425 4284115030
-0.29652974 0.046780661 -0.083879605 4283983696
-0.29593438 0.048421025 -0.083938643 4284377423
-0.29563281 0.049966697 -0.084547028 4286414162
-0.29503968 0.051600039 -0.084605135 4288711509
-0.29473853 0.053143781 -0.085212745 4289693268
-0.29443729 0.054687761 -0.085820451 4289564503
-0.29442617 0.056151666 -0.086981416 4289568094
-0.294415 0.057620313 -0.088146068 4289432409
-0.29469559 0.059017535 -0.089874566 4287328338
-0.29527211 0.060349122 -0.092180312 4284704848
-0.29674891 0.061473787 -0.096236706 4284181842
-0.29764581 0.062764533 -0.099192023 4284969559
-0.29886094 0.064001493 -0.10278188 4286743140
-0.30103573 0.06505014 -0.10826372 4288584310
-0.30359057 0.066057391 -0.11452179 4287862393
-0.30489889 0.067367278 -0.11836915 4287662187
-0.30757195 0.068433687 -0.12492703 4287400556
-0.31032702 0.069533065 -0.13168615 4287927409
-0.31139207 0.070989378 -0.13513371 4287993200
-0.3160983 0.071836896 -0.14584605 4288778864
-0.30346587 0.0058303429 -0.069614172 4289903521
-0.30316448 0.0073747612 -0.070222139 4290955436
-0.302863 0.0089194058 -0.070830218 4291478952
-0.30225793 0.010615423 -0.070907548 4290753946
-0.30195686 0.012158144 -0.07151483 4291470231
-0.30135399 0.013847005 -0.071591116 4292332709
-0.30105329 0.015387779 -0.072197653 4292001190
-0.30075255 0.016928788 -0.072804287 4291806629
-0.30015233 0.018608391 -0.072878771 4289507473
-0.29955396 0.020283036 -0.072953127 4286482541
-0.29925403 0.021819955 -0.073558159 4285494377
-0.29895404 0.02335714 -0.074163273 4286084459
-0.29865399 0.024894526 -0.074768491 4286871151
-0.29865009 0.026306072 -0.075909019 4287003506
-0.29834953 0.02784628 -0.076515324 4286938999
-0.30135795 0.028026739 -0.083141342 4286939513
-0.30166507 0.029346587 -0.084877066 4286939513
-0.30135819 0.030918967 -0.085496046 4287135863
-0.30074531 0.032610536 -0.085552931 4287199856
-0.29983065 0.034412805 -0.085050032 4286936427
-0.2998282 0.03586521 -0.086227022 4287591014
-0.29952213 0.037433587 -0.086844429 4287992939
-0.29891384 0.039110605 -0.086899355 4286946149
-0.29800758 0.040887862 -0.086394206 4285826911
-0.29740438 0.04255211 -0.08644975 4285301085
-0.296803 0.044211417 -0.086505212 4286675797
-0.29620349 0.045865808 -0.086560629 4286544211
-0.29531243 0.047609311 -0.086060785 4284903760
-0.29500985 0.049159873 -0.086671166 4285231182
-0.29441574 0.050799619 -0.086726345 4287853903
-0.29411352 0.05234823 -0.087335967 4290807634
-0.29381126 0.053897072 -0.087945677 4291732826
-0.29379901 0.055364389 -0.089113623 4290488158
-0.29378667 0.05683649 -0.090285294 4289960027
-0.29406607 0.058235686 -0.092025973 4289432407
-0.29464132 0.059567876 -0.094349168 4286216019
-0.29551923 0.060838383 -0.09727405 4284312402
-0.29670978 0.062052108 -0.10082603 4284444500
-0.29791933 0.063285448 -0.1044348 4285626202
-0.29977193 0.064397603 -0.10932998 4287204203
-0.30263013 0.06532494 -0.1162404 4287336569
-0.30360559 0.066699833 -0.11946036 4287990381
-0.30659541 0.067688197 -0.12670387 4287400813
-0.30968735 0.068710603 -0.1341951 4287466858
-0.31075159 0.070166394 -0.13767202 4288124275
-0.31582832 0.070930846 -0.14922786 4288122737
-0.30317429 0.0047203852 -0.072229594 4291152038
-0.30287135 0.0062721004 -0.072840534 4291611308
-0.30256838 0.0078240512 -0.073451571 4291610536
-0.30226538 0.0093762251 -0.074062675 4291085219
-0.30196232 0.010928627 -0.074673884 4291081626
-0.3013556 0.012629963 -0.074745923 4290819988
-0.30105293 0.0141804 -0.075356364 4289571734
-0.30075023 0.015731081 -0.075966887 4288457109
-0.30014616 0.017423054 -0.076037034 4287338371
-0.29984382 0.018971777 -0.07664679 4285299814
-0.29924205 0.020656563 -0.076715976 4284444507
-0.29894006 0.022203326 -0.077324979 4284444250
-0.29893652 0.023619302 -0.078476608 4284575064
-0.29893297 0.025039908 -0.079631932 4284509786
-0.29862991 0.026592186 -0.080243096 4284510045
-0.29983076 0.027517758 -0.083615437 4284443997
-0.30074355 0.028583849 -0.086475633 4284509534
-0.3007426 0.030035598 -0.08766216 4284508761
-0.30043462 0.031613283 -0.088283308 4284573780
-0.30012655 0.033191193 -0.088904567 4284507986
-0.29981846 0.034769349 -0.089525923 4285426000
-0.29920578 0.036460984 -0.089576989 4286547286
-0.29859498 0.038147531 -0.089628011 4287073878
-0.29768535 0.039936285 -0.089112073 4287729240
-0.29737902 0.041505445 -0.08972989 4287926874
-0.29647592 0.043278579 -0.089215383 4289172823
-0.29557842 0.045040894 -0.088704206 4288844120
-0.29497969 0.046696875 -0.088756472 4286347346
-0.29438278 0.048347939 -0.088808708 4284704588
-0.29378766 0.049994133 -0.088860832 4285754189
-0.29348439 0.051547632 -0.089472473 4288903247
-0.29318109 0.053101372 -0.09008421 4290742867
-0.29316771 0.054572094 -0.091259278 4290485595
-0.29315421 0.056047637 -0.092438042 4290553182
-0.29343247 0.057448834 -0.09419103 4289501275
-0.29400638 0.058781598 -0.096531816 4287664219
-0.2945857 0.060127199 -0.098894797 4284836436
-0.29547003 0.061411668 -0.10187193 4284182098
-0.29666954 0.062639989 -0.10548919 4284707157
-0.29850793 0.063744955 -0.11039641 4285889888
-0.30134523 0.064661659 -0.1173245 4286809708
-0.30231208 0.066032298 -0.12055176 4287531883
-0.31184936 0.065648675 -0.14100255 4287533423
-0.31440184 0.066815935 -0.14751558 4287202920
-0.31702721 0.068016797 -0.15421484 4287991154
-0.31972861 0.069252737 -0.16110834 4287927671
-0.30350053 0.0046733925 -0.077120267 4288982423
-0.30288571 0.0063999728 -0.077188984 4288586893
-0.30196628 0.0082778493 -0.076711804 4288519043
-0.30196768 0.009683582 -0.077872731 4288516727
-0.30135703 0.011397635 -0.077940308 4288515952
-0.30105233 0.012957854 -0.078554697 4288713328
-0.3007476 0.014518322 -0.079169162 4288844403
-0.3001397 0.016222799 -0.079234935 4288057453
-0.29983535 0.017781304 -0.079848632 4286680683
-0.29922971 0.019478515 -0.079913363 4285828976
-0.29892573 0.02103504 -0.080526285 4285695334
-0.29892206 0.022458117 -0.081690252 4286217307
-0.29891828 0.023885891 -0.082857907 4285626974
-0.29891449 0.025318358 -0.084029354 4284511323
-0.30012694 0.026241271 -0.08745832 4284117081
-0.30073982 0.027436124 -0.089791425 4283986009
-0.30073869 0.028895373 -0.090990849 4285819734
-0.30012068 0.030606445 -0.091039844 4287332183
-0.29981109 0.032191966 -0.091664173 4287726424
-0.29919541 0.033895552 -0.091712162 4287988566
-0.29888621 0.035479017 -0.092335694 4288514645
-0.29796985 0.037287332 -0.091808006 4289432660
-0.29735985 0.038975563 -0.091855817 4290283859
-0.29675174 0.040658735 -0.091903567 4290811220
-0.29584768 0.042440169 -0.091380805 4291273302
-0.29524472 0.044110436 -0.091429263 4290487130
-0.29434949 0.045873236 -0.090910606 4287530326
-0.29375157 0.04753083 -0.090959743 4284902223
-0.29344681 0.049091469 -0.091574289 4284443727
-0.29314202 0.050652359 -0.092188917 4286412369
-0.29283714 0.052213449 -0.092803642 4288644437
-0.29282308 0.053689763 -0.09398859 4289238876
-0.29280886 0.055170946 -0.095177263 4290092636
-0.29308718 0.056576069 -0.096947215 4289633114
-0.29336721 0.057990283 -0.098728336 4288848222
-0.29394519 0.059336469 -0.10110936 4286805590
-0.29482818 0.060620073 -0.10411015 4284771410
-0.29572242 0.061920382 -0.10714947 4284247890
-0.29786313 0.062945746 -0.11270607 4285036119
-0.30069908 0.063852437 -0.11969519 4286349665
-0.30166474 0.065222323 -0.12294906 4287268966
-0.31084576 0.064872131 -0.14286956 4287665006
-0.31338844 0.066030614 -0.14942054 4287268714
-0.31675747 0.067075148 -0.15769663 4287727723
-0.31831008 0.06852141 -0.16230537 4288058230
-0.30227435 0.0026345619 -0.076987073 4287272829
-0.30227628 0.0040352638 -0.078151911 4286354040
-0.30227813 0.0054406058 -0.07932049 4286484081
-0.30197155 0.0070100524 -0.079938583 4288056170
-0.30166492 0.0085797235 -0.080556795 4287863147
-0.30135825 0.010149644 -0.081175089 4286745712
-0.30105153 0.011719782 -0.081793457 4287467383
-0.30074474 0.013290144 -0.082411945 4289303927
-0.30043793 0.014860755 -0.083030507 4290356092
-0.29982653 0.016575743 -0.083090842 4289965450
-0.29921699 0.018285599 -0.083151042 4289177485
-0.29891101 0.019851975 -0.083767943 4289041275
-0.29890716 0.021282237 -0.08494442 4287861881
-0.29890323 0.022717234 -0.086124673 4285759855
-0.29859614 0.024289228 -0.086743794 4284972128
-0.30011916 0.025076633 -0.090785645 4284643678
-0.30073577 0.026273631 -0.093149699 4284315742
-0.30042413 0.027868891 -0.093777977 4285887834
-0.29980358 0.02958985 -0.093822882 4287201881
-0.29918495 0.031305589 -0.093867704 4288316760
-0.29887417 0.032896474 -0.094494276 4289037908
-0.29825789 0.034604695 -0.094538152 4288645202
-0.29734048 0.036421597 -0.094001934 4289105746
-0.29672948 0.038116634 -0.09404657 4290480211
-0.29612035 0.039806526 -0.094091192 4291530581
-0.29551306 0.041491374 -0.094135724 4291925076
-0.2946113 0.043273296 -0.093605347 4291402838
-0.29400915 0.044945233 -0.093650624 4289567321
-0.29340884 0.046612155 -0.093695842 4286676822
-0.29281038 0.048274111 -0.093740992 4284574801
-0.29250449 0.049839959 -0.094357692 4284970065
-0.29219857 0.05140603 -0.094974458 4287335513
-0.29189259 0.052972328 -0.095591336 4289239644
-0.29216799 0.054370452 -0.097362623 4289960537
-0.29215255 0.055859998 -0.098562457 4290815322
-0.2927238 0.057193834 -0.10093898 4289568345
-0.29330042 0.058540609 -0.10333816 4289696088
-0.29388252 0.059900492 -0.10576037 4286082899
-0.29507482 0.061122794 -0.10942652 4284182097
-0.29690379 0.062216084 -0.11440267 4284444757
-0.30004841 0.063037701 -0.12208174 4285888860
-0.30133766 0.064333752 -0.12602478 4286873958
-0.31055069 0.063938335 -0.14620048 4287860345
-0.31383917 0.064936191 -0.15434565 4287726961
-0.31648454 0.066123158 -0.16121636 4288253039
-0.30166486 0.0016630682 -0.079117879 4288060026
-0.30166572 0.003066743 -0.080289885 4286222447
-0.30166656 0.0044750599 -0.081465676 4286419564
-0.30166727 0.0058880933 -0.082645252 4288059752
-0.30166799 0.0073058116 -0.083828673 4287404140
-0.30135927 0.0088857627 -0.084451012 4287996296
-0.30105048 0.01046593 -0.085073434 4288394671
-0.3004342 0.012198344 -0.085130841 4289306020
-0.30012581 0.013776491 -0.085752472 4290226853
-0.29951191 0.015501397 -0.08580894 4290687148
-0.2992039 0.017077509 -0.086429775 4290349967
-0.2988959 0.018653875 -0.087050684 4291009923
-0.29828471 0.020369085 -0.087105244 4289706409
-0.29827967 0.02180725 -0.088292807 4287734172
-0.29827458 0.02325022 -0.089484155 4285762675
-0.29887938 0.024432661 -0.09183082 4284777059
-0.29948995 0.025626671 -0.094200008 4284711010
-0.29917821 0.027222037 -0.094828404 4285102943
-0.29886642 0.028817609 -0.095456913 4285561433
-0.29824817 0.030537393 -0.095499381 4287266646
-0.29824269 0.032009497 -0.096714184 4288645203
-0.29762536 0.033724681 -0.096754842 4287924561
-0.29700992 0.035434637 -0.096795417 4287005265
-0.29639637 0.037139408 -0.096835978 4287789650
-0.29578477 0.038838983 -0.096876509 4289363538
-0.29487637 0.040640458 -0.09633413 4290150992
-0.29426995 0.042326946 -0.096375473 4291005265
-0.29337049 0.044109382 -0.095837399 4291600215
-0.29276919 0.045782968 -0.095879495 4289697881
-0.29216975 0.047451518 -0.095921516 4286150741
-0.29186279 0.04902235 -0.096540257 4284574544
-0.29184687 0.050502904 -0.097738676 4286084433
-0.29153934 0.052076682 -0.098358579 4289366099
-0.2918148 0.053478684 -0.10014705 4290812757
-0.29179862 0.054973971 -0.1013571 4291012957
-0.29266641 0.056227576 -0.10435475 4289696087
-0.29294837 0.057659123 -0.10618256 4291207258
-0.29383177 0.058942486 -0.10924017 4287857748
-0.29472655 0.060242616 -0.11233737 4284772177
-0.29625016 0.061407775 -0.11673705 4284444499
-0.29939324 0.062217459 -0.12448439 4285494361
-0.30068117 0.063511081 -0.12846078 4286350697
-0.3056927 0.064005777 -0.14014992 4287860085
-0.30919364 0.064911656 -0.14878273 4287796851
-0.30166894 0.0017554339 -0.083565034 4287929979
-0.30135971 0.0033372785 -0.084188223 4286945904
-0.30135986 0.0047553359 -0.085377872 4287143275
-0.30135998 0.0061781094 -0.086571418 4286286192
-0.30136004 0.0076056332 -0.087768853 4290227613
-0.30104917 0.0091959843 -0.088395379 4290759371
-0.30042887 0.010941538 -0.088447995 4289892777
-0.30011842 0.012529817 -0.089073718 4289305273
-0.29950047 0.014267756 -0.089125372 4289823913
-0.2991904 0.015853969 -0.089750282 4290145404
-0.29888031 0.017440436 -0.090375274 4291332472
-0.29826516 0.019168528 -0.090425082 4290492071
-0.29795545 0.020752937 -0.091049261 4290299075
-0.29764572 0.022337584 -0.091673546 4288195745
-0.2976394 0.02378859 -0.092876188 4285436277
-0.29824391 0.024979614 -0.09525051 4284843623
-0.29793206 0.026575049 -0.095879041 4285038948
-0.29792607 0.028042795 -0.097096398 4285169246
-0.29761359 0.029641265 -0.097726129 4287137113
-0.29760697 0.03111673 -0.098948553 4288581974
-0.29729393 0.032718241 -0.099579483 4288187987
-0.29667595 0.034438096 -0.099615887 4286806353
-0.29605991 0.036152717 -0.099652238 4285754449
-0.29544577 0.037862074 -0.099688619 4286937169
-0.294534 0.039675318 -0.099134892 4288710480
-0.29392511 0.041371457 -0.0991721 4290219601
-0.29302236 0.043165475 -0.098622799 4291531600
-0.29241869 0.044848535 -0.098660827 4291271508
-0.2918168 0.04652654 -0.098698795 4288647257
-0.29150829 0.048104912 -0.099320605 4285559892
-0.29149163 0.04959112 -0.10052921 4284771406
-0.29147485 0.05108225 -0.10174167 4286213966
-0.29175174 0.052490078 -0.10355237 4288643921
-0.2917352 0.053993389 -0.10477561 4290946906
-0.29260805 0.055248827 -0.10781444 4290423133
-0.29289147 0.056686513 -0.10966516 4291073117
-0.29347792 0.058052953 -0.11214551 4290350417
-0.29407001 0.059432913 -0.11465004 4286480213
-0.2955921 0.060594022 -0.11908693 4284575572
-0.29873341 0.061391611 -0.12690316 4284970075
-0.29969525 0.062759109 -0.13023844 4286023528
-0.3046881 0.063234054 -0.14199682 4286679142
-0.30104977 0.0021885135 -0.086936966 4288192888
-0.3013607 0.003444413 -0.088712156 4287011180
-0.3013607 0.0048742904 -0.089918807 4285959539
-0.30136061 0.0063090026 -0.0911294 4289439134
