# .PCD v0.7 - Point Cloud Data file format
VERSION 0.7
FIELDS x y z rgba
SIZE 4 4 4 4
TYPE F F F U
COUNT 1 1 1 1
WIDTH 999
HEIGHT 1
VIEWPOINT 0 0 0 1 0 0 0
POINTS 999
DATA ascii
-0.32326439 0.0025880628 -0.033197034 4283393346
-0.32270992 0.0042764968 -0.033131395 4283460168
-0.3228229 0.0057666036 -0.034045242 4284051530
-0.32226902 0.0074506775 -0.03397844 4284644175
-0.32238123 0.0089460835 -0.034893721 4286223961
-0.32249382 0.010446309 -0.035811886 4287529059
-0.32227257 0.012039052 -0.036236923 4287669637
-0.32271984 0.013461244 -0.037656818 4288329368
-0.3221634 0.015142439 -0.037584487 4288847506
-0.32160863 0.016818721 -0.037512407 4290684557
-0.32039511 0.018644825 -0.036451031 4289891465
-0.31951895 0.020380413 -0.035889551 4289694362
-0.31864807 0.022105766 -0.035331514 4290422664
-0.3174606 0.023889402 -0.034291364 4289890659
-0.31660238 0.025591711 -0.03374248 4290875254
-0.31574926 0.027284022 -0.0331969 4286818711
-0.3152163 0.02890618 -0.033133451 4288779602
-0.3146849 0.030523708 -0.03307024 4285493328
-0.31384251 0.032191977 -0.03253011 4283395658
-0.31331542 0.033797868 -0.032468181 4283001158
-0.31278992 0.035399243 -0.032406528 4282672451
-0.31257477 0.036948126 -0.032819845 4282540866
-0.31235957 0.038497258 -0.033233255 4282541396
-0.31214437 0.040046614 -0.033646699 4286489463
-0.31192914 0.041596178 -0.034060206 4289771643
-0.31140628 0.043184735 -0.033996597 4289704066
-0.31149852 0.044696007 -0.034887429 4288194442
-0.31159103 0.046212003 -0.035780981 4287015818
-0.31106782 0.047796756 -0.035714883 4285434730
-0.31085244 0.049347483 -0.036128692 4283525194
-0.31033102 0.050925691 -0.036062308 4283199049
-0.30981112 0.052499488 -0.035996173 4284704845
-0.30959627 0.054046281 -0.036408935 4284968528
-0.30938137 0.055593327 -0.036821783 4285032527
-0.30916643 0.057140589 -0.037234675 4284379727
-0.3089515 0.058688086 -0.037647627 4283329355
-0.30843422 0.060249195 -0.037579544 4283131464
-0.30761829 0.061817013 -0.03703285 4283590989
-0.30710521 0.063367084 -0.036966082 4285167706
-0.32128081 0.00086506468 -0.032364819 4285168742
-0.32106099 0.0024468615 -0.032787018 4283196738
-0.32084113 0.0040288689 -0.033209287 4283328583
-0.32062128 0.0056111291 -0.033631593 4283919947
-0.32040137 0.0071936245 -0.034053981 4284774222
-0.32051033 0.0086841965 -0.034966737 4285831010
-0.32061955 0.010179558 -0.035882317 4289831802
-0.32039887 0.011767561 -0.036306161 4289630342
-0.32083896 0.013184682 -0.037722059 4288900218
-0.32028696 0.014861289 -0.037649915 4289823601
-0.31973666 0.016532989 -0.037578113 4290668636
-0.3188611 0.018277528 -0.037012398 4290671974
-0.31799081 0.020011732 -0.036450196 4289760404
-0.31712574 0.021735677 -0.035891425 4291273855
-0.31594682 0.023518415 -0.034850415 4290675050
-0.31509435 0.025219392 -0.034300797 4291067502
-0.31424689 0.026910415 -0.033754509 4286753948
-0.3140302 0.028469838 -0.034170739 4288712527
-0.31350046 0.030088155 -0.034106091 4285229644
-0.31266147 0.031757798 -0.033563003 4283197509
-0.31213605 0.033364467 -0.033499647 4282869313
-0.31161216 0.034966573 -0.03343657 4282671680
-0.31108981 0.036564171 -0.03337374 4282671937
-0.31087485 0.038111098 -0.033786628 4282737736
-0.31065986 0.039658263 -0.034199581 4284774485
-0.31013957 0.041247234 -0.0341359 4286543959
-0.30992484 0.042792562 -0.034548346 4286477141
-0.30971006 0.044338115 -0.034960873 4285559384
-0.30979952 0.045849204 -0.035852011 4284380760
-0.3092804 0.047429912 -0.035786115 4283526735
-0.30906555 0.048976153 -0.03619881 4282934853
-0.30854818 0.050550375 -0.036132615 4282737731
-0.30803236 0.052120175 -0.036066685 4283261763
-0.30781803 0.053662527 -0.036478363 4283327814
-0.30760366 0.055205099 -0.03689009 4283196488
-0.30738926 0.056747902 -0.037301876 4283000133
-0.30717483 0.058290944 -0.037713729 4282803526
-0.30636373 0.059862088 -0.037167482 4283000134
-0.30585322 0.061412644 -0.037100714 4283262796
-0.3053441 0.062958889 -0.03703415 4284576859
-0.31942201 0.00062821485 -0.032444775 4285103205
-0.31920275 0.0022053276 -0.032865811 4283065409
-0.31898347 0.0037826579 -0.033286903 4283065924
-0.31876415 0.0053602271 -0.033708066 4283525962
-0.31822038 0.0070324061 -0.033642475 4284773966
-0.31832543 0.0085160695 -0.034550563 4285307750
-0.31843075 0.010004479 -0.03546147 4290622082
-0.31821096 0.011585359 -0.035883516 4289624963
-0.31864226 0.012995596 -0.037291765 4288898686
-0.31842175 0.01458175 -0.037715212 4291138424
-0.31820121 0.016168147 -0.038138721 4290345068
-0.31733152 0.017911253 -0.037572298 4290939244
-0.31678885 0.019568803 -0.037501246 4291204476
-0.3159273 0.021294195 -0.036939416 4292582778
-0.31507093 0.023009427 -0.03638107 4292254847
-0.31421968 0.02471458 -0.035826124 4290751864
-0.31337348 0.026409755 -0.035274547 4286354558
-0.31315634 0.027971644 -0.035691522 4286681167
-0.31231579 0.029652487 -0.035142135 4284049223
-0.31148022 0.031323563 -0.034596074 4282869057
-0.31064954 0.032984931 -0.034053307 4282671936
-0.31012854 0.03458536 -0.033989623 4282605888
-0.30960906 0.036181245 -0.033926155 4282671681
-0.30909103 0.037772674 -0.033862945 4282737218
-0.30887657 0.039315373 -0.034274794 4283065412
-0.30836037 0.040900271 -0.034211304 4283457859
-0.30814615 0.042441148 -0.034622647 4283457603
-0.3079319 0.043982252 -0.035034072 4283195715
-0.30801836 0.045488451 -0.035922792 4282803013
-0.30750331 0.047065143 -0.035857096 4282737221
-0.30728894 0.048606928 -0.036268707 4282737731
-0.30677566 0.050177168 -0.036202706 4282672194
-0.30626383 0.051743004 -0.036136962 4282737730
-0.30605003 0.053280935 -0.036547534 4282803522
-0.3058362 0.054819096 -0.036958169 4282803523
-0.30562231 0.056357469 -0.03736886 4282803781
-0.30540842 0.057896078 -0.037779614 4282869576
-0.30460477 0.059463877 -0.037234928 4282935372
-0.30439144 0.060998414 -0.037644595 4283001942
-0.30359307 0.062553011 -0.037101991 4284446823
-0.31757423 0.00039271885 -0.032524414 4285168229
-0.31767815 0.0018632886 -0.03342931 4282933569
-0.31713679 0.0035378565 -0.033364218 4282868803
-0.31691802 0.0051107672 -0.033784226 4283197511
-0.31669924 0.0066839256 -0.034204282 4284379468
-0.31680173 0.008164932 -0.035111953 4285632606
-0.31690446 0.0096506588 -0.036022455 4289570935
-0.3166849 0.011229282 -0.036443975 4290550663
-0.31808639 0.0123768 -0.039342705 4291010944
-0.3178651 0.01396791 -0.03976756 4292001687
-0.31764376 0.015559286 -0.040192489 4291149211
-0.31644985 0.017388698 -0.039120842 4290822299
-0.3159076 0.019049633 -0.039047483 4289968796
-0.31504729 0.020779315 -0.038480241 4289180059
-0.31419221 0.022498801 -0.037916522 4288125314
-0.31302801 0.024275905 -0.036868252 4287729245
-0.31218526 0.025972508 -0.036313657 4285367895
-0.31165731 0.027596926 -0.03624589 4284184906
-0.31113091 0.029216763 -0.036178377 4283065412
-0.31029874 0.030889245 -0.035629347 4282671680
-0.30916724 0.032606471 -0.034605514 4282671936
-0.30834696 0.034257036 -0.034065288 4282540608
-0.3078315 0.035848822 -0.034002036 4282671681
-0.30761728 0.037389144 -0.034413334 4282737216
-0.3071036 0.038974427 -0.034349743 4282671938
-0.30659139 0.040555272 -0.034286432 4282737216
-0.30637771 0.042091724 -0.034696683 4282737473
-0.306164 0.043628398 -0.035107017 4282606405
-0.3062475 0.045129757 -0.035993334 4282606407
-0.30573645 0.046702433 -0.035927843 4282671941
-0.30552262 0.048239797 -0.036338344 4282737733
-0.30501336 0.04980607 -0.0362726 4282803525
-0.3045055 0.051367965 -0.036207054 4283000134
-0.3042922 0.052901488 -0.03661653 4283328072
-0.30407888 0.054435246 -0.037026078 4283983689
-0.30386555 0.055969242 -0.037435666 4284966986
-0.30365217 0.057503443 -0.037845336 4285886800
-0.30314687 0.059052892 -0.037777886 4286084186
-0.30264309 0.060598079 -0.037710723 4286351731
-0.31605661 5.4244792e-05 -0.033086844 4285298789
-0.31583813 0.0016244452 -0.033506192 4282998593
-0.31530106 0.0032944623 -0.033441294 4282737218
-0.31540108 0.0047655334 -0.034345102 4282934084
-0.31486461 0.0064312504 -0.034279056 4283722568
-0.3152824 0.0078147901 -0.035671856 4285696339
-0.31538257 0.0092978543 -0.036581937 4287335005
-0.31516325 0.010874174 -0.037002932 4287923308
-0.31655091 0.012017341 -0.039901651 4288057200
-0.31632984 0.013606166 -0.040325973 4288254840
-0.31610873 0.0151952 -0.040750366 4288122997
-0.31524387 0.016944136 -0.040175363 4287663985
-0.31438425 0.018682716 -0.039603919 4286680175
-0.31352973 0.020411002 -0.039035976 4285433964
-0.31268039 0.02212912 -0.038471531 4284250459
-0.31183612 0.023837131 -0.037910547 4284443977
-0.31099683 0.025535157 -0.037352946 4283789126
-0.31047055 0.02716036 -0.037283748 4282869572
-0.30963901 0.028841333 -0.036730647 4282737218
-0.30850872 0.030570123 -0.035700444 4282671424
-0.3076891 0.032229047 -0.035156261 4282606401
-0.30687428 0.033878393 -0.034615334 4282606403
-0.30636165 0.035468504 -0.034551457 4282803012
-0.30585051 0.037054177 -0.034487825 4282671944
-0.30534086 0.038635392 -0.034424488 4282606667
-0.30483264 0.040212214 -0.034361336 4282737739
-0.30461946 0.041744262 -0.0347705 4283131474
-0.30440626 0.043276537 -0.035179745 4284049742
-0.30448684 0.044773068 -0.036063697 4285164108
-0.30427328 0.04630807 -0.036473654 4285753931
-0.30376646 0.047874756 -0.036407802 4286871634
-0.3032611 0.049437087 -0.036342215 4287132755
-0.30304804 0.050968245 -0.036751144 4286608209
-0.30283499 0.052499637 -0.037160128 4286937175
-0.30262187 0.054031249 -0.037569188 4287593820
-0.30211881 0.055583179 -0.037502266 4288118621
-0.30190596 0.057113003 -0.037910834 4288709728
-0.30140463 0.058658633 -0.037843611 4288905577
-0.30119202 0.060186684 -0.038251724 4289700238
-0.30069235 0.061726023 -0.038184196 4289771686
-0.31422684 -0.00017859535 -0.033164535 4285166433
-0.31432503 0.0012846857 -0.034066547 4282933058
-0.31379095 0.0029527857 -0.034001026 4282605890
-0.31388843 0.0044212439 -0.034904405 4282802240
-0.31335491 0.0060851038 -0.034837756 4283000132
-0.31345168 0.0075587332 -0.035742518 4284182344
-0.31354874 0.0090370513 -0.036650073 4284706633
-0.31332996 0.010608749 -0.03706992 4284443728
-0.31406114 0.011920978 -0.038967688 4284182615
-0.3141596 0.013415566 -0.039885819 4284378705
-0.31425828 0.014914961 -0.040806789 4284377936
-0.31340155 0.016659558 -0.040233485 4284181068
-0.31286532 0.0183168 -0.04015886 4283918922
-0.31201661 0.02004371 -0.039590266 4283590986
-0.31117293 0.021760464 -0.039025076 4283131718
-0.31033432 0.023467125 -0.038463388 4283065671
-0.30950069 0.025163826 -0.037905108 4282803018
-0.30897734 0.026787277 -0.037835274 4282540875
-0.30815139 0.028466968 -0.037281483 4282868809
-0.30733031 0.030136928 -0.036731023 4283525450
-0.30651408 0.031797238 -0.036183909 4284510289
-0.30540571 0.033500791 -0.03516392 4285427278
-0.30489588 0.035089225 -0.03509945 4286411089
-0.30438757 0.036673225 -0.035035264 4286543447
-0.30388069 0.038252797 -0.034971271 4286806366
-0.30337524 0.039827976 -0.034907527 4286740834
-0.30316228 0.041357905 -0.035316229 4287271289
-0.30294928 0.042888049 -0.035724971 4287857254
-0.30302751 0.044381924 -0.036608543 4288245336
-0.30281416 0.045914762 -0.03701799 4288507481
-0.30260074 0.047447823 -0.037427515 4289628260
-0.30209699 0.049010888 -0.037360542 4289890403
-0.30188382 0.050542168 -0.037769601 4289364828
-0.30138183 0.052098867 -0.037702363 4289237097
-0.30116892 0.053628355 -0.038110927 4289303670
-0.3006686 0.055178709 -0.038043413 4289106300
-0.30045596 0.056706432 -0.038451504 4289040764
-0.29995733 0.058250483 -0.038383674 4289104507
-0.29974493 0.059776414 -0.038791291 4289962649
-0.2995325 0.061302558 -0.039198965 4290362033
-0.31240785 -0.00041016366 -0.033242017 4285165406
-0.31250292 0.0010484904 -0.034141541 4282868035
-0.31197307 0.002712074 -0.034076229 4282605890
-0.31206742 0.0041758697 -0.034977123 4282671425
-0.31184962 0.0057398886 -0.035394985 4282736963
-0.31163177 0.0073041595 -0.03581294 4282998852
-0.31172562 0.0087777609 -0.036717948 4283065157
-0.3115074 0.010344824 -0.037136625 4283000138
-0.31349325 0.011301483 -0.041014966 4282869328
-0.31359103 0.01279981 -0.041939139 4282934609
-0.31273493 0.014553367 -0.041361582 4282934871
-0.31157011 0.016376618 -0.040291421 4282935127
-0.3110382 0.01802939 -0.040217098 4283656527
-0.31019738 0.019752095 -0.039650079 4284443729
-0.30936161 0.02146465 -0.039086569 4285427280
-0.30883685 0.023098152 -0.039014753 4286672718
-0.30831361 0.024726983 -0.038943231 4287268704
-0.30779192 0.026351195 -0.038871963 4287530082
-0.3069694 0.028032292 -0.038315199 4287726945
-0.30615172 0.029703649 -0.037761793 4287990629
-0.30533886 0.031365354 -0.037211727 4288448625
-0.30423558 0.033070944 -0.036187321 4289435246
-0.30372736 0.034660116 -0.036121462 4289893226
-0.30292869 0.036293317 -0.035581231 4289696104
-0.30213463 0.037917223 -0.035044216 4289565032
-0.3019219 0.039444793 -0.035452358 4289826150
-0.30170915 0.040972576 -0.035860553 4290093433
-0.30178535 0.042461336 -0.036743045 4289695862
-0.30186179 0.0439547 -0.037628204 4289429360
-0.30164832 0.045487657 -0.038037788 4289101173
-0.30143481 0.04702083 -0.038447417 4289169531
-0.30122128 0.048554234 -0.038857121 4289957491
-0.30071941 0.050116017 -0.038788226 4290024042
-0.30050611 0.051647615 -0.039197449 4289895029
-0.30000597 0.053203035 -0.039128307 4289894267
-0.29950726 0.054754119 -0.039059408 4289826166
-0.2992945 0.056281943 -0.039467614 4289627504
-0.29908171 0.057809979 -0.039875876 4289298294
-0.29886889 0.059338223 -0.040284198 4290224536
-0.29894045 0.060854375 -0.041172609 4290755506
-0.29872727 0.062385313 -0.041581649 4289178528
-0.31090865 -0.00074511941 -0.033799689 4285230173
-0.31069148 0.00081365206 -0.034216255 4282868038
-0.31047431 0.0023726441 -0.034632862 4282736968
-0.31025705 0.0039318656 -0.03504955 4282606411
-0.31003982 0.0054913317 -0.035466287 4282934604
-0.31013092 0.0069576614 -0.03636815 4283656275
-0.31022233 0.008428636 -0.037272781 4284773214
-0.31000432 0.0099934768 -0.037690956 4286480987
-0.31071696 0.011297199 -0.03958321 4287333987
-0.31080967 0.01278432 -0.040498301 4287463785
-0.31059024 0.014359285 -0.040919188 4287005810
-0.30974951 0.016095286 -0.040349249 4287205243
-0.30922177 0.017743634 -0.040275108 4288188520
-0.30869561 0.019387279 -0.040201329 4288778093
-0.30786547 0.021098478 -0.039637089 4289696875
-0.3073436 0.02273019 -0.039564691 4291004254
-0.30682328 0.024357256 -0.039492548 4291735671
-0.30630445 0.025979701 -0.039420683 4291667826
-0.30548748 0.027659539 -0.038863227 4290747000
-0.30497289 0.029270314 -0.038792741 4290222710
-0.30416343 0.030933408 -0.03823974 4289958778
-0.30306524 0.03264099 -0.037210897 4290092417
-0.30255863 0.034230899 -0.037143651 4290813053
-0.3017633 0.035865497 -0.03660053 4290482812
-0.30126077 0.037444148 -0.036534566 4290156147
-0.30104762 0.038974062 -0.036943421 4290482282
-0.30083445 0.04050421 -0.037352331 4290941797
-0.30062124 0.042034574 -0.037761293 4291140207
-0.30069584 0.043527406 -0.03864808 4291075191
-0.30048227 0.045060474 -0.039057761 4290678129
-0.30026865 0.046593752 -0.039467521 4289953901
-0.30005503 0.048127264 -0.039877322 4290346339
-0.29955477 0.049689781 -0.039807044 4290481512
-0.29934135 0.051221486 -0.040216371 4290745457
-0.29912791 0.052753426 -0.040625773 4291337073
-0.29862967 0.054307569 -0.040554706 4291465058
-0.2984165 0.055837713 -0.040963616 4290936919
-0.29820329 0.057368085 -0.04137259 4290148967
-0.29827392 0.058883443 -0.042263933 4290685083
-0.29834473 0.060403455 -0.04315798 4290887864
-0.29813081 0.061938997 -0.043568324 4289377201
-0.3094137 -0.0010791541 -0.034355883 4285953382
-0.30919677 0.00047737081 -0.034771938 4283656529
-0.30897978 0.0020341624 -0.035188049 4283329629
-0.30876279 0.0035911635 -0.035604227 4282871907
-0.30885178 0.0050523565 -0.036504976 4283200869
-0.3086344 0.0066121439 -0.036921889 4284713086
-0.30872327 0.0080805048 -0.037826106 4288063894
-0.30850548 0.0096431002 -0.038243786 4290159988
-0.30859426 0.01111867 -0.039151471 4291208309
-0.3083761 0.012684077 -0.039569877 4291601268
-0.30815789 0.014249693 -0.039988354 4291472250
-0.30824614 0.015735129 -0.040900182 4291406469
-0.30772135 0.017381636 -0.040825505 4291865205
-0.30719811 0.019023482 -0.040751066 4291926901
-0.30667639 0.020660618 -0.040676925 4292059248
-0.30615619 0.022293076 -0.040603071 4292316520
-0.30563754 0.023920923 -0.040529504 4292194174
-0.30512035 0.025544103 -0.040456202 4292326531
-0.30430681 0.027225344 -0.039895784 4291275661
-0.30379388 0.028836871 -0.039823879 4290880125
-0.30298778 0.030501354 -0.039267942 4290875501
-0.3021864 0.032156229 -0.038715333 4290811765
-0.30168024 0.033749331 -0.038645875 4291926385
-0.30088621 0.035387821 -0.038097665 4291794293
-0.30009675 0.037016973 -0.037552688 4291334254
-0.29988348 0.038546991 -0.037961654 4291794285
-0.29995698 0.040034384 -0.038848713 4291924321
-0.29945692 0.041607719 -0.038779739 4292189547
-0.2995297 0.043100033 -0.039668132 4292455292
-0.29931602 0.04463321 -0.040077932 4292186723
-0.29910231 0.046166599 -0.040487789 4291132498
-0.29888856 0.047700215 -0.040897712 4290605646
-0.29867476 0.049234066 -0.041307695 4290345814
-0.29846096 0.050768126 -0.041717734 4290807648
-0.29824713 0.052302442 -0.042127844 4291466343
-0.29803324 0.053836942 -0.042538006 4291400041
-0.29781932 0.055371702 -0.042948239 4291136874
-0.29788956 0.056888457 -0.043844584 4290547064
-0.29767528 0.058425911 -0.044255536 4290621091
-0.29803047 0.05993605 -0.045645326 4290691515
-0.29810122 0.061466921 -0.046549812 4289574583
-0.30792302 -0.0014123037 -0.034910612 4287138163
-0.30801061 3.8638507e-05 -0.035808925 4284574810
-0.30748951 0.0016966065 -0.035741773 4283723359
-0.30727273 0.0032513977 -0.036157429 4283265378
-0.30735928 0.0047100023 -0.037057787 4283200613
-0.30744603 0.006173193 -0.037960883 4284581759
-0.30722851 0.0077333269 -0.038377978 4289378721
-0.30701095 0.0092936987 -0.038795136 4291214474
-0.30709723 0.010766639 -0.039702401 4291603844
-0.30718374 0.012244247 -0.040612448 4292126833
-0.30696544 0.013809994 -0.041031048 4292719217
-0.30705178 0.01529486 -0.041944541 4292585071
-0.30652869 0.016942162 -0.041868418 4292450666
-0.30600712 0.018584751 -0.041792523 4292645990
-0.30548707 0.020222656 -0.041716933 4292712291
-0.30496857 0.021855896 -0.04164166 4292646508
-0.30445156 0.023484478 -0.041566651 4292191868
-0.3036387 0.025174223 -0.041002143 4292258430
-0.30283064 0.02685415 -0.040441036 4291867278
-0.3026146 0.028403368 -0.04085521 4292260736
-0.3018119 0.030069247 -0.040296324 4292584304
-0.30101389 0.031725504 -0.039740801 4292650859
-0.30079907 0.033266235 -0.04015271 4293042022
-0.3000063 0.03490869 -0.039599337 4292583541
-0.2995047 0.036493614 -0.039529067 4292319597
-0.29929075 0.03802824 -0.039939333 4292779883
-0.29936343 0.039519355 -0.040831972 4292516965
-0.29886267 0.041098159 -0.04076007 4292189037
-0.29893467 0.042594228 -0.041654039 4292585081
-0.29872024 0.04413202 -0.042065158 4292317797
-0.29850581 0.045670025 -0.042476334 4291329620
-0.29857731 0.047175728 -0.043374378 4290737490
-0.29836249 0.048716445 -0.043786269 4290607699
-0.29843384 0.050229311 -0.0446877 4290607699
-0.29821861 0.051772762 -0.045100339 4290673239
-0.29800338 0.053316455 -0.045513026 4290740835
-0.29778811 0.054860346 -0.045925789 4290809455
-0.29785857 0.056385443 -0.046831921 4290352769
-0.29792923 0.057915252 -0.047740828 4290425514
-0.29800004 0.059449814 -0.04865247 4290691774
-0.29807106 0.06098916 -0.049566854 4289639602
-0.30682427 -0.00040017057 -0.036846086 4285429090
-0.30660707 0.0011568373 -0.037262429 4283721041
-0.30638987 0.0027140582 -0.03767883 4283459408
-0.30617261 0.0042715184 -0.038095295 4283328596
-0.30625749 0.0057341587 -0.039000064 4283919711
-0.3063426 0.0072014271 -0.039907612 4287663993
-0.3061246 0.0087642437 -0.040325519 4290884749
-0.30620956 0.01023871 -0.041236568 4291804047
-0.30629477 0.011717862 -0.04215036 4292455287
-0.30577278 0.013370194 -0.042073913 4292914799
-0.30585721 0.014854503 -0.042989101 4292717167
-0.3050341 0.016581755 -0.042415917 4292450411
-0.30481592 0.018145936 -0.042834174 4292844385
-0.30429757 0.019784607 -0.042757139 4292776545
-0.3037807 0.021418614 -0.042680413 4292715634
-0.30296856 0.023116907 -0.042111784 4292782966
-0.30245593 0.024739109 -0.042036496 4292518251
-0.30194479 0.026356727 -0.041961461 4292256885
-0.30143517 0.027969765 -0.041886713 4292520821
-0.30121902 0.029519299 -0.042301062 4292979313
-0.30042028 0.031182218 -0.041738078 4293441646
-0.29991505 0.032781653 -0.041664176 4293308009
-0.29941127 0.03437661 -0.041590557 4292847478
-0.29862246 0.03601614 -0.04103313 4292782707
-0.29869422 0.037506349 -0.041928802 4292846707
-0.29876617 0.039001193 -0.042827174 4292845672
-0.29855108 0.040543158 -0.043239493 4292516457
-0.29862285 0.042045146 -0.044141229 4292780908
-0.29869482 0.04355181 -0.0450457 4292383072
-0.29847899 0.045099042 -0.045459431 4291592279
-0.29826313 0.046646487 -0.045873221 4291330135
-0.29833457 0.048162881 -0.046781797 4291199579
-0.29840618 0.049684018 -0.047693092 4290804311
-0.29818958 0.051236734 -0.048108295 4290540885
-0.29797295 0.052789692 -0.048523553 4290935639
-0.29775631 0.054342866 -0.048938863 4291265374
-0.29782704 0.055876367 -0.049854983 4291008892
-0.29789793 0.057414629 -0.050773919 4290754218
-0.29796901 0.058957703 -0.0516956 4290888636
-0.2980403 0.060505636 -0.052620139 4289243300
-0.3054204 0.00071805442 -0.038299892 4284444249
-0.30520308 0.0022753819 -0.038716413 4283722066
-0.3049857 0.0038329491 -0.039132994 4283590738
-0.30476832 0.0053907596 -0.039549626 4283722325
-0.30485097 0.0068554222 -0.040456753 4285034847
-0.3046332 0.0084159905 -0.040874131 4288253310
-0.30471566 0.0098878546 -0.041784752 4290820510
-0.30449751 0.011451242 -0.042202879 4292197526
-0.3042793 0.013014839 -0.042621069 4292586872
-0.30406108 0.014578698 -0.043039329 4292456061
-0.30384281 0.01614275 -0.043457635 4292586873
-0.30362451 0.017707061 -0.043876018 4293044842
-0.30340618 0.019271586 -0.044294462 4292712812
-0.30318782 0.020836351 -0.044712964 4292584817
-0.30267173 0.02247156 -0.04463334 4292651634
-0.30215713 0.024102109 -0.044554051 4292716910
-0.30164403 0.02572803 -0.04447506 4292845672
-0.30142653 0.02728669 -0.044891924 4292451174
-0.30062237 0.028966025 -0.044317927 4292710755
-0.30011374 0.030578153 -0.044239808 4293308524
-0.2998971 0.032130554 -0.044654995 4293113196
-0.29910097 0.033788752 -0.044084456 4293307239
-0.29859677 0.035387278 -0.044007204 4293242985
-0.29838097 0.036933467 -0.044420734 4292781938
-0.29874101 0.038388405 -0.045820907 4292843621
-0.29852453 0.039939649 -0.0462358 4292582253
-0.29859659 0.041449774 -0.047147464 4292519287
-0.29866883 0.042964634 -0.048061911 4292385128
-0.29845163 0.044521157 -0.048478216 4292054623
-0.29823437 0.046077948 -0.04889458 4291793503
-0.29830605 0.047602646 -0.049813159 4291662180
-0.29837796 0.049132109 -0.050734561 4291662441
-0.29815999 0.050694235 -0.051152356 4291464549
-0.29794195 0.052256566 -0.051570218 4291199067
-0.29772389 0.053819116 -0.051988129 4290739303
-0.29779488 0.055361111 -0.0529144 4290683543
-0.29786605 0.056907929 -0.053843491 4290822330
-0.29793742 0.058459625 -0.054775458 4290625977
-0.29800898 0.0600162 -0.055710271 4288453780
-0.29778945 0.061589304 -0.056131009 4285756778
-0.2978608 0.063153401 -0.057069361 4286087014
-0.30453309 0.00017584242 -0.039827041 4286086761
-0.30431536 0.0017356413 -0.040244292 4284180563
-0.30439737 0.0031966695 -0.041153837 4283787345
-0.30387971 0.0048558717 -0.041078985 4283722066
-0.30396107 0.0063220398 -0.041989885 4283919189
-0.30404261 0.0077928379 -0.042903613 4285100907
-0.30382404 0.0093584415 -0.043322418 4288059030
-0.30360541 0.010924282 -0.043741297 4290428076
-0.30338678 0.012490359 -0.044160236 4291605652
-0.30316812 0.014056653 -0.04457923 4292194188
-0.30294943 0.01562319 -0.044998281 4292521857
-0.30302933 0.017111585 -0.045918219 4292915828
-0.30281022 0.018680925 -0.046338037 4292650620
-0.30259112 0.020250509 -0.046757907 4292518001
-0.30207428 0.021891605 -0.046675142 4292322934
-0.30155891 0.02352803 -0.04659263 4292455287
-0.30104509 0.025159787 -0.046510458 4292910955
-0.30082682 0.026723225 -0.046928685 4292648806
-0.30060852 0.028286902 -0.047346976 4292710500
-0.29980427 0.029968603 -0.046764132 4292778859
-0.29958653 0.031528059 -0.047181297 4292584812
-0.29907778 0.033141743 -0.047098897 4292978538
-0.29857051 0.034750849 -0.047016848 4293177966
-0.29864281 0.036257163 -0.047932308 4292979564
-0.29871535 0.037768215 -0.048850585 4292779114
-0.29849747 0.039328832 -0.049268067 4292518004
-0.2985698 0.040847205 -0.050189842 4292320372
-0.29864231 0.042370342 -0.05111441 4292581480
-0.29842368 0.043936294 -0.051533327 4292450917
-0.29878792 0.045431014 -0.05297213 4292187486
-0.29856858 0.047002155 -0.053392418 4291530339
-0.29864129 0.048542328 -0.054326199 4291531888
-0.29842156 0.050116308 -0.054747246 4291993714
-0.29820177 0.051690497 -0.05516836 4291728748
-0.29798198 0.053264931 -0.055589534 4290942848
-0.29805377 0.054817785 -0.056528334 4290688431
-0.2981258 0.056375556 -0.057470042 4290954691
-0.29819798 0.057938285 -0.058414578 4290033330
-0.29827034 0.059505973 -0.059362106 4287336067
-0.29863766 0.061066136 -0.060840588 4284837724
-0.29812124 0.062666386 -0.060737293 4285430369
-0.30432528 0.00088640919 -0.043265298 4285100636
-0.30410606 0.0024559216 -0.043685254 4283853145
-0.3038868 0.0040256795 -0.044105258 4283722332
-0.30366755 0.0055956524 -0.044525325 4283984988
-0.30405048 0.0069780904 -0.045950238 4284313439
-0.30383047 0.0085532861 -0.046371698 4285823085
-0.30330953 0.010217955 -0.046288829 4288585106
-0.30308983 0.011791236 -0.046709768 4290691236
-0.30257067 0.013448984 -0.046626579 4291738021
-0.30235121 0.015020342 -0.047047023 4292064662
-0.30243042 0.016512401 -0.047972981 4292391813
-0.30250975 0.018009232 -0.048901763 4292129168
-0.30199063 0.019661035 -0.048815444 4292192134
-0.30147302 0.021308087 -0.048729375 4292456067
-0.30125335 0.022880588 -0.049150135 4292520316
-0.30073756 0.024520796 -0.049063839 4293043048
-0.30051818 0.026091395 -0.049484067 4292913261
-0.30029878 0.027662257 -0.049904376 4292649069
-0.29978514 0.029293481 -0.049817301 4292715118
-0.29927295 0.03092009 -0.049730502 4292583275
-0.29876226 0.032542035 -0.049644046 4292649581
-0.29854372 0.034106743 -0.050062705 4292980081
-0.29861635 0.035621237 -0.050988354 4293242731
-0.29868916 0.037140507 -0.051916871 4292914033
-0.29876211 0.038664602 -0.052848175 4292583023
-0.29912901 0.040149566 -0.05429741 4292384364
-0.29890868 0.04172723 -0.05471953 4292579937
-0.2989822 0.043265853 -0.05565948 4292122724
-0.29905593 0.044809368 -0.056602389 4292255079
-0.29912987 0.046357773 -0.057548203 4291860066
-0.29890841 0.047943521 -0.057972495 4291464548
-0.29868689 0.049529534 -0.05839685 4291201643
-0.29846534 0.051115762 -0.058821272 4291006846
-0.29853836 0.052677024 -0.05977216 4290949543
-0.29861155 0.054243285 -0.060725946 4291020480
-0.29838923 0.055835035 -0.061151847 4290888893
-0.29846227 0.057408936 -0.062109377 4288847772
-0.2985355 0.058987856 -0.063069835 4285756780
-0.2989063 0.060558505 -0.064571045 4284378199
-0.29838541 0.062171854 -0.064461388 4285035612
-0.3034291 0.00034031953 -0.044811998 4286813301
-0.30351019 0.0018105101 -0.045735486 4285497976
-0.30298978 0.003484525 -0.04565344 4285433213
-0.30307013 0.0049599279 -0.046578303 4285958524
-0.30315074 0.0064400169 -0.047506101 4286549115
-0.3029303 0.0080177039 -0.047928326 4287731067
-0.3024098 0.0096858134 -0.04784305 4289437573
-0.30218962 0.011261555 -0.048264734 4290952345
-0.3043898 0.012146737 -0.052800663 4291609263
-0.30416685 0.013742237 -0.053227641 4291805609
-0.3039439 0.015337958 -0.053654674 4291543459
-0.30280939 0.017173104 -0.052521419 4291741349
-0.30228573 0.018838845 -0.052429002 4292001440
-0.302064 0.020425564 -0.052853629 4292262289
-0.30154222 0.022084292 -0.052761022 4292324994
-0.30072406 0.02380719 -0.052153863 4293112687
-0.30050325 0.025387427 -0.052576762 4293175149
-0.29998606 0.02703185 -0.052485127 4292780655
-0.29976553 0.028610155 -0.052907515 4292585072
-0.29925022 0.030247679 -0.052815709 4292126075
-0.29873636 0.031880524 -0.052724168 4292519537
-0.29851639 0.033454768 -0.053145472 4293041507
-0.29858932 0.034977544 -0.054081496 4292976223
-0.29866236 0.03650514 -0.055020358 4292913517
-0.29903057 0.037990216 -0.056482784 4292583534
-0.29940096 0.039484531 -0.057954136 4292583541
-0.29917881 0.041074298 -0.058379576 4292713316
-0.29955071 0.042583056 -0.059861355 4292120413
-0.29962587 0.044139776 -0.060819399 4292187751
-0.29940262 0.045737524 -0.06124698 4291926375
-0.29947764 0.047301903 -0.062208787 4291466092
-0.299254 0.04890256 -0.062637135 4291007617
-0.2990303 0.050503477 -0.063065581 4290950053
-0.29880655 0.052104611 -0.063494079 4291020735
-0.29858282 0.053705968 -0.063922614 4291086274
-0.29835904 0.055307593 -0.064351238 4289704876
-0.29813519 0.056909434 -0.064779922 4286876027
-0.29850584 0.058478363 -0.066291019 4284837463
-0.29887876 0.060057219 -0.067811511 4284116310
-0.29805666 0.061693069 -0.067151323 4284313690
-0.30115655 0.063197628 -0.073677488 4286218342
-0.30238929 0.0028412836 -0.047713004 4290496165
-0.30803055 0.0024980968 -0.058072586 4290693799
-0.30812129 0.0040206378 -0.059047394 4290954405
-0.30789384 0.0056476709 -0.059482891 4291479202
-0.30766636 0.0072749183 -0.059918471 4292005028
-0.30743888 0.0089023942 -0.060354095 4292199073
-0.30657956 0.010712983 -0.059705988 4291738778
-0.30603868 0.012424358 -0.059600383 4292263326
-0.30549937 0.014130674 -0.059495136 4291874987
-0.30341908 0.016242677 -0.056724906 4292201382
-0.30258515 0.018003974 -0.056098133 4292199337
-0.30175626 0.019754743 -0.055475194 4291275406
-0.30183527 0.021275766 -0.056427285 4291799420
-0.30100986 0.023014365 -0.055804465 4292125296
-0.30048791 0.024674775 -0.055707309 4292319856
-0.2999675 0.026330387 -0.05561047 4292454008
-0.29944864 0.027981207 -0.055514053 4292520050
-0.29893133 0.029627275 -0.055417933 4292257404
-0.29841551 0.031268567 -0.055322189 4292584047
-0.29819447 0.032850072 -0.055745509 4293172578
-0.2982671 0.034378964 -0.056689829 4292909661
-0.29893121 0.035811044 -0.058688164 4292911719
-0.29930291 0.037305452 -0.06017302 4292584302
-0.29967687 0.038809221 -0.061667096 4292649584
-0.29975253 0.040366944 -0.062632315 4292383332
-0.29952818 0.041971687 -0.063061863 4291395173
-0.30020612 0.04345772 -0.065114588 4290545266
-0.29998073 0.045070354 -0.065546229 4290221953
-0.29975525 0.04668323 -0.065977961 4290552724
-0.29952976 0.048296347 -0.066409737 4290952368
-0.29900396 0.049939532 -0.066296265 4290955715
-0.29877874 0.051550638 -0.066727504 4291021251
-0.2985535 0.053161975 -0.067158826 4290232242
-0.29832822 0.05477355 -0.067590192 4287861894
-0.29810292 0.056385383 -0.068021633 4285362526
-0.29817611 0.057979982 -0.069001772 4284182100
-0.29885063 0.059549641 -0.07109227 4283789142
-0.29772463 0.061209772 -0.0698663 4283986266
-0.308523 0.062455278 -0.090702519 4285430369
-0.3102302 -0.00067331351 -0.064200774 4291873964
-0.30999947 0.00097649277 -0.064642482 4291612078
-0.31009465 0.0025208734 -0.065643251 4291081897
-0.30986351 0.0041738055 -0.066085778 4291673512
-0.3093071 0.0059274081 -0.06596797 4292203437
-0.30907625 0.0075782011 -0.066409923 4292133285
-0.30819952 0.0094187474 -0.065733694 4290355856
-0.30764824 0.011156539 -0.065617174 4291340947
-0.30678004 0.012977684 -0.064946726 4292400297
-0.3037304 0.015378471 -0.060467098 4292331425
-0.30319622 0.017075531 -0.060361102 4292661682
-0.3029705 0.01868947 -0.060793202 4291018418
-0.30182797 0.020529825 -0.059615199 4290425507
-0.3006959 0.022353519 -0.058448061 4290161815
-0.30017188 0.024022689 -0.058346536 4290881161
-0.29994848 0.025620285 -0.058774244 4291798146
-0.29912862 0.027346458 -0.058144562 4292058744
-0.29831371 0.029062372 -0.05751878 4292258682
-0.29809153 0.030650955 -0.057944082 4292323191
-0.29757532 0.032296028 -0.057844419 4292450923
-0.29764712 0.033828843 -0.058794878 4292123240
-0.29890513 0.035158601 -0.061876323 4291927404
-0.2995792 0.036610056 -0.063920297 4291992686
-0.29995674 0.038123406 -0.065437526 4292189040
-0.30033663 0.039646398 -0.066964239 4291663219
-0.30071884 0.041179061 -0.068500526 4290680964
-0.30079699 0.042762849 -0.069490112 4290288527
-0.30056936 0.044390671 -0.069925912 4290556838
-0.300037 0.046054877 -0.069805898 4290823618
-0.2998096 0.047680628 -0.070241168 4290890699
-0.29927915 0.049337626 -0.070120923 4291021254
-0.29905209 0.050961331 -0.070555627 4290233011
-0.29852358 0.052611172 -0.070435248 4288519819
-0.29829678 0.054232854 -0.070869416 4287855971
-0.2977702 0.055875558 -0.070748881 4287856213
-0.29784313 0.057476908 -0.07173793 4286412885
-0.2994304 0.059003536 -0.075545549 4284509782
-0.29920134 0.060641393 -0.075984053 4284051028
-0.30855599 0.061933644 -0.094327495 4284970073
-0.33614129 -0.010480684 -0.11210673 4291871906
-0.33100036 -0.0069714608 -0.10418081 4292070825
-0.33074436 -0.0051417961 -0.10467078 4291016350
-0.33048832 -0.0033118471 -0.1051608 4290359453
-0.32983625 -0.0013576616 -0.1049621 4290759588
-0.32918644 0.00058995868 -0.1047642 4290688416
-0.32244211 0.0043451069 -0.093912743 4290491809
-0.31783968 0.0073788371 -0.086759344 4290288787
-0.31583518 0.0096123284 -0.084131464 4292530597
-0.30818525 0.013366103 -0.071552671 4292069295
-0.30602351 0.015542457 -0.068594359 4292529067
-0.30359051 0.017758776 -0.065140337 4291546806
-0.30182031 0.019774595 -0.062842742 4290299834
-0.30068117 0.021613123 -0.061653625 4289903802
-0.30015388 0.023293819 -0.061546683 4290426799
-0.29962817 0.02496958 -0.061440077 4290622116
-0.29880542 0.026705783 -0.060799472 4290358427
-0.29798764 0.028431632 -0.060162801 4290555800
-0.29746917 0.030087482 -0.06005935 4290882448
-0.29695222 0.031738535 -0.059956264 4291080333
-0.29702318 0.03327528 -0.060912985 4290946956
-0.29887852 0.034498032 -0.065103948 4290616712
-0.29955652 0.035955526 -0.067175671 4290483848
-0.30024078 0.037426867 -0.069266789 4290683278
-0.3003183 0.039006919 -0.070259146 4290817179
-0.3010104 0.040502269 -0.072377965 4290820782
-0.30108953 0.042097554 -0.073381536 4290824127
-0.30055207 0.043778256 -0.073255219 4290694087
-0.30001625 0.045453936 -0.073129326 4290693063
-0.29978737 0.047089972 -0.07356742 4291283136
-0.29894957 0.048790354 -0.072878949 4289837487
-0.29872131 0.050421756 -0.073315807 4289897087
-0.29819071 0.052080251 -0.073190674 4290291040
-0.29766175 0.053733837 -0.073066041 4288194150
-0.29713437 0.05538252 -0.072941802 4287342186
-0.29750678 0.056969028 -0.074499786 4287801191
-0.29818422 0.058548894 -0.076635897 4286875229
-0.29795507 0.060186833 -0.077074513 4284771410
-0.3020561 0.0616576 -0.085679635 4284444757
-0.33288649 0.062393337 -0.14485385 4286152545
-0.3280338 -0.0069514196 -0.10266156 4292005034
-0.3277795 -0.005134373 -0.10314823 4291674280
-0.32713661 -0.0031907477 -0.10295454 4289834133
-0.32649589 -0.0012536097 -0.10276151 4291342217
-0.32624233 0.00055792602 -0.10324671 4292264343
-0.31999186 0.0041789808 -0.093154244 4292595865
-0.3182978 0.0063673654 -0.091067597 4290556555
-0.31627277 0.0086279744 -0.08838217 4291668623
-0.30821821 0.012537859 -0.074970365 4292465321
-0.30572227 0.014822522 -0.071390957 4292333215
-0.30328104 0.017057296 -0.067890145 4292334506
-0.30181232 0.01900986 -0.06611073 4288329371
-0.30066606 0.020863466 -0.064899154 4287998377
-0.29983246 0.022628082 -0.064241923 4290034861
-0.29930466 0.024312763 -0.064130783 4290561460
-0.29847902 0.026059108 -0.063479081 4290364860
-0.29736197 0.027858566 -0.062294692 4290233278
-0.29713792 0.029459536 -0.062723488 4290560444
-0.29632506 0.031177551 -0.062081177 4290691003
-0.29639518 0.032718245 -0.063044228 4290756537
-0.29854989 0.033884108 -0.067820728 4290626492
-0.29922938 0.035345677 -0.0699149 4290561472
-0.29991522 0.036821138 -0.072028793 4290562243
-0.30060753 0.038310777 -0.074162677 4290496965
-0.3019304 0.039721396 -0.077468552 4290496452
-0.30138645 0.041421656 -0.077334613 4290823103
-0.30053434 0.043158025 -0.076626621 4291413944
-0.29999506 0.04484535 -0.076494776 4290299572
-0.29945749 0.046527617 -0.076363422 4288060825
-0.29892153 0.048204824 -0.076232523 4286282098
-0.29869175 0.049846571 -0.076672241 4288578139
-0.29785454 0.051544286 -0.075972162 4291731545
-0.29732352 0.053206537 -0.075842716 4291536732
-0.29679409 0.054863885 -0.075713687 4291077470
-0.29686585 0.056476373 -0.076718487 4289831520
-0.29784599 0.05804133 -0.079447202 4287135068
-0.29761562 0.059687093 -0.079888009 4284706133
-0.30204639 0.06114072 -0.089202806 4284182614
-0.31008959 0.062555142 -0.10545409 4285167712
-0.32134956 -0.0056350823 -0.09455125 4291871133
-0.32110116 -0.0038611765 -0.095026463 4292267434
-0.32048476 -0.0019657705 -0.094851226 4291147932
-0.31987038 -7.6558143e-05 -0.094676681 4291868301
-0.31925806 0.0018065257 -0.094502814 4292270001
-0.31614059 0.0044504409 -0.089865752 4292662445
-0.31484112 0.0065076211 -0.088448964 4291413409
-0.31320891 0.0086448705 -0.086428039 4291929228
-0.30825138 0.011698857 -0.078432411 4292859042
-0.30477884 0.014270933 -0.07306572 4292331432
-0.30296841 0.016349111 -0.070666119 4292333994
-0.30180407 0.01823543 -0.069419891 4290556828
-0.30034441 0.020181011 -0.067631133 4287133029
-0.2995078 0.021956081 -0.066962466 4286213991
-0.29897794 0.023649748 -0.066846721 4285959046
-0.29814938 0.025406355 -0.066183724 4286818732
-0.29732582 0.027152384 -0.065524817 4288263866
-0.29710028 0.028763337 -0.065956362 4289773754
-0.29628244 0.030494172 -0.065300353 4290890428
-0.29635283 0.032043386 -0.066274375 4291284410
-0.2985203 0.033208244 -0.071121007 4291481270
-0.29920384 0.034675878 -0.073243916 4291612597
-0.29958642 0.03620965 -0.074817032 4291612596
-0.29997134 0.037753332 -0.076400086 4290955700
-0.30066922 0.039259527 -0.078571752 4289577143
-0.30074847 0.040870767 -0.079596534 4287869104
-0.30020538 0.042572234 -0.079459198 4287139719
-0.2999734 0.044228978 -0.079903029 4286543718
-0.29943231 0.045922957 -0.079765558 4285361498
-0.29889292 0.047611814 -0.079628631 4284509526
-0.29866159 0.049264062 -0.080071241 4286017362
-0.29781908 0.05097438 -0.079356164 4288120147
-0.29728466 0.052648105 -0.079220712 4288187732
-0.29675186 0.0543168 -0.079085715 4287920725
-0.29682392 0.055938702 -0.080102228 4288644954
-0.29780984 0.057510234 -0.082869656 4288976991
-0.29757789 0.059166543 -0.083313383 4285694043
-0.30203629 0.060617074 -0.092771724 4284182357
-0.30978635 0.062031366 -0.10861503 4284773722
-0.32122523 -0.0048652138 -0.098838583 4291281056
-0.32023478 -0.0028316912 -0.09799654 4291480995
-0.3188858 -0.00069270207 -0.096506998 4291480739
-0.31719047 0.0015393491 -0.0943873 4291741343
-0.31411079 0.0041781594 -0.089767404 4291871898
-0.31213674 0.0064381608 -0.087115005 4291347610
-0.31087181 0.008462254 -0.085728265 4290886039
-0.30762392 0.011038075 -0.080743514 4290490512
-0.30543256 0.01327204 -0.07764978 4289505936
-0.30296725 0.015549038 -0.074040964 4288719253
-0.30210775 0.017369257 -0.073340379 4287801235
-0.30063462 0.019335633 -0.071513124 4285036658
-0.30009714 0.021051854 -0.071389042 4284183131
-0.29925591 0.022835666 -0.070704587 4284248412
-0.29841986 0.024608603 -0.070024505 4284510045
-0.29728904 0.026437359 -0.068795212 4285427035
-0.29706195 0.02805843 -0.06922958 4286147423
-0.295647 0.029923996 -0.067461789 4286475365
-0.29630971 0.031360116 -0.069544695 4286870124
-0.29849014 0.032523815 -0.074462883 4286870894
-0.29917771 0.033997573 -0.076615073 4286936430
-0.29956248 0.035539009 -0.078208864 4287264106
-0.29994971 0.037090469 -0.079812869 4288575844
-0.30065179 0.038603202 -0.082014792 4289561956
-0.30041829 0.040270109 -0.082461439 4289168482
-0.29987302 0.041980796 -0.082319006 4288183899
-0.29932946 0.043686271 -0.082177117 4286609748
-0.29909658 0.045348614 -0.082622536 4285034322
-0.29824737 0.047081787 -0.081894882 4284312402
-0.29801515 0.048739348 -0.082339026 4284838738
-0.29747695 0.050427075 -0.082198024 4287529560
-0.29694045 0.052109696 -0.082057573 4290285402
-0.29640555 0.053787239 -0.081917591 4290482775
-0.29647729 0.055416089 -0.082943514 4290222683
-0.29685366 0.057030916 -0.084560692 4289110880
-0.29753947 0.058639277 -0.086782552 4285955161
-0.29916662 0.060219772 -0.09083961 4284377940
-0.30539274 0.061657559 -0.10385901 4284444758
-0.32332671 0.062862419 -0.13976528 4286415459
-0.31562817 -0.0022339534 -0.093332745 4287990133
-0.31573805 -0.00059766322 -0.094444945 4287400050
-0.31584829 0.0010444272 -0.095560908 4287661933
-0.31348312 0.0034708462 -0.092189498 4287726445
-0.31323889 0.005213696 -0.092656575 4287595114
-0.3119536 0.0072675468 -0.091226213 4287792231
-0.3079851 0.010084454 -0.084884152 4288578661
-0.30609873 0.01225365 -0.082323074 4289367397
-0.30424264 0.014388284 -0.079803199 4290025324
-0.30273232 0.016404932 -0.077905588 4289960301
-0.30124113 0.018396232 -0.076032139 4289566314
-0.30038688 0.020208051 -0.075325504 4288384354
-0.29953799 0.022008695 -0.074623443 4286022496
-0.29838943 0.023869604 -0.073359102 4284511580
-0.29725155 0.025713338 -0.072106667 4284183130
-0.29672244 0.02741001 -0.071982801 4284183384
-0.29589668 0.029164065 -0.071301177 4284116823
-0.29596695 0.030728335 -0.07229533 4284247639
-0.29876637 0.031771455 -0.078424491 4284312918
-0.29915103 0.033310588 -0.08002916 4284312405
-0.29953805 0.034859754 -0.081644073 4284640853
-0.29961571 0.036471441 -0.082678735 4286807899
-0.30031946 0.037988581 -0.084905118 4289038682
-0.30008474 0.039663605 -0.08535403 4289301334
-0.29953727 0.041383576 -0.085206427 4288383313
-0.2989915 0.043098275 -0.085059367 4288319313
-0.29844746 0.044807799 -0.084912866 4287926361
-0.29790509 0.046512112 -0.08476688 4285954391
-0.29736444 0.048211243 -0.084621415 4284640337
-0.29682547 0.049905244 -0.084476493 4286674002
-0.29628813 0.05159416 -0.084332079 4290675795
-0.29575247 0.053277928 -0.084188193 4292320596
-0.29582325 0.054911245 -0.085221067 4291929175
-0.29559079 0.056570165 -0.085665636 4289636190
-0.29596543 0.058194142 -0.087296806 4286679389
-0.29695663 0.059798397 -0.09014158 4284574294
-0.29890004 0.061385341 -0.09486793 4284247893
-0.30448958 0.062893473 -0.10679195 4285299038
-0.31115857 -0.0016541282 -0.088808157 4286944884
-0.31091633 7.3651041e-05 -0.089271292 4285894253
-0.3117052 0.0014647085 -0.09161824 4286287722
-0.31043178 0.0035299994 -0.090197772 4288843881
-0.31018943 0.0052585402 -0.090661116 4287734639
-0.3092677 0.0071930415 -0.089874454 4286092925
-0.30635607 0.0097033093 -0.085411571 4285960838
-0.30481005 0.011779251 -0.083450027 4287206787
-0.3036046 0.013739407 -0.082108229 4288388225
-0.30241072 0.015680967 -0.080779403 4289436033
-0.30122823 0.017604178 -0.07946334 4289697919
-0.30068099 0.019350735 -0.079324916 4287533172
-0.29982436 0.021168495 -0.078604653 4285698677
-0.29897308 0.02297502 -0.077889048 4286085987
-0.29782158 0.024840515 -0.076603502 4285366112
-0.2975907 0.026487324 -0.077044934 4284578652
-0.29675302 0.028263694 -0.076340042 4284249689
-0.29682532 0.029843876 -0.077353194 4286411862
-0.29904681 0.031007027 -0.082449406 4287791962
-0.29912376 0.032614745 -0.083486974 4287267158
-0.29920092 0.034227852 -0.084527969 4286216018
-0.29959106 0.035792753 -0.08617042 4286412114
-0.2996693 0.037419207 -0.087220863 4287067987
-0.29943368 0.039099757 -0.087671325 4287006040
-0.29888538 0.04082625 -0.087519675 4286813022
-0.2983388 0.042547453 -0.087368585 4288126556
-0.29779395 0.044263408 -0.087218024 4289437789
-0.29694325 0.04601131 -0.086471342 4287594840
-0.29670933 0.047679685 -0.08691857 4284901712
-0.29616955 0.049380027 -0.08676964 4285494352
-0.29563144 0.051075254 -0.086621255 4288186450
-0.29509506 0.052765306 -0.086473405 4290417235
-0.29516491 0.054403108 -0.087513283 4291728982
-0.29523495 0.056046348 -0.088556558 4290883936
-0.29561013 0.057676543 -0.090204865 4288847715
-0.29660368 0.059285346 -0.09308213 4285495898
-0.29761004 0.060915168 -0.09599667 4284247636
-0.30516815 0.062339734 -0.11194383 4284642393
-0.30724397 0.00038624581 -0.086092405 4286813552
-0.30800551 0.0017629466 -0.088396788 4287075434
-0.30743027 0.0035880916 -0.088238947 4287402853
-0.30718979 0.0053025852 -0.088698626 4286287986
-0.30661675 0.0071194447 -0.088540629 4289250214
-0.30505887 0.0092256032 -0.086545959 4289318338
-0.3038443 0.01121077 -0.085180469 4288654526
-0.30328399 0.012995286 -0.085030437 4289052612
-0.30208579 0.014949941 -0.083681196 4290432189
-0.30121493 0.016801877 -0.08293888 4288913076
-0.30066413 0.01856102 -0.082794048 4289376428
-0.29980195 0.020393049 -0.082058281 4289048999
-0.29925594 0.02213853 -0.081915677 4287007358
-0.29840225 0.023950927 -0.081186324 4285629541
-0.29816905 0.025613587 -0.0816321 4284907874
-0.29824445 0.027209561 -0.08266668 4284644191
-0.29708892 0.029067593 -0.081350595 4285823836
-0.2987068 0.030355295 -0.085341737 4286613596
-0.29878342 0.031969819 -0.086389057 4287271003
-0.29886031 0.033589773 -0.087439843 4286944092
-0.29893741 0.035215195 -0.08849407 4286288733
-0.29901469 0.036846112 -0.08955171 4287732575
-0.29846522 0.038581636 -0.089396648 4287797858
-0.2982291 0.040265232 -0.089848027 4286945125
-0.29737145 0.042036787 -0.089088082 4287863651
-0.29682717 0.043756422 -0.088934682 4289501275
-0.29628459 0.045470815 -0.088781811 4288249940
-0.2960498 0.04714464 -0.089230575 4285164624
-0.29550922 0.048851404 -0.089077607 4284576593
-0.29527476 0.050523043 -0.089525782 4286481748
-0.29473624 0.052222181 -0.089372754 4289501017
-0.29480577 0.053867053 -0.090422332 4290877019
-0.29487544 0.055517446 -0.091475397 4291142494
-0.29555801 0.057134394 -0.093752317 4291012958
-0.29655752 0.058750197 -0.096671246 4287468636
-0.29756999 0.060387265 -0.099628128 4284640082
-0.30117604 0.061949629 -0.10780158 4284379477
-0.30291012 0.06363336 -0.11224715 4286545758
-0.30528221 0.00013195009 -0.086008877 4287799415
-0.3060315 0.001503004 -0.088305421 4287339114
-0.3048043 0.0035380281 -0.086922258 4286026860
-0.30489281 0.0051367613 -0.087991856 4285697669
-0.30465338 0.0068432093 -0.088449448 4290830795
-0.30408713 0.0086490391 -0.08829283 4291015860
-0.3031984 0.010544927 -0.087525755 4290939274
-0.30296001 0.012243798 -0.087981328 4290417823
-0.30175745 0.014211704 -0.086611345 4290738313
-0.30120125 0.015989119 -0.086459532 4289363859
-0.30064678 0.017761039 -0.086308226 4289308342
-0.299779 0.019607538 -0.085556544 4290759877
-0.30049032 0.021055771 -0.08781822 4289245360
-0.29993689 0.022820266 -0.08766491 4286417533
-0.2997002 0.024507174 -0.088117279 4285301095
-0.29914886 0.026263773 -0.087963887 4285104740
-0.29891247 0.02794846 -0.088415653 4285104225
-0.29867604 0.029633394 -0.088867493 4285891163
-0.29843959 0.031318594 -0.089319393 4287335766
-0.29820308 0.033004012 -0.089771368 4288125273
-0.29827926 0.034633853 -0.090832874 4286811737
-0.29835564 0.03626921 -0.091897883 4287008603
-0.29780534 0.038011394 -0.091738597 4287599711
-0.29725677 0.039748218 -0.091579899 4287861086
-0.29670995 0.041479714 -0.09142182 4288975194
-0.29647365 0.043163907 -0.091873452 4290418520
-0.29592887 0.044887628 -0.091715239 4289171030
-0.29569286 0.046569631 -0.092166297 4285625938
-0.29515013 0.048285637 -0.09200801 4284313169
-0.29491445 0.04996543 -0.092458449 4286412625
-0.29467869 0.051645469 -0.092908978 4290285396
-0.29474846 0.053300116 -0.093971141 4290880605
-0.2948184 0.054960325 -0.09503682 4291009370
-0.29519624 0.056605663 -0.096724875 4290550872
-0.29588681 0.058244001 -0.099049643 4289241436
-0.2965841 0.059898566 -0.10139723 4285360211
-0.29856125 0.061518665 -0.10634726 4284247891
-0.29993173 0.063197181 -0.11008707 4285429337
-0.30407014 0.0012447037 -0.088214844 4287733613
-0.30383065 0.0029507773 -0.088672429 4286355052
-0.30424517 0.0044450983 -0.09036541 4285369222
-0.30433309 0.0060535823 -0.091446117 4290959305
-0.30409232 0.0077687884 -0.09190616 4291740863
-0.30352405 0.0095823603 -0.091743305 4292650635
-0.30263269 0.011484869 -0.090961419 4292385158
