# .PCD v0.7 - Point Cloud Data file format
VERSION 0.7
FIELDS x y z rgba
SIZE 4 4 4 4
TYPE F F F U
COUNT 1 1 1 1
WIDTH 990
HEIGHT 1
VIEWPOINT 0 0 0 1 0 0 0
POINTS 990
DATA ascii
-0.31143892 0.049071074 -0.015520574 4288784265
-0.30996016 0.049000692 -0.012852008 4289771674
-0.30912632 0.049547497 -0.01099724 4290561958
-0.36164752 -0.0019479169 -0.14245157 4288778867
-0.36077783 -0.0006667549 -0.14007632 4288319082
-0.35991478 0.00060492725 -0.13771904 4286545504
-0.36005124 0.0024799516 -0.13685077 4285887573
-0.35870036 0.0034273518 -0.13378455 4287073109
-0.35736471 0.0043643308 -0.13075274 4287008343
-0.35556248 0.0049840645 -0.12704714 4287074136
-0.34867883 0.0023037507 -0.11591055 4286614101
-0.33875588 -0.002450695 -0.10038937 4285759312
-0.33394656 -0.0039773085 -0.092401922 4284967757
-0.3293303 -0.0054424354 -0.084734932 4284573003
-0.32489565 -0.0068496983 -0.077369481 4284376650
-0.32207367 -0.0072246902 -0.072371349 4284376395
-0.31897071 -0.0078317588 -0.06699197 4284114252
-0.31595561 -0.0084214294 -0.061764739 4284050510
-0.31302464 -0.0089943893 -0.056683268 4284183643
-0.31213975 -0.0081651853 -0.054550033 4286548082
-0.31126302 -0.0073433761 -0.052436333 4288980353
-0.30942413 -0.0072262981 -0.048963346 4290293140
-0.30889139 -0.0061875894 -0.047356598 4291280277
-0.30868074 -0.0049214843 -0.04620995 4291540628
-0.30815271 -0.0038940252 -0.044618584 4291936413
-0.30826142 -0.0024000539 -0.043926764 4291741091
-0.30805278 -0.0011446986 -0.042790242 4291473305
-0.3078447 0.00010706973 -0.041656967 4290096780
-0.30795315 0.0015971998 -0.040966928 4290226301
-0.30774561 0.0028434193 -0.039837904 4290686092
-0.30753872 0.0040861196 -0.038712215 4291345568
-0.30733246 0.0053252773 -0.03758977 4291281568
-0.30712679 0.0065609752 -0.036470581 4291477914
-0.30692181 0.00779319 -0.035354655 4291608734
-0.30671743 0.009021949 -0.034241956 4290621593
-0.30620328 0.0099950153 -0.03270879 4290815620
-0.30631053 0.011469136 -0.032026179 4291602556
-0.30579913 0.012432479 -0.030503944 4291932542
-0.30590615 0.013902637 -0.029823145 4291930227
-0.30570486 0.015114339 -0.028726378 4291925865
-0.30550417 0.016322646 -0.027632758 4291860077
-0.30530411 0.017527597 -0.026542248 4291595882
-0.30571765 0.019255813 -0.026274495 4291724125
-0.30582443 0.020722719 -0.025595216 4291596907
-0.30623937 0.022458671 -0.025325447 4292063354
-0.30696571 0.024472581 -0.025465796 4292257903
-0.3061448 0.025124744 -0.02355676 4292056684
-0.30656028 0.026867863 -0.023283677 4292190576
-0.30697697 0.028616367 -0.023009669 4291598701
-0.30739495 0.030370265 -0.02273475 4291596390
-0.30875543 0.032987881 -0.023687763 4290742115
-0.31109402 0.036520422 -0.025903881 4290153073
-0.31217417 0.038918477 -0.026469363 4289433211
-0.31293643 0.041033305 -0.0266158 4289498742
-0.31271946 0.04223837 -0.025494009 4289432690
-0.31250325 0.043440033 -0.024375558 4289295983
-0.31326655 0.045569289 -0.024515321 4288840819
-0.31272271 0.046455529 -0.022979174 4288580724
-0.31218216 0.047336586 -0.021452211 4287726698
-0.31229159 0.048840307 -0.020755885 4286216803
-0.31111091 0.049083475 -0.018425543 4285495653
-0.30994436 0.049323969 -0.016123021 4285956715
-0.3087917 0.049561799 -0.013847732 4286877557
-0.30827412 0.050416499 -0.012379029 4287799170
-0.36051223 -0.0028267677 -0.14536966 4288711793
-0.36014652 -0.0012376972 -0.14373475 4288842603
-0.35828868 -0.00056474743 -0.13986059 4287859311
-0.35743824 0.00070198084 -0.13751304 4286348377
-0.35708323 0.002264211 -0.13591424 4285823061
-0.35575658 0.0032076996 -0.13287058 4286943574
-0.35348946 0.0035322744 -0.12844032 4287074133
-0.35173243 0.0041526859 -0.12478609 4286614103
-0.3393684 -0.0021542774 -0.10546271 4285562194
-0.33409843 -0.0039675389 -0.096702419 4284836685
-0.33023006 -0.0049231024 -0.090047255 4284508237
-0.32611123 -0.0061011044 -0.083057262 4284310862
-0.32250574 -0.0069886935 -0.076852471 4284245836
-0.32008588 -0.0071148928 -0.072406873 4284310861
-0.31772003 -0.007238037 -0.068060406 4284313682
-0.31472254 -0.0078359013 -0.062818065 4284841818
-0.31280822 -0.0077119945 -0.05916721 4285104223
-0.31158885 -0.007120573 -0.056534819 4285496672
-0.31071189 -0.0063008978 -0.054405458 4285957224
-0.30887234 -0.0061928486 -0.050903808 4287532666
-0.30801979 -0.0053881505 -0.048829053 4289308034
-0.3078101 -0.0041211168 -0.047678474 4290424724
-0.307601 -0.0028577261 -0.046531264 4291674011
-0.3073926 -0.0015979339 -0.045387417 4291871393
-0.30750144 -0.00010132011 -0.044694468 4291603607
-0.3076103 0.0013955272 -0.044001415 4290617732
-0.30740222 0.0026476474 -0.04286281 4291015050
-0.30751094 0.0041426853 -0.042170599 4291673758
-0.3073034 0.0053892313 -0.041036319 4291607971
-0.30741197 0.0068824436 -0.040344954 4291608991
-0.3072049 0.0081233839 -0.039214864 4291413159
-0.30699846 0.0093608461 -0.038088087 4290623912
-0.30679268 0.010594822 -0.036964636 4289896851
-0.3062751 0.011569145 -0.035414137 4290550396
-0.30638298 0.013052287 -0.034727428 4291664488
-0.30586821 0.014016842 -0.033188079 4291994213
-0.30597579 0.015495955 -0.032503236 4291930740
-0.30546382 0.016450806 -0.030974858 4291796081
-0.30557108 0.01792597 -0.030291846 4291860074
-0.30536965 0.019135874 -0.029190915 4291729007
-0.30516884 0.020342397 -0.02809318 4291597164
-0.30527586 0.021813853 -0.027411887 4291401331
-0.30538285 0.02328551 -0.026730504 4291997302
-0.3054899 0.024757361 -0.026049014 4292389480
-0.30498251 0.02568068 -0.024548087 4292320360
-0.30508924 0.027148632 -0.023868421 4292454256
-0.30519602 0.028616793 -0.023188645 4291860850
-0.30591819 0.030647017 -0.023322064 4291601789
-0.30726773 0.033262551 -0.024277182 4291004000
-0.30926821 0.036497585 -0.026077423 4291269228
-0.30969596 0.038290694 -0.025802711 4291012230
-0.31076801 0.040693533 -0.026366718 4290744688
-0.31087747 0.042198617 -0.025669856 4289954664
-0.31098694 0.043703921 -0.024972888 4288905076
-0.3110964 0.045209438 -0.024275828 4288646008
-0.31152958 0.047027774 -0.023996199 4289368439
-0.31099257 0.047907274 -0.022466155 4289301362
-0.31077987 0.049095973 -0.02135692 4288119664
-0.3099283 0.049651086 -0.01943342 4287069034
-0.30845404 0.049576215 -0.01672384 4286281312
-0.307623 0.050123032 -0.014843648 4285429602
-0.30710882 0.050976235 -0.013371993 4285365863
-0.42494825 0.17153803 -0.161337 4286483827
-0.36139935 -0.0025032246 -0.15139885 4288382576
-0.3605203 -0.0012051691 -0.14896187 4288578406
-0.35964805 8.3171784e-05 -0.14654344 4288775537
-0.35778683 0.00074885465 -0.14263313 4287332965
-0.35449597 0.00049700885 -0.13657652 4285955159
-0.35366771 0.0017483728 -0.13426322 4286020947
-0.35236996 0.0026879229 -0.13125153 4286878552
-0.3496854 0.0027157164 -0.12617078 4286745431
-0.34705964 0.0027432072 -0.12120117 4285429843
-0.3350729 -0.0034183888 -0.1022869 4284705615
-0.3303549 -0.004919922 -0.094288044 4284573774
-0.32658792 -0.0058498019 -0.087740064 4284377420
-0.32331556 -0.0064975913 -0.081955917 4284180302
-0.3205002 -0.0068788747 -0.076873854 4284245328
-0.3184652 -0.0067605008 -0.072964095 4284706645
-0.31646913 -0.0066441861 -0.069129027 4285565279
-0.31416932 -0.0067707472 -0.064866714 4286025318
-0.3122541 -0.0066562733 -0.061185226 4286155622
-0.31136572 -0.0058311429 -0.059014414 4286024036
-0.30982959 -0.0054895217 -0.055911686 4285957731
-0.30863968 -0.004916552 -0.053323317 4286611555
-0.3077842 -0.0041138544 -0.051227946 4286875754
-0.3072547 -0.0030808684 -0.049609352 4287795581
-0.30704576 -0.001815051 -0.048455719 4289504901
-0.3068375 -0.00055282417 -0.047305521 4290621586
-0.30662987 0.00070576277 -0.046158679 4291670926
-0.30673879 0.0022050531 -0.04546459 4292000140
-0.30684775 0.0037045735 -0.044770397 4291871132
-0.30695671 0.0052043204 -0.044076104 4291803042
-0.30674928 0.006453177 -0.042935468 4291672991
-0.30685812 0.007951091 -0.042242024 4291411102
-0.30665118 0.0091943713 -0.041105676 4290624429
-0.30644491 0.010434128 -0.039972715 4289968050
-0.30623922 0.011670347 -0.038842991 4289372829
-0.30603418 0.012903085 -0.03771659 4290288514
-0.30582979 0.014132344 -0.036593504 4291664235
-0.30562603 0.015358138 -0.035473634 4291859556
-0.30573401 0.016844079 -0.034785721 4291665263
-0.30553073 0.018064413 -0.033670042 4291663986
-0.30563855 0.019548584 -0.032982957 4291728748
-0.30512601 0.020494793 -0.031448409 4291797869
-0.30523357 0.021974975 -0.030763153 4291730028
-0.30534112 0.023455372 -0.030077823 4291795313
-0.30544871 0.024935987 -0.029392386 4292193141
-0.30555633 0.026416825 -0.028706832 4292321636
-0.3050456 0.027340878 -0.027189068 4291992427
-0.30515292 0.028817728 -0.02650536 4292058990
-0.30526024 0.030294809 -0.025821554 4292058218
-0.30567676 0.032056779 -0.025550017 4291731834
-0.30609453 0.03382428 -0.025277605 4291531106
-0.30776826 0.036769334 -0.02666785 4291796588
-0.308193 0.038560323 -0.026394442 4291470207
-0.30798531 0.039756559 -0.025284929 4291136360
-0.30841041 0.041552495 -0.025009219 4290279261
-0.30883682 0.043354072 -0.024732616 4289492328
-0.30862787 0.044545565 -0.02362361 4289169784
-0.30905464 0.046352077 -0.023344703 4289369470
-0.30916357 0.047851413 -0.022650599 4289171581
-0.30927253 0.049350966 -0.02195638 4289105534
-0.30874547 0.050218824 -0.020441482 4289170551
-0.30853742 0.051397555 -0.019341787 4288513387
-0.30707565 0.051310126 -0.016636794 4287135595
-0.30687198 0.052477136 -0.015552373 4286151271
-0.30605039 0.053010065 -0.013682778 4285825134
-0.36127302 -0.0027857868 -0.1559511 4287991153
-0.36141253 -0.00086399913 -0.15506154 4287200608
-0.3605282 0.00043547325 -0.15259613 4288449902
-0.35914552 0.0014143961 -0.14937414 4287793005
-0.35579878 0.001150731 -0.14315857 4286743645
-0.34555778 -0.0034975626 -0.12644799 4285757012
-0.34300038 -0.003403493 -0.12152065 4286546004
-0.3400647 -0.0035896597 -0.11604141 4286614617
-0.33678028 -0.004044746 -0.11005946 4285561429
-0.33399698 -0.0042177537 -0.10486245 4284770895
-0.33008388 -0.0051805992 -0.097988412 4284442448
-0.32668683 -0.0058529847 -0.091922656 4284311375
-0.3233912 -0.0065050698 -0.086037867 4284246349
-0.3209213 -0.0066389861 -0.081414193 4284377679
-0.31886557 -0.0065220436 -0.077428594 4285297240
-0.31720203 -0.0061610145 -0.074043244 4286222435
-0.31556514 -0.0058055017 -0.070711896 4286288487
-0.31361231 -0.0056987484 -0.066928469 4287008872
-0.31203189 -0.0053525539 -0.06371028 4287336555
-0.31114036 -0.0045295018 -0.061517432 4287730794
-0.3099274 -0.0039553982 -0.058862213 4288255336
-0.30808082 -0.003867798 -0.055292539 4289106536
-0.3072252 -0.0030672757 -0.05318173 4288385385
-0.3066957 -0.002034178 -0.051552184 4286940005
-0.3064869 -0.00076589669 -0.050392125 4286940777
-0.3062788 0.00049874315 -0.049235482 4287665529
-0.30638811 0.0020048318 -0.048538342 4289635717
-0.30649748 0.0035111636 -0.047841076 4290819474
-0.30660686 0.005017709 -0.047143731 4291605657
-0.30671623 0.0065244609 -0.04644629 4292132511
-0.30650812 0.0077772024 -0.045296848 4290032532
-0.30630073 0.0090263691 -0.044150833 4289045124
-0.3060939 0.010271967 -0.043008171 4289507235
-0.30588773 0.011513999 -0.041868865 4289837238
-0.30568221 0.012752506 -0.040732894 4289505959
-0.30547738 0.013987522 -0.039600287 4289960073
-0.30527309 0.015219023 -0.038470939 4291205492
-0.30538145 0.016711652 -0.037780024 4291534709
-0.30548984 0.018204506 -0.037089013 4291533942
-0.3052859 0.019428451 -0.035964854 4291731059
-0.30539414 0.020919519 -0.03527467 4291927661
-0.30519074 0.022138016 -0.034154743 4292060005
-0.30529886 0.02362725 -0.033465415 4291796589
-0.30540702 0.025116725 -0.032775953 4291928688
-0.30551514 0.026606416 -0.032086417 4292259448
-0.30531189 0.027815418 -0.030972503 4292517737
-0.30510926 0.029021027 -0.029861832 4291925348
-0.30521712 0.030506907 -0.029174061 4292121449
-0.30532503 0.031993009 -0.028486168 4292256105
-0.30543292 0.033479333 -0.027798178 4291928176
-0.30554086 0.034965862 -0.02711009 4291793507
-0.30627263 0.037040386 -0.027256729 4291595618
-0.30638093 0.038531821 -0.026566349 4291069283
-0.30680281 0.040323135 -0.026293088 4290804829
-0.30691129 0.041817278 -0.025601486 4290213466
-0.30701977 0.043311611 -0.024909772 4289819486
-0.30712828 0.044806186 -0.024217973 4290218609
-0.30755207 0.046610564 -0.023940369 4290419064
-0.30766073 0.048107818 -0.023247331 4289893496
-0.30808601 0.049920339 -0.022967655 4289433467
-0.30819491 0.051420301 -0.022273347 4289302910
-0.30862159 0.053240985 -0.021991521 4289106815
-0.30809569 0.054099053 -0.020474082 4289369728
-0.30852169 0.055921499 -0.020189824 4289368705
-0.30642912 0.05515847 -0.016663054 4288126354
-0.35960576 -0.0039851256 -0.15814687 4288252010
-0.36025652 -0.0017563488 -0.15805595 4286413665
-0.36090991 0.0004814128 -0.15796454 4286807899
-0.35951403 0.0014676172 -0.15468627 4287465315
-0.3576321 0.0021305091 -0.15066794 4287400028
-0.35284871 0.00094205694 -0.14218508 4286349915
-0.34233701 -0.0039546909 -0.12492007 4285493843
-0.33939907 -0.0041346615 -0.11937863 4286283091
-0.33611232 -0.0045836945 -0.11332855 4285494868
-0.33250853 -0.0052881949 -0.10682262 4284968528
-0.32980996 -0.005443987 -0.10172702 4284639565
-0.32678699 -0.0058562784 -0.096162006 4284508237
-0.32384494 -0.0062572667 -0.090745829 4284311630
-0.32134926 -0.0063951751 -0.086029604 4284182093
-0.31891072 -0.0065296991 -0.081421196 4285692758
-0.31723595 -0.0061663194 -0.077981673 4286616932
-0.31593868 -0.005561403 -0.07512258 4286616933
-0.31500533 -0.0047167386 -0.072819009 4285961577
-0.31339362 -0.0043739746 -0.069513179 4285826671
-0.31180739 -0.0040364 -0.066259407 4286155397
-0.31057873 -0.0034600662 -0.063549556 4287861641
-0.30969533 -0.0026467228 -0.061360825 4289042824
-0.30784222 -0.002570675 -0.057751436 4288255878
-0.30698371 -0.001772258 -0.05561956 4287142020
-0.30645242 -0.00073819613 -0.053975061 4287732851
-0.30624297 0.00053410319 -0.052805971 4288910439
-0.30603418 0.0018027241 -0.051640317 4287597410
-0.30614394 0.0033159249 -0.050939992 4286938728
-0.3062537 0.0048293332 -0.050239563 4287205498
-0.30636352 0.0063429582 -0.049539018 4289240967
-0.30647334 0.0078568188 -0.04883837 4288979332
-0.30626455 0.0091134496 -0.047680032 4286744169
-0.30605647 0.010366476 -0.046525165 4285560941
-0.30584905 0.011615901 -0.045373689 4287866272
-0.30564222 0.012861723 -0.044225596 4289838521
-0.30512163 0.013841336 -0.042634461 4289769903
-0.30491689 0.0150786 -0.041495532 4289701275
-0.30502567 0.016577978 -0.040801592 4290616960
-0.3048214 0.01780967 -0.039666943 4291797107
-0.30493003 0.019307207 -0.038973846 4291993456
-0.3047263 0.020533405 -0.037843503 4291993452
-0.30514732 0.022302961 -0.037587371 4292124518
-0.3046315 0.023249771 -0.036025099 4292253537
-0.30473986 0.024743684 -0.035333682 4292055652
-0.30516037 0.026517631 -0.035073895 4292189544
-0.30526894 0.028014226 -0.034381237 4292126323
-0.30506507 0.029226743 -0.03325884 4292057195
-0.30517349 0.030721541 -0.032567017 4291792233
-0.30528194 0.032216545 -0.031875104 4291923820
-0.30507839 0.033421606 -0.030757865 4291993715
-0.30518669 0.034914792 -0.03006679 4291729255
-0.30529502 0.036408223 -0.029375609 4291463524
-0.30509183 0.037605837 -0.02826355 4291528031
-0.30488926 0.038800079 -0.02715466 4291001433
-0.30530825 0.040589303 -0.026882745 4290147674
-0.30541649 0.042081371 -0.026192175 4289887072
-0.30552474 0.043573651 -0.025501531 4290018402
-0.30594534 0.045373391 -0.025226356 4290809454
-0.30636725 0.047178801 -0.024950285 4291205231
-0.30679047 0.048989892 -0.024673294 4290743401
-0.30721495 0.050806627 -0.024395311 4289954927
-0.3073239 0.05230904 -0.023699988 4289366398
-0.3077499 0.054134022 -0.023419932 4289238412
-0.30817717 0.055964742 -0.023138944 4289633937
-0.30924714 0.058462042 -0.023692403 4290160802
-0.31000262 0.060646191 -0.023829695 4290300350
-0.3580777 -0.0032628137 -0.15945345 4287726947
-0.35821703 -0.0013408425 -0.15856403 4286150233
-0.35937566 0.0012070126 -0.15927628 4286874453
-0.35798869 0.0021892008 -0.15599036 4287466068
-0.35512531 0.0022232414 -0.15040989 4287269463
-0.35232729 0.0022567697 -0.14495662 4285889368
-0.33786544 -0.0052376846 -0.12139833 4285034065
-0.33501917 -0.0053993156 -0.1159692 4285033808
-0.33142611 -0.0060923295 -0.10941063 4284771150
-0.32873586 -0.0062387115 -0.10427524 4284575056
-0.32610968 -0.0063813808 -0.09926194 4284509005
-0.32354531 -0.0065204473 -0.094366536 4284443473
-0.32141188 -0.0064021177 -0.090152495 4283987286
-0.31932059 -0.0062859016 -0.086021662 4285564502
-0.31762871 -0.0059215645 -0.082516596 4286815076
-0.31631821 -0.0053133755 -0.079604983 4286814053
-0.31537542 -0.0044631213 -0.077261195 4285302889
-0.31444174 -0.0036208513 -0.074939914 4284911736
-0.31317261 -0.0030364206 -0.072122879 4288585621
-0.31158048 -0.0027076369 -0.068832949 4290563260
-0.31068248 -0.001888923 -0.066595174 4290759614
-0.31012604 -0.00082898448 -0.064875111 4290229436
-0.30792728 -0.001015647 -0.060718335 4289838265
-0.30706298 -0.00021932762 -0.058559496 4290495408
-0.30652809 0.00081651722 -0.056895807 4290032535
-0.30631715 0.0020944325 -0.055715002 4287992962
-0.30610693 0.0033686841 -0.054537743 4287142256
-0.30621725 0.0048913495 -0.053833127 4288647526
-0.30632764 0.0064142672 -0.053128384 4287463779
-0.30643803 0.0079373922 -0.052423544 4286411614
-0.30622795 0.0092015648 -0.051252689 4285689691
-0.30601853 0.010462075 -0.050085358 4284772440
-0.30549189 0.011457553 -0.048462033 4284247906
-0.30528459 0.012709289 -0.047304053 4287008647
-0.30507794 0.013957446 -0.046149574 4289771441
-0.30455741 0.014936871 -0.044547755 4290231995
-0.30435285 0.016176445 -0.043402497 4289966510
-0.30446187 0.017680531 -0.042706478 4290094999
-0.30425775 0.018914472 -0.041565493 4291010685
-0.30436665 0.020416737 -0.040870316 4291861357
-0.30385149 0.021371834 -0.039293595 4292056676
-0.30427176 0.023145538 -0.039039329 4292121697
-0.30406865 0.024368366 -0.037906941 4292321894
-0.30417728 0.02586697 -0.037213445 4292124008
-0.30428591 0.027365798 -0.036519848 4292189285
-0.30470693 0.029149452 -0.036260966 4292057707
-0.30481577 0.030651011 -0.035566106 4292124273
-0.30523825 0.032442778 -0.03530518 4291923811
-0.30566207 0.034240235 -0.035043363 4291662441
-0.30577126 0.035746988 -0.034346104 4291731575
-0.30588049 0.037253972 -0.033648744 4291661925
-0.30598974 0.038761172 -0.032951266 4291462500
-0.30546907 0.039664876 -0.031394899 4291662183
-0.30557799 0.041167948 -0.030699329 4291068766
-0.30568695 0.042671263 -0.030003674 4290017115
-0.30548188 0.043867454 -0.02888361 4289887328
-0.30559072 0.045368943 -0.028188782 4290149987
-0.30569956 0.046870638 -0.027493859 4290677871
-0.30612293 0.048686687 -0.027219987 4291008375
-0.30623198 0.050191104 -0.026523804 4290612850
-0.30697361 0.052335981 -0.026669431 4289955958
-0.30708298 0.053845409 -0.02597094 4289762441
-0.30879238 0.056995854 -0.027388889 4290028953
-0.30922577 0.058850784 -0.027110968 4290493616
-0.31096756 0.062069453 -0.028550614 4290822327
-0.35554495 -0.0031490086 -0.15915896 4287071073
-0.35668859 -0.00061817537 -0.15987088 4286347350
-0.35682783 0.0013043198 -0.15898135 4287466326
-0.35546094 0.0022823715 -0.15570992 4287990610
-0.35118189 0.0013921013 -0.14785849 4286810455
-0.34798375 0.0011328913 -0.1417447 4285494870
-0.33392209 -0.0062178653 -0.11861926 4284771409
-0.33074626 -0.0066328812 -0.11264341 4284574542
-0.32726258 -0.0072982213 -0.10621542 4284508495
-0.32465383 -0.0074283229 -0.10117918 4284640079
-0.3228626 -0.0070434897 -0.097434439 4284576087
-0.32110137 -0.0066647925 -0.093752243 4284841569
-0.31936935 -0.0062921727 -0.090131022 4286093674
-0.31766582 -0.0059254384 -0.086569175 4286815589
-0.31634644 -0.005313301 -0.083612181 4286487397
-0.31504422 -0.0047088764 -0.080693461 4285236076
-0.31445733 -0.003609946 -0.078878231 4286221708
-0.31387424 -0.002517815 -0.077074639 4289645232
-0.31294921 -0.0016858618 -0.074757889 4290893519
-0.31169155 -0.0011142542 -0.07194642 4291351748
-0.31078726 -0.0002977429 -0.069679625 4291196809
-0.31056339 0.001017682 -0.068445332 4292050027
-0.30867288 0.0010607706 -0.064712562 4291788904
-0.30812532 0.0021071623 -0.063006282 4291138430
-0.30725464 0.0028942348 -0.060823198 4291415731
-0.30671579 0.0039272695 -0.059142072 4291351479
-0.3061803 0.0049540941 -0.057471216 4289640339
-0.30629125 0.0064863847 -0.056762226 4287729770
-0.30640224 0.0080189146 -0.056053132 4288775519
-0.30619085 0.0092907455 -0.054869596 4287397215
-0.30630168 0.010821345 -0.054161396 4285167198
-0.30577001 0.011823286 -0.052513085 4284313946
-0.30524161 0.012819348 -0.050874826 4284116825
-0.30503368 0.014074951 -0.049707878 4285036906
-0.30451 0.015059971 -0.048085518 4287863959
-0.30430415 0.016306845 -0.046927921 4290034875
-0.30409896 0.017550156 -0.045773815 4290231995
-0.3042084 0.019061314 -0.045074604 4290098351
-0.30369046 0.020026065 -0.043475766 4290160796
-0.3037996 0.021533089 -0.04277847 4290551432
-0.30328453 0.022487866 -0.041191235 4291007862
-0.30339333 0.023990765 -0.040495872 4291267943
-0.30319116 0.025214368 -0.039359573 4291927147
-0.3029896 0.026434479 -0.038226608 4292255595
-0.30309817 0.027933467 -0.037533037 4292124010
-0.30382884 0.030004513 -0.037713345 4291595878
-0.30456397 0.032088343 -0.037894629 4291530857
-0.3053036 0.034185123 -0.038076915 4291792996
-0.30604777 0.036294941 -0.038260225 4291662693
-0.30615774 0.037813399 -0.037557654 4291468144
-0.30626771 0.039332073 -0.036854964 4291595875
-0.30637771 0.040850986 -0.03615218 4291659108
-0.30616927 0.042062271 -0.035011053 4291862128
-0.30564487 0.042961832 -0.033438895 4291332964
-0.30575439 0.044474479 -0.032739017 4290280031
-0.30554789 0.045675401 -0.031607982 4289953893
-0.30629069 0.047815625 -0.031770181 4290020460
-0.30640045 0.049331229 -0.031068917 4290350712
-0.30651021 0.050847072 -0.030367553 4290682761
-0.30822295 0.053988513 -0.031826124 4290684820
-0.30865735 0.055846862 -0.031554084 4290555292
-0.30909306 0.057711177 -0.031281054 4290690736
-0.30953014 0.059581473 -0.03100712 4290692026
-0.31128773 0.062830828 -0.032488376 4291412403
-0.35303155 -0.0030359274 -0.15886699 4286677090
-0.35267681 -0.0014336678 -0.15719387 4286742096
-0.35232347 0.00016271745 -0.15552703 4287989328
-0.35003212 0.00052410655 -0.15077153 4287531091
-0.34731266 0.00057680177 -0.14535548 4286875223
-0.34237367 -0.00084916386 -0.13644102 4285428820
-0.32965499 -0.007443672 -0.11525539 4284705361
-0.32657638 -0.00783653 -0.10939827 4284575057
-0.32358173 -0.0082184467 -0.1037007 4284508243
-0.32141885 -0.0080816932 -0.099335708 4284837213
-0.3196696 -0.0076943706 -0.095637746 4285170797
-0.31831485 -0.0070608621 -0.092571676 4286619507
-0.31697801 -0.0064354483 -0.089546017 4287209063
-0.31565872 -0.0058180005 -0.086559899 4286226018
-0.31506395 -0.004704929 -0.084707968 4284779373
-0.31447306 -0.0035988784 -0.082867965 4287663765
-0.31388608 -0.0024997406 -0.081039846 4290368202
-0.31330284 -0.001407524 -0.079223402 4291484369
-0.31307048 -6.531387e-05 -0.07795012 4291217861
-0.31214777 0.00075657503 -0.075625323 4291805881
-0.31157577 0.0018285498 -0.073843367 4292257943
-0.3110075 0.0028939326 -0.072072737 4292054137
-0.30943239 0.0031767944 -0.068782918 4290600312
-0.30854446 0.0039687161 -0.066545084 4290402143
-0.30766487 0.0047534076 -0.064328201 4290934899
-0.30744833 0.0060475776 -0.063115411 4290676883
-0.30690542 0.0070775826 -0.061416481 4291150506
-0.30701736 0.008624427 -0.060700856 4288389246
-0.30680293 0.0099071916 -0.059499107 4287268192
-0.30626461 0.010921062 -0.057819031 4286614115
-0.30605239 0.012194728 -0.056627154 4285168991
-0.30551895 0.013197275 -0.054963559 4284445530
-0.3049888 0.014193856 -0.053310163 4284182872
-0.30446196 0.015184552 -0.051666871 4284248411
-0.30425483 0.016438847 -0.050496783 4285563760
-0.30404833 0.017689519 -0.049330227 4288061851
-0.30384251 0.018936619 -0.048167117 4290034363
-0.30363733 0.020180101 -0.047007468 4290429373
-0.30343276 0.021419987 -0.045851253 4290296501
-0.30322888 0.022656366 -0.044698477 4290294185
-0.30271387 0.023610823 -0.043100569 4290421911
-0.30282298 0.025118433 -0.042403094 4290549378
-0.30231082 0.026063005 -0.040816795 4291007609
-0.3021102 0.02728386 -0.039679937 4291335797
-0.30221885 0.028785314 -0.038985319 4291400301
-0.30294791 0.030862264 -0.039170314 4290873449
-0.30399504 0.033245068 -0.039799813 4290478185
-0.30505183 0.035650004 -0.040435005 4291335029
-0.3061184 0.038077362 -0.041075937 4291465836
-0.30654991 0.039911743 -0.040818859 4290940265
-0.30698282 0.041752055 -0.04056089 4290808937
-0.30709374 0.043285202 -0.039851602 4291135087
-0.30624023 0.043878105 -0.037802529 4291271801
-0.30667135 0.045719542 -0.03754044 4291138161
-0.30678201 0.04724865 -0.036833022 4290480499
-0.30721465 0.049098529 -0.036568768 4289827714
-0.31060266 0.053915162 -0.040358227 4289895822
-0.31038278 0.055135738 -0.03918327 4290619030
-0.3104952 0.056689654 -0.038464386 4290753188
-0.3109405 0.058584202 -0.038198177 4290493622
-0.31172237 0.060829889 -0.038385481 4290691000
-0.31183538 0.06239181 -0.037662894 4291018671
-0.31194842 0.063953981 -0.036940176 4291937706
-0.35102496 -0.0026218044 -0.15936932 4286479968
-0.35018858 -0.0013274989 -0.15691136 4286938962
-0.34887785 -0.00034727374 -0.15369578 4287595088
-0.34523118 -0.00088341453 -0.14673059 4287858004
-0.33768913 -0.0039959969 -0.13354154 4286808662
-0.33309847 -0.0052858158 -0.12514664 4285099088
-0.32787812 -0.007059677 -0.11578663 4284509008
-0.32443872 -0.0077182455 -0.10931007 4284509007
-0.32186335 -0.007843202 -0.10423713 4285295709
-0.31934866 -0.0079649678 -0.099283449 4287139452
-0.31798917 -0.0073265047 -0.096177809 4286882691
-0.31701106 -0.0064428514 -0.093685843 4286946664
-0.31568274 -0.0058213244 -0.090652838 4286291558
-0.31472731 -0.0049547432 -0.088216521 4284846442
-0.3137812 -0.00409644 -0.085803978 4288126361
-0.31354564 -0.002737256 -0.084507778 4290826189
-0.31296057 -0.0016389672 -0.082671314 4291941324
-0.31272754 -0.00028989569 -0.081386365 4291541429
-0.312148 0.00079559401 -0.079568692 4291600781
-0.31191742 0.0021346812 -0.078294754 4291585141
-0.31134334 0.003207582 -0.07649561 4291328118
-0.31077299 0.0042738523 -0.074707933 4290415761
-0.30986714 0.0050706142 -0.072413236 4289952152
-0.30930603 0.0061229155 -0.070652582 4289950322
-0.30874851 0.0071687675 -0.068902992 4290088332
-0.3085278 0.008473658 -0.067669518 4290756543
-0.30864123 0.010042512 -0.066943817 4290761408
-0.30842105 0.011341228 -0.065715164 4287864194
-0.30786994 0.012364958 -0.063991778 4286415202
-0.30666581 0.012841246 -0.061295252 4285825888
-0.3064512 0.014122044 -0.06008859 4285037919
-0.30558828 0.014854947 -0.057918414 4284511836
-0.3047334 0.015581256 -0.055768352 4284314714
-0.30420485 0.016572453 -0.054109827 4284117081
-0.3036795 0.017557729 -0.052461389 4284379483
-0.30347323 0.018810721 -0.051288251 4285627760
-0.30326757 0.020060066 -0.050118558 4287797656
-0.30306256 0.021305844 -0.04895236 4289771955
-0.3031725 0.022826847 -0.048248813 4290758072
-0.30296797 0.024066929 -0.047087073 4290494394
-0.30245134 0.025021613 -0.04547454 4290361781
-0.30224892 0.026253119 -0.044322152 4290490795
-0.30173683 0.027197251 -0.042725202 4290686369
-0.30153644 0.02842031 -0.041582026 4290816153
-0.30164534 0.02992649 -0.040885303 4291011469
-0.30237475 0.03201339 -0.041076656 4290813320
-0.30342239 0.034408964 -0.041716836 4290548867
-0.30479753 0.037128501 -0.042815026 4291404685
-0.30913237 0.042695593 -0.048101712 4291338629
-0.31024507 0.04521798 -0.048795026 4290877823
-0.31103063 0.047436967 -0.049018417 4290354053
-0.31148222 0.049339194 -0.048766416 4290550928
-0.3115961 0.050914072 -0.048037924 4290421141
-0.31170997 0.052489199 -0.047309324 4290422163
-0.31148538 0.053726979 -0.046108853 4290620313
-0.31126153 0.054961093 -0.04491207 4290425766
-0.31137511 0.056531921 -0.044185445 4290099378
-0.31115183 0.057760138 -0.042993411 4290099636
-0.31160226 0.059674285 -0.0427319 4290099376
-0.31137869 0.06089801 -0.041541927 4290032559
-0.31149215 0.062467296 -0.040816039 4291081130
-0.34902582 -0.0022091209 -0.15986992 4286347608
-0.34819859 -0.00091864832 -0.15741481 4286939729
-0.34690168 5.7572885e-05 -0.15420248 4287464272
-0.34329146 -0.0004834579 -0.14724277 4286873681
-0.33453014 -0.0044484846 -0.13196607 4285492817
-0.33086121 -0.0051727234 -0.1249993 4284574030
-0.32570964 -0.0069427602 -0.11567525 4284246606
-0.32231542 -0.007600667 -0.10922266 4284246608
-0.31977394 -0.0077263983 -0.10416798 4285559904
-0.31766012 -0.0075948876 -0.099820286 4286683002
-0.3163141 -0.0069597377 -0.096716315 4286683505
-0.31534588 -0.0060791769 -0.094225824 4287208809
-0.31438726 -0.0052071027 -0.091759846 4285303142
-0.31343812 -0.0043433532 -0.089318097 4287862409
-0.31284943 -0.0032329187 -0.087454103 4290958027
-0.31261495 -0.0018727125 -0.086153142 4291942088
-0.31238118 -0.00051671069 -0.084856294 4291462306
-0.31214821 0.00083508721 -0.083563544 4290932106
-0.31156862 0.001920701 -0.081732981 4291404955
-0.31133813 0.0032624335 -0.080451354 4291795854
-0.31110841 0.0046001012 -0.079173781 4290671990
-0.31053597 0.0056672338 -0.077368848 4290798957
-0.30996722 0.0067277197 -0.075575419 4291597195
-0.31008214 0.0083187865 -0.074839547 4291537043
-0.30917811 0.009098039 -0.072540313 4291347130
-0.30929253 0.010681924 -0.071807757 4291286471
-0.30873233 0.011718879 -0.070045903 4288786343
-0.30851054 0.0130234 -0.068804532 4286220665
-0.30828947 0.014323993 -0.067566954 4285497702
-0.30740404 0.015067258 -0.065327197 4285301091
-0.30718616 0.01635688 -0.064102717 4284906590
-0.30598441 0.016809525 -0.061401095 4285758044
-0.30479768 0.017256713 -0.058733061 4285691483
-0.3042655 0.018248994 -0.057054967 4284575832
-0.30373669 0.019235374 -0.055387206 4284182101
-0.3035289 0.020493729 -0.05420227 4284444763
-0.30332184 0.021748401 -0.053020902 4285560942
-0.30311537 0.022999434 -0.051843014 4287139205
-0.30290961 0.024246793 -0.050668683 4288392095
-0.30270448 0.025490602 -0.049497895 4289444021
-0.30249998 0.026730774 -0.048330557 4290625719
-0.3022961 0.02796738 -0.047166716 4291085753
-0.30115917 0.028338555 -0.044645444 4290888377
-0.30126846 0.029851584 -0.043945663 4290690487
-0.3010681 0.031074686 -0.04279704 4290690229
-0.30242234 0.033761054 -0.043897022 4290689714
-0.3034766 0.036179613 -0.04455417 4290951339
-0.30486047 0.038927115 -0.045676708 4291279273
-0.30889061 0.044245042 -0.050578307 4291279015
-0.31000739 0.046786956 -0.051286671 4291148457
-0.31079587 0.049021728 -0.051519059 4290952107
-0.31124917 0.050935753 -0.051269848 4290755761
-0.31170389 0.052856099 -0.051019713 4290231736
-0.31181842 0.054441422 -0.050286472 4289969592
-0.31159219 0.05568422 -0.049073648 4290034353
-0.31102782 0.056580096 -0.047389258 4289639338
-0.31148085 0.058504261 -0.047133323 4288718758
-0.31159508 0.060085513 -0.046401996 4288256925
-0.31170931 0.061666969 -0.045670554 4289503379
-0.34594318 -0.0042908983 -0.15966442 4287069790
-0.34607956 -0.0024012376 -0.15879056 4286675028
-0.34526825 -0.0011172004 -0.15635362 4287268178
-0.34446314 0.00015735037 -0.15393507 4286677842
-0.33775887 -0.0024386696 -0.14184827 4285428306
-0.33099714 -0.0051714946 -0.12972768 4284639309
-0.32741675 -0.0058776122 -0.12285811 4284311631
-0.32316494 -0.0070907087 -0.11492862 4283918670
-0.31982711 -0.0077427877 -0.10852052 4284247637
-0.31732774 -0.0078660129 -0.1034997 4285301605
-0.31561241 -0.0074801566 -0.099767081 4285828972
-0.31428432 -0.006847709 -0.096673727 4286354282
-0.31368595 -0.0057165911 -0.094764173 4287079273
-0.31309152 -0.0045927381 -0.092867069 4285301874
-0.31250101 -0.0034760537 -0.09098234 4290363303
-0.31191441 -0.0023664108 -0.089109875 4291086540
-0.31168091 -0.0010052184 -0.087804064 4291138714
-0.31144828 0.00035178321 -0.086502433 4291659153
-0.31156489 0.0019675856 -0.085755214 4292123799
-0.31133279 0.0033179747 -0.084458798 4292189313
-0.31110147 0.0046642101 -0.083166488 4290812821
-0.31052527 0.005738012 -0.081337012 4290280599
-0.31029639 0.0070742401 -0.080055825 4290150277
-0.31006831 0.0084063932 -0.078778692 4291215026
-0.31018388 0.010007947 -0.078038067 4291678404
-0.30961439 0.011058528 -0.076236494 4291286467
-0.30972967 0.012655369 -0.07549803 4289114278
-0.30950364 0.013973022 -0.074233979 4286549377
-0.30961874 0.01556776 -0.073496513 4285498476
-0.30905387 0.016596368 -0.071717739 4285367399
-0.30849263 0.017618632 -0.069950238 4285170019
-0.30793494 0.018634582 -0.06819389 4284907102
-0.30671695 0.019077273 -0.065440647 4286417246
-0.30551431 0.019514607 -0.06272196 4288254048
-0.30465028 0.020227572 -0.06052563 4287135835
-0.30411601 0.021215644 -0.058833987 4284903253
-0.30390596 0.022480913 -0.057634447 4284378454
-0.30369657 0.023742449 -0.056438498 4285758046
-0.30348787 0.025000272 -0.055246178 4287861610
-0.30327982 0.026254443 -0.05405749 4288257142
-0.30307245 0.027504906 -0.052872334 4287929221
-0.30223316 0.028171483 -0.050754767 4288780686
-0.30202869 0.029411756 -0.049581811 4289112219
-0.30151165 0.030356741 -0.047951572 4289049262
-0.30130929 0.031588398 -0.046788115 4289247930
-0.30141917 0.033111122 -0.046083953 4289248959
-0.30215561 0.035230678 -0.046293389 4289314497
-0.30321342 0.03766745 -0.046964701 4289839805
-0.30460203 0.040437229 -0.048107464 4290101689
-0.3073189 0.044517539 -0.051159531 4289772724
-0.30809382 0.046730969 -0.051390175 4289771438
-0.30887365 0.04895867 -0.051622212 4290032806
-0.30932236 0.050866708 -0.05137394 4289769636
-0.31112844 0.054138117 -0.053062055 4288850340
-0.31090245 0.055385295 -0.051841028 4287667356
-0.31101707 0.056973591 -0.051106539 4286941578
-0.31079167 0.05821472 -0.049890324 4286808185
-0.31158772 0.060501978 -0.050119143 4287924347
-0.3113611 0.061739925 -0.04890237 4290292113
-0.34163851 -0.0053496053 -0.15626207 4286610525
-0.34316671 -0.0025910148 -0.15772371 4286478929
-0.34237099 -0.0013133313 -0.15530474 4286415447
-0.34112155 -0.00034545158 -0.15214074 4285824093
-0.33763736 -0.00087403046 -0.14528933 4285692765
-0.33168638 -0.0031028735 -0.13439715 4284572750
-0.32403231 -0.006570064 -0.12075457 4283852623
-0.32064635 -0.0072370279 -0.1141899 4283853393
-0.3177371 -0.007625889 -0.10843699 4284249691
-0.31490594 -0.0080040973 -0.10283838 4284711266
-0.31357807 -0.0073660794 -0.099714436 4285106021
-0.31262329 -0.0064833378 -0.097209156 4285959526
-0.31203127 -0.0053551276 -0.095300935 4288976998
-0.31144321 -0.0042341147 -0.093405224 4286091633
-0.31120923 -0.0028634178 -0.092086121 4290165153
-0.31097606 -0.0014969705 -0.09077131 4291607482
-0.31074366 -0.00013478553 -0.089460641 4290939280
-0.31086057 0.001486285 -0.088711083 4290610086
-0.31097749 0.0031076008 -0.087961413 4291198095
-0.31074551 0.0044607348 -0.086657152 4290745741
-0.31051433 0.0058097159 -0.085357092 4290811294
-0.31063092 0.0074264235 -0.084609561 4291337887
-0.31040034 0.0087688044 -0.083314694 4291279534
-0.3101705 0.010107063 -0.082023934 4291810763
-0.31028676 0.011719244 -0.081278503 4290564802
-0.31040305 0.013331632 -0.080532953 4288590235
-0.31051931 0.014944281 -0.079787314 4286746492
-0.30994502 0.015986333 -0.077968143 4285696110
-0.31006095 0.017594207 -0.077224709 4285433704
-0.30983287 0.01891306 -0.07594943 4285433702
-0.30892271 0.019648908 -0.073625781 4285761890
-0.308698 0.020956425 -0.072364308 4285892189
-0.30746335 0.021388691 -0.069557957 4287007325
-0.30624437 0.021815682 -0.066787161 4288714591
-0.3053686 0.022524681 -0.06455069 4288975453
-0.30482695 0.023515066 -0.062830403 4287201624
-0.30461371 0.024788827 -0.061613206 4285167190
-0.30440116 0.026058823 -0.060399737 4286742619
-0.30418929 0.027325055 -0.059190001 4289698144
-0.30397812 0.028587541 -0.057983939 4288844127
-0.30376762 0.029846309 -0.05678153 4287401824
-0.30355778 0.03110138 -0.055582773 4286348903
-0.30302864 0.032054286 -0.05391109 4285758576
-0.30250281 0.033001516 -0.052249692 4285893506
-0.30229658 0.034242623 -0.051066957 4286551955
-0.30114725 0.034579944 -0.048494264 4287078298
-0.30251864 0.037321724 -0.049643233 4288786337
-0.30390719 0.040097963 -0.050806459 4288523935
-0.30498809 0.042592388 -0.051508375 4288394140
-0.3077313 0.046732619 -0.054627836 4288063635
-0.30884948 0.049303029 -0.055360127 4287205767
-0.30963919 0.051560547 -0.055607084 4286741620
-0.31009334 0.053491283 -0.055362824 4286542696
-0.31020823 0.055084392 -0.054626189 4286148961
-0.31100613 0.057372108 -0.05487169 4285756517
-0.31146476 0.059322231 -0.054624718 4286152305
-0.31158024 0.060923744 -0.053884223 4288454016
-0.3387835 -0.0055206656 -0.15522182 4285888348
-0.34028673 -0.0027785066 -0.15666923 4285889620
-0.33905128 -0.0018042288 -0.15350364 4286220130
-0.33782977 -0.00084062206 -0.15037347 4285826154
-0.33355027 -0.0019382935 -0.14214592 4285165661
-0.32532048 -0.0057667554 -0.12737501 4284179277
-0.32187283 -0.0064544999 -0.12062632 4283655758
-0.31891155 -0.0068588848 -0.1147156 4283722580
-0.31603071 -0.0072520361 -0.1089653 4283986778
-0.31358835 -0.0073799947 -0.10396452 4284315740
-0.31226918 -0.0067459391 -0.10083309 4284579167
-0.31132081 -0.0058660917 -0.098322257 4285236322
-0.31073299 -0.0047397511 -0.096410386 4287728738
-0.31014913 -0.0036205463 -0.094511025 4287992934
-0.30991721 -0.0022506914 -0.093190126 4289177472
-0.31003436 -0.00062456686 -0.09243834 4289377701
-0.30980307 0.00073863822 -0.091122836 4290818222
-0.3099201 0.0023625619 -0.090372063 4291604656
-0.31003711 0.0039867349 -0.089621186 4290553770
-0.31050321 0.0058822907 -0.089430116 4289362847
-0.31062049 0.0075095943 -0.088677764 4290680478
-0.31073776 0.0091371331 -0.087925337 4291741372
-0.31085503 0.010764944 -0.087172776 4291811270
-0.31062251 0.012111119 -0.085865133 4289969596
-0.31108966 0.014021228 -0.085667342 4287735442
-0.31085679 0.015362527 -0.084361956 4286288756
-0.31097397 0.016988598 -0.083610184 4285762155
-0.31074166 0.018323313 -0.082310066 4285630825
-0.31085867 0.019947216 -0.081559308 4286416228
-0.31027943 0.02098038 -0.079722241 4286877024
-0.30970395 0.022007018 -0.077897012 4287403614
-0.30913225 0.02302729 -0.076083563 4287862620
-0.30788475 0.023449853 -0.073230565 4287664989
-0.30665323 0.023867238 -0.070414029 4287400795
-0.30610046 0.024865951 -0.068653114 4288582492
-0.30555123 0.025858523 -0.066903315 4289698654
-0.30500546 0.026845023 -0.065164499 4287859802
-0.30511892 0.028419439 -0.064436607 4287597659
-0.30490384 0.029694164 -0.063208997 4289565020
-0.30468944 0.030965064 -0.06198512 4289366364
-0.30447572 0.032232203 -0.060765021 4288779360
-0.30458871 0.033800062 -0.060040161 4286550373
-0.30405039 0.034755185 -0.058336023 4284772441
-0.30448836 0.03662708 -0.058100928 4284707672
-0.30395123 0.037572239 -0.056405317 4285886812
-0.30309591 0.0382022 -0.054240953 4285953631
-0.3032079 0.039756499 -0.053522374 4290616676
-0.3046138 0.042574491 -0.054721028 4289370989
-0.30570823 0.04510456 -0.055448189 4288456561
-0.308487 0.049316987 -0.05864815 4290226284
-0.30961958 0.05192491 -0.059406973 4289174378
-0.31041932 0.054212991 -0.059669439 4286610273
-0.31087905 0.056166939 -0.05942937 4285298017
-0.31099498 0.057775714 -0.058685612 4285234792
-0.3121509 0.060451288 -0.059451547 4287270007
-0.3359603 -0.0056896792 -0.15419348 4285296216
-0.33609331 -0.0038418181 -0.1533393 4285233501
-0.33533716 -0.0025805135 -0.15097728 4286090089
-0.33458665 -0.0013282882 -0.14863275 4285363805
-0.32871282 -0.0035454528 -0.13765594 4284245329
-0.32352823 -0.005380806 -0.12789245 4283655501
-0.32050237 -0.0058058659 -0.12179785 4283590479
-0.31793854 -0.0059551238 -0.11650451 4283657042
-0.31506595 -0.0063610249 -0.11072015 4283788629
-0.31263077 -0.0064994744 -0.10569037 4283920983
-0.31131569 -0.0058700764 -0.10254212 4284249689
-0.31037039 -0.0049929298 -0.10001862 4284578397
-0.30978471 -0.0038673792 -0.098098017 4285497183
-0.30920291 -0.0027490472 -0.096189961 4287005792
-0.30862492 -0.0016378305 -0.094294325 4287471212
-0.30874202 -1.1512133e-05 -0.093542553 4288715898
-0.30885914 0.0016150214 -0.092790663 4290095757
-0.30897626 0.0032418107 -0.092038676 4290098852
-0.3094413 0.0051392517 -0.091851436 4289576634
-0.30990788 0.0070431759 -0.091663465 4289898679
-0.31002545 0.0086760465 -0.090908647 4290229686
-0.3104938 0.010589448 -0.090718552 4289709248
-0.31061161 0.012225491 -0.089962274 4289114272
-0.31072941 0.013861785 -0.089205883 4287272073
-0.31119978 0.015787683 -0.08901237 4285893232
-0.31096506 0.017135102 -0.08769279 4285565287
-0.31108293 0.018772116 -0.086936072 4285565288
-0.31049803 0.01981739 -0.085066393 4286024551
-0.31061554 0.021449484 -0.084311947 4287399262
-0.31038302 0.022781935 -0.083006166 4288252505
-0.30980337 0.023809612 -0.081158258 4288451672
-0.30922753 0.024830842 -0.079322293 4288058457
-0.30831274 0.02554463 -0.076963067 4286942043
-0.3074069 0.026251744 -0.074626669 4285889882
-0.30684626 0.027252631 -0.072835155 4287793244
-0.30729917 0.029156055 -0.072618663 4290419551
-0.30673978 0.030146413 -0.070836246 4289959004
-0.30585027 0.030825537 -0.068551317 4289437791
-0.30629867 0.032723203 -0.068329014 4289699425
-0.30607921 0.034005739 -0.067081265 4290877533
-0.30619371 0.035596184 -0.066346064 4289824606
-0.30630824 0.037186872 -0.065610759 4287073379
-0.30608916 0.038460933 -0.06436906 4285034841
-0.3058708 0.039731137 -0.063131198 4285364057
-0.30532235 0.040678665 -0.061398011 4288184926
-0.30444959 0.041302048 -0.059182473 4286677345
-0.30423594 0.042556394 -0.057964243 4289566821
-0.30500448 0.044774003 -0.058217939 4291667046
-0.3061094 0.047334958 -0.05896765 4291073377
-0.30756098 0.050256532 -0.060224146 4291008863
-0.3083514 0.052531812 -0.060488481 4288449636
-0.30880624 0.054476719 -0.060250677 4286151526
-0.30926257 0.056428149 -0.06001202 4285956209
-0.31006366 0.058738876 -0.060277022 4288783747
-0.33316839 -0.0058566919 -0.15317683 4284901201
-0.33156019 -0.0051667555 -0.14934114 4284575577
-0.3308304 -0.0039166082 -0.14702433 4284970590
-0.3288348 -0.0035325808 -0.14255489 4284245581
-0.32523111 -0.0042762794 -0.13536733 4283655756
-0.32213819 -0.0047230483 -0.12908077 4283525199
-0.31951839 -0.0048876982 -0.12362441 4283656528
-0.31696191 -0.0050480785 -0.11829986 4283657296
-0.3144666 -0.0052044014 -0.11310241 4283657297
-0.31239185 -0.0050968011 -0.10863498 4283657813
-0.31107166 -0.0044734492 -0.10545114 4283854934
-0.31012282 -0.0035987094 -0.10290046 4284182872
-0.30918339 -0.0027324448 -0.10037506 4284446554
-0.30860159 -0.001613961 -0.098453186 4285102173
-0.3080236 -0.00050262082 -0.096543863 4285631074
-0.30814099 0.00112925 -0.095789604 4287398496
-0.30860606 0.0030291528 -0.09560816 4287993193
-0.30872369 0.0046642045 -0.094852455 4287995775
-0.30919054 0.0065736137 -0.094668947 4289438862
-0.30965897 0.0084895855 -0.094484739 4290619281
-0.31012893 0.010412143 -0.094299734 4290028436
-0.31024721 0.01205631 -0.093539804 4288322958
-0.31071901 0.013988511 -0.09335278 4286811509
-0.31083751 0.015635889 -0.092591368 4285694568
-0.31095603 0.01728352 -0.091829844 4285301862
-0.31072047 0.018635387 -0.090499014 4286023012
-0.31083882 0.020280758 -0.08973854 4287071588
-0.31025177 0.021326425 -0.087850325 4288187492
-0.31036976 0.022966821 -0.087092154 4288383581
-0.30978623 0.02400065 -0.085218623 4288644953
-0.30920652 0.025027901 -0.083357327 4287989081
-0.30932379 0.026658222 -0.082603812 4287266391
-0.30840251 0.027367936 -0.080213062 4286873177
-0.30783212 0.028376555 -0.078382984 4286415196
-0.3076064 0.029686041 -0.077099092 4288120925
-0.3077226 0.031301413 -0.076352492 4290023260
-0.30715728 0.032293051 -0.074543536 4290153818
-0.30761352 0.034217708 -0.074328154 4291141727
-0.30738899 0.035514466 -0.073054619 4290354530
-0.30716518 0.036807206 -0.071785048 4289697374
-0.3072809 0.038415886 -0.071041524 4287067992
-0.30705765 0.039702341 -0.069777064 4285560153
-0.30683517 0.040984876 -0.06851662 4285824093
-0.30661342 0.042263515 -0.067260079 4287529054
-0.30639237 0.043538257 -0.066007487 4290818916
-0.30684388 0.045467421 -0.065779254 4287596642
-0.30662251 0.046737488 -0.064528823 4286806626
-0.30640188 0.048003715 -0.063282356 4289561179
-0.3068527 0.049937665 -0.063049734 4288844386
-0.30730504 0.051878124 -0.062816277 4287461728
-0.30775881 0.05382508 -0.062581994 4286151527
-0.30821407 0.055778537 -0.062346779 4287597177
-0.33040723 -0.0060217143 -0.15217175 4284573005
-0.32840443 -0.0056165755 -0.14763074 4284048717
-0.32769138 -0.0043737008 -0.14533716 4283851600
-0.32656705 -0.0034234803 -0.14234263 4283524941
-0.32382095 -0.0036091984 -0.13657293 4283525455
-0.32074791 -0.0040652072 -0.1302693 4283657043
-0.31853068 -0.0039661764 -0.12545756 4283984982
-0.31635964 -0.0038689517 -0.12074575 4284313429
-0.31423327 -0.00377349 -0.11613083 4284575830
-0.31215027 -0.0036797419 -0.11160983 4284772953
-0.31082496 -0.003062574 -0.10838982 4284444245
-0.30987245 -0.0021903489 -0.10581149 4284051030
-0.30892953 -0.0013265957 -0.10325891 4284117334
-0.30834559 -0.00020701307 -0.10131785 4284248921
-0.30811405 0.0011714346 -0.099972516 4284446298
-0.30823216 0.0028143432 -0.099213265 4285167195
-0.30835024 0.0044574873 -0.098453932 4285497950
-0.30846837 0.0061008735 -0.097694471 4286416225
-0.30893704 0.0080223996 -0.097514786 4288054114
-0.30940729 0.0099505866 -0.0973344 4288708194
-0.30987912 0.011885413 -0.097153261 4288183395
-0.31035256 0.013826955 -0.096971445 4287200353
-0.31047156 0.015482569 -0.09620633 4285956450
-0.31059057 0.01713841 -0.095441118 4285169506
-0.31035435 0.018497238 -0.094097733 4286217825
-0.31011894 0.019851808 -0.092758745 4287595358
-0.31023759 0.021502858 -0.091995753 4288513631
-0.30965048 0.022548102 -0.09009371 4288972894
-0.30941749 0.023889922 -0.088767722 4288450398
-0.30953559 0.025533507 -0.08800818 4288778334
-0.30895376 0.02656096 -0.086128414 4288448604
-0.30907154 0.028199587 -0.085371166 4288446809
-0.3084932 0.029215369 -0.083506122 4288909404
-0.30826405 0.030536378 -0.082201265 4288715103
-0.30803573 0.031853307 -0.080900609 4289042013
-0.30815279 0.033482131 -0.080147885 4290158173
-0.30792505 0.03479252 -0.078852467 4291598426
-0.30804196 0.036419142 -0.078100756 4290810458
-0.30781478 0.037723068 -0.076810583 4287791454
-0.30758837 0.039022982 -0.075524576 4286279511
-0.30839279 0.041300427 -0.075844981 4285953880
-0.30816507 0.042597085 -0.074558169 4286154076
-0.30828187 0.044222247 -0.073807135 4290157405
-0.3080548 0.045512497 -0.072525576 4291797601
-0.30782843 0.046798769 -0.071248069 4290954598
-0.30760282 0.048081081 -0.069974586 4289378165
-0.30806139 0.050040163 -0.069750123 4288525171
-0.30817792 0.051661197 -0.069000989 4287336042
-0.30829445 0.053282473 -0.068251744 4286022247
-0.30806813 0.0545552 -0.066982716 4286350195
-0.30852756 0.056525782 -0.066752926 4289439877
-0.3267031 -0.008557504 -0.15053678 4285429086
-0.3264139 -0.0070258849 -0.14896506 4284179789
-0.32529438 -0.0060597355 -0.14594553 4283786571
-0.32459772 -0.0048240735 -0.14367472 4283590478
-0.32309172 -0.0041580219 -0.14000404 4283526224
-0.32080981 -0.0040565552 -0.1350026 4284247378
-0.31857622 -0.0039569726 -0.13010697 4286281561
-0.31677139 -0.0035875253 -0.12597266 4287400550
-0.31499782 -0.0032242667 -0.12190983 4287400295
-0.31325477 -0.0028669727 -0.11791673 4286940517
-0.31154144 -0.0025155097 -0.11399154 4286218084
-0.31057552 -0.0016372415 -0.1113586 4285557847
-0.30961934 -0.00076761394 -0.10875222 4284378454
-0.30902708 0.00036135421 -0.10677326 4284575059
-0.30808675 0.0012141605 -0.10421146 4284247893
-0.30785441 0.002597339 -0.10285458 4284182357
-0.30797303 0.0042486745 -0.10209155 4284117334
-0.3084431 0.0061764559 -0.10191855 4284313943
-0.30856192 0.0078310417 -0.10115404 4284772953
-0.30903381 0.0097685326 -0.10097896 4285297242
-0.30950725 0.011712729 -0.10080313 4285559642
-0.30962652 0.01337359 -0.1000357 4285363035
-0.31010187 0.015327653 -0.09985783 4285232475
-0.31022137 0.016991811 -0.099088885 4284970587
-0.30998445 0.018357666 -0.09773273 4284839514
-0.30939415 0.019419912 -0.095799185 4287856219
-0.30915985 0.020775381 -0.094455108 4289171804
-0.30892637 0.02212658 -0.093115442 4288646748
