# .PCD v0.7 - Point Cloud Data file format
VERSION 0.7
FIELDS x y z rgba
SIZE 4 4 4 4
TYPE F F F U
COUNT 1 1 1 1
WIDTH 987
HEIGHT 1
VIEWPOINT 0 0 0 1 0 0 0
POINTS 987
DATA ascii
-0.33537954 0.014520862 -0.004272759 4287661679
-0.33588809 0.016304234 -0.0042296685 4288782205
-0.34774286 -0.0034980183 -0.03255105 4289237363
-0.34710476 -0.0022375351 -0.03110062 4286674268
-0.34528801 -0.0015958084 -0.028233621 4285164369
-0.34388688 -0.00076146092 -0.025877116 4284179276
-0.34173933 -0.00034156459 -0.02263321 4283588678
-0.34038186 0.00047262592 -0.020347614 4283392580
-0.33941355 0.0014788058 -0.01853502 4283524422
-0.33808485 0.0022735936 -0.016298776 4284705351
-0.33677229 0.0030589327 -0.01408965 4286018117
-0.33583656 0.0040373472 -0.012335399 4286019910
-0.33526829 0.0052106231 -0.011021962 4286873674
-0.33470342 0.0063770907 -0.0097162863 4287924557
-0.334142 0.0075367885 -0.0084184194 4287009105
-0.33358395 0.0086897667 -0.0071282345 4286420307
-0.33338162 0.010044665 -0.0062591429 4285956940
-0.33317995 0.011395759 -0.0053925379 4285361223
-0.33333072 0.012955653 -0.0049393284 4284574535
-0.33348149 0.01451576 -0.0044860579 4284508239
-0.33363229 0.016076105 -0.0040327185 4284969558
-0.33484694 0.018299272 -0.0048131719 4286348131
-0.34807625 -0.0022293525 -0.035619531 4287265377
-0.34703207 -0.0011709702 -0.033661488 4285819990
-0.34520715 -0.00053446699 -0.030760556 4284966480
-0.34302345 -0.00011213026 -0.027435008 4283916620
-0.34012291 -0.00010180056 -0.023254383 4283261510
-0.33877739 0.00070980896 -0.020968469 4283196997
-0.33781791 0.0017135566 -0.019155839 4283394120
-0.33650088 0.0025058433 -0.016919257 4283788106
-0.33556202 0.0034911791 -0.015144224 4284248396
-0.33463171 0.0044678063 -0.013385245 4284577100
-0.33406702 0.0056399801 -0.012068654 4285757516
-0.33386201 0.0070111887 -0.011184459 4286676556
-0.33330217 0.0081709037 -0.0098802876 4286350669
-0.33309928 0.0095326267 -0.0090032229 4287073871
-0.3325443 0.010680044 -0.0077112652 4288256333
-0.33269539 0.012244542 -0.007256805 4287206733
-0.33249444 0.013594772 -0.0063873949 4286482504
-0.33264536 0.015157382 -0.0059334845 4286802757
-0.33279631 0.016720228 -0.0054795076 4285358407
-0.33294728 0.018283304 -0.0050254497 4284375883
-0.33309829 0.019846629 -0.0045713377 4284574286
-0.33431229 0.022090716 -0.0053552873 4285559388
-0.33482072 0.023892095 -0.0053135105 4286741862
-0.34947655 -0.0020134593 -0.040732779 4287791719
-0.34882128 -0.00073519634 -0.039230142 4286412122
-0.34736109 0.00011495144 -0.036742289 4286283876
-0.34433609 0.0001223579 -0.032343749 4285230164
-0.34138709 0.00012981059 -0.028055638 4283719241
-0.33851126 0.00013727321 -0.023873786 4283130694
-0.33717769 0.00094634824 -0.021587631 4283197767
-0.33586046 0.0017457375 -0.019329442 4283526475
-0.33528495 0.0029399665 -0.017978815 4283920717
-0.33435157 0.00392352 -0.016198983 4284249935
-0.33342665 0.0048983614 -0.014435258 4285365071
-0.33286551 0.0060693901 -0.013115545 4286678094
-0.33266222 0.007440147 -0.012229804 4287073873
-0.33210593 0.008598743 -0.010922519 4287073364
-0.33190477 0.0099600004 -0.010043932 4286875730
-0.33170423 0.011317393 -0.0091679236 4287466318
-0.33185551 0.012884394 -0.0087128077 4286944846
-0.33165538 0.014235879 -0.0078399768 4287469645
-0.33180648 0.015801022 -0.0073854206 4288843086
-0.33195758 0.017366372 -0.0069307876 4287727953
-0.33246079 0.019154757 -0.0068917088 4285100876
-0.33261216 0.020722907 -0.0064362856 4285298764
-0.33276358 0.022291316 -0.0059807682 4285623626
-0.33291501 0.023859939 -0.0055251927 4284702535
-0.33342049 0.025661662 -0.0054837056 4284703053
-0.33357218 0.027233107 -0.0050273128 4285296986
-0.33372393 0.028804768 -0.0045708427 4287070312
-0.35216859 -0.0011573979 -0.047536425 4288383335
-0.34941366 -0.00092334789 -0.043395631 4286412379
-0.34834579 0.00014597812 -0.041367959 4286479710
-0.34567824 0.00036208986 -0.037363045 4286483568
-0.34267929 0.00036648964 -0.032963626 4284969303
-0.34013689 0.00057555531 -0.029145192 4283522375
-0.33690438 0.00037571898 -0.024491504 4283196486
-0.33521608 0.00098088221 -0.021754451 4283525961
-0.33427718 0.001979124 -0.019946594 4283920462
-0.33370727 0.0031710432 -0.018596217 4284381009
-0.33278242 0.0041521993 -0.016816325 4284776018
-0.33186591 0.0051246895 -0.015052454 4286481488
-0.33131024 0.0062934724 -0.013732887 4288188239
-0.33110952 0.0076620081 -0.012847602 4288058961
-0.33090949 0.0090266624 -0.011964956 4287993172
-0.33071005 0.010387446 -0.011084829 4288254290
-0.33051121 0.011744373 -0.010207301 4288317262
-0.3306624 0.013311547 -0.0097522233 4287532113
-0.33081362 0.014878972 -0.0092970924 4286942801
-0.33096486 0.016446626 -0.0088418806 4287466320
-0.33111614 0.018014487 -0.0083866082 4287204432
-0.33161879 0.019806709 -0.0083497046 4285627214
-0.3317703 0.021377407 -0.0078936126 4286681940
-0.33227473 0.023177823 -0.0078557944 4285888841
-0.33242655 0.024751358 -0.007398881 4286017866
-0.33257836 0.026325079 -0.0069419178 4284244037
-0.3327302 0.027899062 -0.0064848769 4283719236
-0.33288208 0.029473256 -0.0060277614 4284308550
-0.33303398 0.031047696 -0.0055705914 4284901199
-0.33283165 0.0323787 -0.004699117 4285823843
-0.33298337 0.033951227 -0.0042424914 4287729010
-0.35408664 -0.00070684566 -0.053477611 4288974703
-0.35296857 0.00038783121 -0.051349059 4286806622
-0.3514396 0.0012543686 -0.048711117 4286742110
-0.34827703 0.0012469464 -0.044034172 4287398499
-0.34439778 0.00081829593 -0.038479008 4286415210
-0.34102759 0.00060992944 -0.033581734 4284706131
-0.33775213 0.00040767563 -0.02882213 4283653442
-0.33493435 0.00041206906 -0.024650274 4283524421
-0.33290485 0.00081512122 -0.021472298 4283723083
-0.33198071 0.0018097437 -0.019674016 4284117839
-0.33106497 0.0027955566 -0.017891997 4284578900
-0.3305099 0.0039745816 -0.016560016 4285105750
-0.32960773 0.0049436744 -0.014805329 4286352214
-0.32906124 0.0061079096 -0.013492486 4287533141
-0.32886472 0.0074707535 -0.012611581 4288189778
-0.32866886 0.008829738 -0.011733248 4289369937
-0.32881972 0.010394298 -0.011279033 4289500754
-0.32897058 0.011959096 -0.010824734 4289435986
-0.3291215 0.0135241 -0.010370376 4288777552
-0.32927239 0.015089354 -0.0099159647 4287075152
-0.3297714 0.01687422 -0.0098815588 4287269457
-0.32992259 0.018442262 -0.0094263246 4286741838
-0.33042336 0.020235298 -0.0093910191 4286283088
-0.33092567 0.022033948 -0.0093555339 4286154577
-0.3310774 0.023607414 -0.0088987295 4285887815
-0.33158144 0.025414294 -0.0088622943 4287663186
-0.3320871 0.027226856 -0.0088257082 4285163079
-0.3322393 0.028805738 -0.0083673364 4283522626
-0.33239156 0.030384872 -0.0079088751 4283129666
-0.33254385 0.03196422 -0.0074503529 4283195203
-0.33234158 0.033298023 -0.0065734722 4283653957
-0.33213997 0.034628056 -0.0056992015 4284505674
-0.33193895 0.035954345 -0.0048274393 4285360473
-0.33173859 0.037276875 -0.0039582341 4286546800
-0.33189005 0.038847916 -0.0035021321 4288583548
-0.35447833 0.0006424457 -0.056837983 4287265375
-0.35335073 0.0017378388 -0.054678269 4286543711
-0.35180897 0.0026013723 -0.052000653 4287137903
-0.34862065 0.0025763439 -0.047249645 4288318572
-0.34272188 0.0010640208 -0.039096348 4286675296
-0.3393808 0.00085269951 -0.034198072 4284507470
-0.33613357 0.00064753462 -0.029437302 4283916613
-0.33261365 0.00024806836 -0.024353627 4283787849
-0.33061448 0.00065092521 -0.021192914 4283920718
-0.32970488 0.0016419706 -0.019404091 4284249938
-0.32880354 0.0026242593 -0.017631432 4284711254
-0.32791033 0.0035979126 -0.015874654 4285368921
-0.32736963 0.0047643534 -0.01456063 4286157147
-0.32683218 0.0059240861 -0.01325443 4287532888
-0.3266398 0.0072812773 -0.012377832 4288974931
-0.32644805 0.0086346585 -0.011503831 4289369683
-0.32694045 0.01040117 -0.011472241 4288845139
-0.3270908 0.011961473 -0.011019335 4288453458
-0.32724115 0.013522013 -0.010566362 4288844877
-0.32773557 0.015299158 -0.010533161 4288257103
-0.32788619 0.016862476 -0.010079382 4289105487
-0.32838234 0.018647725 -0.010045256 4287532628
-0.32922775 0.020663947 -0.010432512 4286678611
-0.32972819 0.022463419 -0.010398627 4287006544
-0.33023012 0.024268536 -0.010364548 4286542413
-0.33038202 0.025844747 -0.0099070193 4286612050
-0.33088577 0.02765815 -0.0098720575 4284507977
-0.33103791 0.029237213 -0.0094137052 4283195203
-0.33119011 0.030816527 -0.0089552822 4282867777
-0.33169591 0.032640848 -0.0089186337 4283064386
-0.33149454 0.03397581 -0.0080382479 4283195461
-0.33164677 0.035555799 -0.0075796349 4283129929
-0.3310937 0.036634434 -0.0062852758 4283261000
-0.33124554 0.038210146 -0.0058278884 4283915848
-0.33104584 0.039531685 -0.004955844 4284964428
-0.3311975 0.041105483 -0.0044990145 4285885786
-0.33240834 0.043459281 -0.0052855224 4286550136
-0.35514283 0.00045818885 -0.061323397 4287792230
-0.35487515 0.0020101396 -0.060244281 4286674269
-0.35330474 0.002881926 -0.057497557 4287069542
-0.35175544 0.0037422937 -0.054787632 4287203700
-0.34980595 0.0043680775 -0.051576637 4288385136
-0.34105113 0.0013090655 -0.039711911 4286871130
-0.33773902 0.001094755 -0.034812678 4284506443
-0.33378187 0.00048055706 -0.029115291 4283851591
-0.3306714 0.00028471297 -0.024512021 4283656778
-0.3283447 0.00048832438 -0.020916253 4283724111
-0.32710224 0.0012779275 -0.018699611 4284184660
-0.32621792 0.0022561443 -0.016940773 4284777047
-0.32534158 0.0032257992 -0.015197616 4285500506
-0.32481167 0.0043866183 -0.013893496 4286354012
-0.32428491 0.005540743 -0.012597034 4287796314
-0.32443446 0.007093566 -0.012146383 4288779865
-0.32424673 0.0084414044 -0.011276633 4288387417
-0.32473361 0.010199938 -0.011244891 4288321364
-0.32522193 0.011963955 -0.011212989 4288124497
-0.3253718 0.013519994 -0.010761393 4288452176
-0.32586187 0.015292047 -0.010728609 4288716113
-0.3263534 0.017069582 -0.010695638 4290222931
-0.32684645 0.018852646 -0.010662523 4287863128
-0.32768592 0.020866659 -0.011051067 4286942293
-0.32853049 0.022892984 -0.011441904 4288125270
-0.32903054 0.024698896 -0.011409441 4286151764
-0.32953218 0.026510524 -0.011376826 4284771918
-0.32968423 0.028089525 -0.010918581 4283787339
-0.33018765 0.029909456 -0.010885061 4283065157
-0.33034 0.031491295 -0.010425994 4282933570
-0.33084515 0.033319574 -0.010391486 4283655493
-0.33064473 0.03465572 -0.0095076468 4284378706
-0.33044487 0.035988063 -0.0086263288 4284378968
-0.33024564 0.03731662 -0.0077476283 4284049490
-0.33039764 0.038894873 -0.0072895931 4283393097
-0.33019885 0.040217567 -0.0064141238 4283064137
-0.33035067 0.041793924 -0.0059566409 4283326279
-0.33120608 0.043892413 -0.0063323951 4283916102
-0.33242244 0.046269927 -0.0071307626 4285488208
-0.3332907 0.048398398 -0.0075128414 4286347105
-0.33635086 0.05220307 -0.010469138 4286475094
-0.3372446 0.054383095 -0.010867221 4286277978
-0.33926767 0.057445522 -0.012583405 4286218864
-0.3558186 0.00027069441 -0.06588579 4288253545
-0.35554746 0.0018362181 -0.064789765 4286740831
-0.35483626 0.0031691485 -0.063125923 4286807655
-0.35325804 0.004037708 -0.060345761 4287726955
-0.35127291 0.0046683056 -0.057050429 4287400049
-0.34806514 0.0046160556 -0.052193165 4287991665
-0.33938554 0.0015533924 -0.040325753 4286673496
-0.33572552 0.0011294801 -0.034942742 4284243274
-0.33145174 0.00031520234 -0.028796479 4283392586
-0.32803509 -7.5214084e-05 -0.023769056 4283394379
-0.32540601 -6.4401749e-05 -0.019764658 4283658061
-0.32419032 0.00072278886 -0.017571531 4284184145
-0.32332551 0.0016963733 -0.01583086 4284776279
-0.32280308 0.0028582038 -0.014528813 4286288477
-0.32228374 0.0040133847 -0.013234423 4287338850
-0.32176751 0.0051619844 -0.011947592 4287008613
-0.3215847 0.0065046423 -0.011083327 4287009644
-0.32173309 0.0080464585 -0.010635958 4286814315
-0.32221332 0.009794225 -0.010603518 4287273825
-0.32269499 0.011547369 -0.010570896 4288125527
-0.32317808 0.013305933 -0.010538135 4288453208
-0.32399908 0.015285042 -0.010923078 4288454488
-0.32448632 0.017057464 -0.010890543 4290357340
-0.32497504 0.018835396 -0.010857848 4288124763
-0.32614851 0.021068823 -0.011667988 4288912476
-0.32698712 0.023092877 -0.012060107 4287862618
-0.32748404 0.024896596 -0.012028691 4285958489
-0.32798249 0.026705947 -0.011997058 4284709203
-0.32848248 0.028520973 -0.011965293 4283854928
-0.32898402 0.030341733 -0.011933392 4283328842
-0.32913628 0.031923775 -0.011474356 4283130950
-0.32963955 0.033752851 -0.011441478 4284050251
-0.32944086 0.03508852 -0.010556078 4285694302
-0.32959318 0.036671255 -0.010096848 4286876784
-0.32939488 0.038000975 -0.0092146117 4286480237
-0.32954702 0.039581772 -0.008755927 4284971103
-0.32969916 0.041162826 -0.0082971882 4283853396
-0.32985136 0.042744104 -0.0078383684 4283524172
-0.33035517 0.044588417 -0.0077996296 4283391555
-0.3312144 0.046705276 -0.0081826365 4283392330
-0.3320789 0.048835244 -0.0085679293 4283789398
-0.33439454 0.052086398 -0.010671382 4284380499
-0.33527943 0.054259524 -0.01106891 4283853650
-0.33690947 0.057022348 -0.012342492 4283458639
-0.35831505 0.00098570297 -0.072908297 4288778865
-0.35667989 0.0018868535 -0.070003018 4286938719
-0.35595736 0.0032333198 -0.068304092 4286742370
-0.35568443 0.0048023015 -0.067198217 4287071854
-0.35408685 0.0056673177 -0.064366482 4287990384
-0.35207778 0.0062896251 -0.06100915 4287792751
-0.34841177 0.0059881969 -0.055512067 4287597681
-0.33772498 0.0017970289 -0.040937804 4286083414
-0.33261433 0.00054969423 -0.033636674 4283915847
-0.32878619 -4.8340684e-05 -0.028020481 4283196489
-0.3257767 -0.00023454166 -0.023481032 4283329098
-0.32318643 -0.00022167113 -0.019498108 4283526475
-0.32165486 0.00036923427 -0.016887741 4283921232
-0.32113805 0.0015332208 -0.015584621 4284775252
-0.32062429 0.0026905611 -0.014289116 4286287967
-0.31978536 0.0036446424 -0.012583278 4288062323
-0.31960595 0.0049855309 -0.01172075 4288389510
-0.31942704 0.0063227196 -0.01086065 4288063382
-0.31957471 0.0078579178 -0.01041529 4288592529
-0.32004958 0.0095978742 -0.01038271 4289114750
-0.32052585 0.011343169 -0.010349903 4288980847
-0.320674 0.012883564 -0.0099030407 4287996268
-0.32148272 0.014849903 -0.010283907 4287668582
-0.3222962 0.016828105 -0.010666947 4289570915
-0.32311451 0.018818295 -0.011052198 4288846945
-0.32427609 0.021045176 -0.011860826 4290422114
-0.32544813 0.023292279 -0.012676664 4288256095
-0.32628584 0.025326479 -0.013072389 4286681697
-0.32712859 0.027373154 -0.013470382 4285498460
-0.32728049 0.028952509 -0.013012214 4284512084
-0.32778016 0.030774089 -0.012981931 4283985743
-0.32828128 0.032601383 -0.012951414 4283721547
-0.32843372 0.034186229 -0.012491657 4283655246
-0.32823679 0.035521418 -0.011604712 4284577631
-0.32804042 0.036852807 -0.010720313 4285827706
-0.32819244 0.038433563 -0.010261729 4286481796
-0.32834449 0.040014546 -0.0098030977 4287662964
-0.32849661 0.041595768 -0.0093443822 4287270505
-0.32864872 0.04317721 -0.0088855857 4285693799
-0.32950142 0.045286573 -0.0092714094 4284376393
-0.33035931 0.047408976 -0.0096595297 4284246605
-0.3308669 0.049272195 -0.0096232193 4283720783
-0.33317134 0.052527539 -0.011736394 4283722579
-0.33368871 0.054419056 -0.011702723 4283658587
-0.33493894 0.056890514 -0.012540449 4283788634
-0.35903531 0.00079819292 -0.077684887 4289368950
-0.35783604 0.0019384939 -0.07532572 4287332193
-0.35664931 0.0030671661 -0.072991081 4287004511
-0.35637271 0.00464996 -0.071867518 4287202409
-0.3560971 0.0062275487 -0.070747793 4287136879
-0.35448563 0.0070889099 -0.067872182 4288055923
-0.35289615 0.0079387631 -0.065035805 4287990896
-0.34876281 0.0073788958 -0.058875859 4286807656
-0.33683482 0.002462181 -0.042548787 4285163857
-0.3339614 0.0024411408 -0.038104914 4283719236
-0.32934672 0.0013967172 -0.031411711 4283393351
-0.32630646 0.0011894065 -0.026791025 4283394634
-0.32032055 -0.00076239731 -0.018371141 4283394891
-0.31914911 1.994828e-05 -0.016212219 4283658318
-0.31864265 0.0011782758 -0.014918783 4284905811
-0.3181392 0.0023300431 -0.013632908 4286090082
-0.31763867 0.003475249 -0.012354447 4287867525
-0.3174631 0.0048107086 -0.011496063 4290426013
-0.31728807 0.0061424542 -0.010640105 4289959319
-0.317435 0.0076710996 -0.010196734 4290554263
-0.31790459 0.0094033154 -0.010163979 4291083668
-0.31837556 0.011140835 -0.010131066 4291084952
-0.31884795 0.012883682 -0.010098008 4289640335
-0.3196488 0.014844424 -0.010478326 4289047933
-0.32045442 0.016816957 -0.010860859 4289047667
-0.32093343 0.018581737 -0.01082842 4288781676
-0.32241461 0.021021726 -0.012052708 4289699430
-0.32357472 0.023262216 -0.012867012 4288520296
-0.32440421 0.025290392 -0.013262131 4287535721
-0.32558209 0.027567433 -0.014087847 4286550375
-0.3260783 0.029384112 -0.014059326 4285629534
-0.32657608 0.031206535 -0.014030638 4285168471
-0.3270753 0.03303466 -0.014001745 4284838739
-0.32722765 0.034619655 -0.013542034 4284312919
-0.32703248 0.035954393 -0.012653538 4285760106
-0.32718465 0.037537474 -0.012194367 4288386685
-0.3269898 0.038866233 -0.011309052 4288904824
-0.32714179 0.040447388 -0.010850445 4288511074
-0.32764131 0.042288128 -0.010816457 4286419304
-0.3277936 0.043872137 -0.010357005 4284905585
-0.32829484 0.045721266 -0.010322032 4285560916
-0.32950145 0.048114859 -0.011141116 4285298262
-0.32965469 0.049709219 -0.010678687 4286155368
-0.33194789 0.052968752 -0.012801598 4285823580
-0.33282512 0.055144966 -0.013205742 4284706385
-0.33334354 0.057046764 -0.013174212 4283787864
-0.35901666 0.0019911777 -0.080761313 4287923560
-0.35827041 0.0033656263 -0.078988865 4287528032
-0.35752943 0.0047306959 -0.077228814 4287726441
-0.35724878 0.0063246423 -0.076088056 4287792746
-0.35651529 0.0076727867 -0.074347176 4287333229
-0.35399851 0.0080521228 -0.070243306 4288056436
-0.3506659 0.0079526817 -0.065074064 4287332458
-0.3453353 0.0067081661 -0.057283644 4285820761
-0.33671016 0.0035573172 -0.045179065 4284506956
-0.3334491 0.0033110152 -0.040186465 4283719236
-0.32847077 0.0020410609 -0.032958239 4283458630
-0.32508895 0.0016236608 -0.027852038 4283394378
-0.31782255 -0.0011050901 -0.017687017 4283329099
-0.31667262 -0.00032516543 -0.015544865 4283460940
-0.3161763 0.00082756474 -0.014260945 4284774224
-0.31568289 0.001973789 -0.012984531 4286090083
-0.31519237 0.0031135429 -0.011715448 4287671180
-0.31502131 0.0044419202 -0.010863001 4291145880
-0.31485075 0.0057666423 -0.010012955 4291000438
-0.31531373 0.0074859811 -0.0099802483 4290344832
-0.31577811 0.0092105223 -0.0099473558 4290551958
-0.31656405 0.01114597 -0.010324659 4291670679
-0.31703234 0.012883902 -0.010291996 4292066709
-0.31782547 0.014839037 -0.010671829 4292001424
-0.31862324 0.016805938 -0.011053806 4289837712
-0.31942579 0.018784659 -0.011438012 4288847231
-0.32089576 0.021222403 -0.012664136 4288391794
-0.32204726 0.023460606 -0.013479964 4288261493
-0.32320917 0.025719143 -0.014303084 4287865460
-0.32472414 0.028236091 -0.015564719 4287339119
-0.32487589 0.02981581 -0.015106606 4286812523
-0.32502767 0.031395756 -0.014648446 4286745961
-0.32586911 0.033467993 -0.01505229 4286351462
-0.3260214 0.035053186 -0.014592595 4285825382
-0.32548317 0.036136996 -0.013273517 4286482543
-0.32563505 0.037717871 -0.012815074 4288651644
-0.32544276 0.03904454 -0.01193021 4289965953
-0.32559446 0.040623501 -0.011472309 4288913273
-0.32609081 0.042461891 -0.011439339 4286156384
-0.32624277 0.044043709 -0.010980614 4284245328
-0.32674089 0.04589051 -0.010946731 4285363029
-0.32758898 0.048011828 -0.011339361 4286677861
-0.32809144 0.049873509 -0.011305698 4287272828
-0.33001027 0.052850306 -0.012996664 4287337333
-0.33087885 0.055019684 -0.013400229 4286087263
-0.33175278 0.057202615 -0.013806166 4284313428
-0.35928547 0.0015754078 -0.085041299 4288516719
-0.35899752 0.0031969897 -0.083870724 4286807396
-0.35871065 0.0048131067 -0.082704224 4288056689
-0.35796282 0.0061829155 -0.08091867 4288121713
-0.35767934 0.0077857408 -0.079763368 4287858026
-0.35602832 0.0086514279 -0.076774403 4287858541
-0.35262147 0.0085422369 -0.071443565 4287332204
-0.35147586 0.0096247522 -0.069156788 4286083164
-0.34862092 0.0097416174 -0.064597555 4285098064
-0.34213009 0.00777697 -0.055216815 4284048460
-0.33948943 0.0079110907 -0.050988264 4283589449
-0.33160052 0.0049915435 -0.039821621 4283393353
-0.32318038 0.0016562621 -0.027999789 4283197259
-0.31632024 -0.00087531685 -0.018286228 4283197515
-0.3145425 -0.00047723632 -0.01530363 4283197770
-0.31373844 0.00048100535 -0.013610955 4284117325
-0.31325489 0.0016217501 -0.012343858 4285562716
-0.31277421 0.0027561237 -0.01108403 4287339388
-0.31260753 0.0040774718 -0.010237452 4290425229
-0.31275281 0.0055907555 -0.0097987046 4291926138
-0.31289813 0.0071042692 -0.0093598766 4291269253
-0.31335625 0.0088184774 -0.0093263248 4290745754
-0.31413051 0.01074168 -0.0096996399 4291330682
-0.31490931 0.012676318 -0.010075076 4292062090
-0.31569269 0.014622483 -0.01045265 4292654474
-0.31680262 0.01679506 -0.011245841 4290622613
-0.31792235 0.018987048 -0.012045976 4290882951
-0.3190521 0.021198725 -0.012853154 4288654726
-0.32119164 0.024116885 -0.014942833 4288853630
-0.32235137 0.026381949 -0.015773775 4288194427
-0.32352158 0.028667696 -0.016612168 4287733367
-0.32367325 0.030247567 -0.016154101 4287667318
-0.32382497 0.031827699 -0.015695957 4287930233
-0.32431921 0.033654377 -0.015669758 4287996538
-0.32447118 0.035237346 -0.015210795 4287798391
-0.32393831 0.036319129 -0.013891833 4287862134
-0.3237488 0.037645862 -0.013006824 4288057976
-0.32390019 0.039222397 -0.012549716 4287926649
-0.32405156 0.040799171 -0.012092558 4287931256
-0.32454476 0.042635228 -0.012060546 4287206253
-0.32503948 0.044477046 -0.012028423 4285558872
-0.32519138 0.046059296 -0.011569681 4286149727
-0.32603341 0.048178095 -0.011963655 4286087279
-0.32757959 0.050857767 -0.013221736 4286813823
-0.32879013 0.053290322 -0.014059005 4288455556
-0.3296549 0.055461243 -0.014465857 4287598697
-0.35862005 0.00068555423 -0.088095054 4289369718
-0.35879898 0.0025505619 -0.087554425 4287463522
-0.35897797 0.0044158143 -0.087013707 4286348133
-0.35822374 0.0057967314 -0.085200198 4287862397
-0.35747483 0.0071680909 -0.08339943 4287925877
-0.35581645 0.008042614 -0.080369174 4287989614
-0.35373226 0.0086629596 -0.076772958 4287399022
-0.35036868 0.0085541904 -0.07146056 4286215006
-0.34923849 0.0096331323 -0.069181569 4285294929
-0.34557807 0.0092786932 -0.063504934 4284835662
-0.34040928 0.0080187395 -0.055825338 4284770386
-0.33818606 0.0083756289 -0.052124158 4284247383
-0.32493693 0.0023079647 -0.033695713 4283460690
-0.3212831 0.0016887642 -0.028146815 4283131723
-0.31450167 -0.00083620689 -0.018457305 4283066185
-0.31306005 -0.00025047408 -0.015900411 4283066440
-0.31226352 0.0007055676 -0.014207633 4283394889
-0.31147394 0.0016535171 -0.012529543 4284510544
-0.31130907 0.0029764203 -0.011680972 4286153569
-0.31083602 0.0041023814 -0.010428463 4287798391
-0.3109808 0.0056114714 -0.0099910041 4289899660
-0.31112564 0.0071207886 -0.0095534781 4291082398
-0.31157979 0.0088302232 -0.0095203202 4291606950
-0.31234661 0.010748068 -0.0098931659 4291992458
-0.31311789 0.012677271 -0.010268098 4292129685
-0.31389368 0.014617944 -0.010645162 4292781954
-0.31499243 0.016784323 -0.011436923 4291003007
-0.31610084 0.01897 -0.012235613 4291211643
-0.31754449 0.021398384 -0.013461052 4288919457
-0.31999981 0.024544349 -0.015981013 4289769858
-0.32115406 0.026811486 -0.01681667 4288586619
-0.32231879 0.029099345 -0.017659817 4287601528
-0.3224704 0.030679412 -0.017201781 4287667578
-0.32262203 0.032259725 -0.016743677 4288193150
-0.32277369 0.03384025 -0.016285513 4288719491
-0.32258552 0.035172395 -0.015395687 4289113478
-0.32205987 0.036251329 -0.014080213 4289375113
-0.32187361 0.037574369 -0.013197574 4289637772
-0.32202446 0.039146353 -0.012741873 4289308547
-0.32251307 0.040974379 -0.012711073 4288848249
-0.32266414 0.0425492 -0.012254571 4288322679
-0.32383594 0.044910509 -0.013076424 4286745198
-0.32433027 0.046758961 -0.013045764 4286681454
-0.32482609 0.048613213 -0.013014886 4286810478
-0.32636487 0.051295705 -0.014279395 4286092156
-0.32721817 0.053450521 -0.014685145 4287669387
-0.3277238 0.055335514 -0.014656252 4287664504
-0.3590689 0.0021341252 -0.091929682 4287857512
-0.35924903 0.004012756 -0.091385216 4287071070
-0.35942924 0.0058916383 -0.090840653 4287004515
-0.35866788 0.0072773611 -0.089000463 4287730558
-0.35698316 0.008160389 -0.085898146 4287925881
-0.35441238 0.0085420208 -0.081593044 4287925363
-0.35145196 0.0086744996 -0.076771781 4286545256
-0.34599489 0.0073887231 -0.068563998 4285427286
-0.34199733 0.0068413899 -0.062376183 4284967245
-0.33694687 0.0056435112 -0.054783504 4284704848
-0.33210692 0.0044957809 -0.047507156 4285034592
-0.32965678 0.0046626544 -0.043491539 4284446826
-0.32266057 0.002135684 -0.033358913 4283790173
-0.31906101 0.0015223117 -0.027840758 4284051281
-0.31301045 -0.00060766877 -0.019053135 4283854160
-0.3118951 0.00016530861 -0.016915573 4283263311
-0.31079271 0.00092953816 -0.014802754 4283197517
-0.31001055 0.0018753156 -0.013124539 4283591501
-0.30984795 0.003196158 -0.012276378 4284313936
-0.30968586 0.0045134313 -0.011430596 4284971355
-0.30952424 0.005827128 -0.010587172 4285960053
-0.30966878 0.0073344447 -0.010150312 4287866769
-0.30981332 0.008841983 -0.0097133899 4290100120
-0.31057277 0.010754486 -0.010085745 4291217050
-0.31133664 0.012678302 -0.010460216 4292000664
-0.31210494 0.014613505 -0.010836747 4292001179
-0.31319255 0.016773708 -0.011627057 4291465618
-0.31460851 0.019171381 -0.012840082 4291866238
-0.31571841 0.021374445 -0.013647268 4289117086
-0.31880772 0.024971891 -0.017019402 4289507967
-0.31995654 0.027241124 -0.017859768 4288192115
-0.32111579 0.029531097 -0.018707648 4287207539
-0.32126734 0.031111337 -0.018249653 4287141236
-0.32141888 0.032691818 -0.017791588 4287535227
-0.32123265 0.034025658 -0.016899597 4288391305
-0.32071096 0.035107959 -0.015579722 4289905048
-0.3201924 0.036184024 -0.014267641 4291417252
-0.32000944 0.037503388 -0.013387405 4292598701
-0.32015976 0.039070856 -0.012933104 4293316515
-0.32031009 0.040638559 -0.012478737 4291674009
-0.32079461 0.042463757 -0.012447597 4290227604
-0.32195437 0.044817764 -0.013267905 4288850316
-0.32244429 0.046660669 -0.01323761 4288193924
-0.32259583 0.048241094 -0.012779562 4287929722
-0.32411405 0.050909329 -0.014036933 4286881408
-0.32495657 0.053053368 -0.014440157 4287210117
-0.32580426 0.055210665 -0.014845733 4287994487
-0.35934269 0.0017116563 -0.096368462 4288187500
-0.35952401 0.0036038249 -0.095820174 4287333214
-0.35970539 0.0054962449 -0.095271796 4287007069
-0.35941124 0.0071406844 -0.09406168 4287989348
-0.35864577 0.0085296137 -0.092199996 4288057722
-0.35741806 0.0096582845 -0.089703679 4287796088
-0.35391301 0.0095324423 -0.084067971 4287072875
-0.34701988 0.0074954587 -0.073781639 4285822555
-0.34379843 0.0074045844 -0.068590894 4285098576
-0.34066322 0.0073163901 -0.063538961 4284901453
-0.33179682 0.0039184466 -0.050654534 4284442190
-0.32860047 0.0036670715 -0.045576025 4284181849
-0.32729688 0.0044745007 -0.043099523 4283789919
-0.32006362 0.0017637203 -0.032560967 4283658073
-0.31719002 0.0015551139 -0.027987534 4284116822
-0.31152335 -0.00037971468 -0.019647367 4284118112
-0.31041822 0.00039097512 -0.017509485 4284053093
-0.30932593 0.00115296 -0.015396356 4284709220
-0.30885702 0.002287318 -0.014129683 4284774497
-0.30839089 0.0034153594 -0.012870247 4283853912
-0.308231 0.004730579 -0.012024852 4283723093
-0.30807161 0.0060422453 -0.011181824 4284052052
-0.30821589 0.0075475546 -0.010745615 4284905050
-0.30836019 0.009053099 -0.010309357 4285695084
-0.30880895 0.010760944 -0.010277408 4286752397
-0.30956545 0.012679405 -0.010651355 4289050525
-0.31032634 0.014609189 -0.01102742 4290823065
-0.31140295 0.016763253 -0.011816291 4291670664
-0.31280422 0.019154003 -0.013026912 4291998329
-0.31390288 0.021350715 -0.013832592 4288980093
-0.31761542 0.025399499 -0.018057963 4288324209
-0.3184267 0.02743494 -0.018468801 4287010415
-0.31957722 0.029722545 -0.019318199 4286484850
-0.31972846 0.031300586 -0.018860912 4286550128
-0.32021552 0.033124018 -0.018839682 4286943860
-0.31969601 0.034210581 -0.017512092 4287732099
-0.31917962 0.035290886 -0.016192341 4289508502
-0.31833583 0.036117185 -0.014454149 4291549349
-0.31815612 0.037432909 -0.013576287 4292600753
-0.31797695 0.038744908 -0.012700947 4293323205
-0.31845573 0.040559087 -0.012670401 4292866242
-0.31860557 0.04212255 -0.012217351 4292469172
-0.32008383 0.044725634 -0.013458391 4291086752
-0.32056943 0.046563085 -0.013428541 4290297499
-0.32072043 0.048138943 -0.012971904 4289706390
-0.32222268 0.050798688 -0.014226694 4289246868
-0.32339948 0.053213093 -0.015062286 4288786828
-0.32389611 0.055086672 -0.015034237 4288719233
-0.3247405 0.057250578 -0.015441594 4288256888
-0.36106646 0.0020050609 -0.10292 4288845168
-0.3598029 0.0031888422 -0.10031991 4287464546
-0.3599855 0.0050950246 -0.099767648 4287400798
-0.3601681 0.0070014964 -0.099215306 4286810720
-0.35987088 0.0086553972 -0.097989269 4288713324
-0.35909808 0.010049111 -0.096099824 4288451958
-0.35785899 0.011177923 -0.093564436 4287071851
-0.35115591 0.0092959963 -0.0834172 4285953882
-0.34737036 0.008937425 -0.077371985 4285164881
-0.33916134 0.0060426081 -0.065208666 4284901710
-0.33652404 0.0061983503 -0.060815904 4284573516
-0.32938874 0.0037305651 -0.050221913 4283982923
-0.32696858 0.0039060316 -0.046176314 4283524684
-0.32495898 0.0042881933 -0.042711373 4283328335
-0.31884506 0.0021981657 -0.033622906 4283328334
-0.31565848 0.001785549 -0.028583676 4283263057
-0.31035292 3.7866499e-05 -0.020667328 4283330400
-0.30956453 0.00099710876 -0.018946463 4285039219
-0.30847552 0.0017568413 -0.01682193 4287864713
-0.30800834 0.0028912853 -0.01554935 4288457105
-0.30754387 0.0040193708 -0.014284011 4287139451
-0.30738494 0.0053357962 -0.013435425 4286218345
-0.30692431 0.0064524435 -0.012181473 4285364312
-0.3070685 0.0079579176 -0.011745302 4284051799
-0.30721271 0.009463626 -0.01130908 4283855957
-0.30735695 0.010969557 -0.010872778 4284315734
-0.30810812 0.012886017 -0.011247974 4285561181
-0.30855775 0.014604954 -0.011217161 4286349159
-0.30962351 0.016752932 -0.012004621 4286548850
-0.31069857 0.018919878 -0.012798888 4286746227
-0.31209773 0.021327177 -0.014016978 4288252512
-0.31576961 0.025363719 -0.018232865 4287335265
-0.31723055 0.027864084 -0.019510716 4285958246
-0.31804308 0.029913489 -0.019927135 4285630316
-0.31819403 0.031489331 -0.019470574 4286024044
-0.31867793 0.033310458 -0.01945029 4286614382
-0.31816375 0.034395032 -0.018122891 4287206263
-0.31732318 0.035226531 -0.016373551 4288655240
-0.31649011 0.03605083 -0.014639729 4291024805
-0.31598857 0.037115108 -0.013342121 4292207803
-0.31613761 0.038671307 -0.012891264 4292666565
-0.31628668 0.04022776 -0.012440334 4292928704
-0.31643578 0.041784421 -0.011989324 4293192364
-0.31822425 0.044634171 -0.013647974 4291808678
-0.31870553 0.046466157 -0.013618506 4292005293
-0.31885603 0.048037473 -0.013163279 4291680179
-0.32034245 0.050688766 -0.014415442 4291285934
-0.3215071 0.053095557 -0.015249411 4291152543
-0.32199925 0.054963466 -0.015221778 4290888085
-0.32249296 0.056837272 -0.015193971 4290098575
-0.36185017 0.0018163748 -0.10823171 4289371000
-0.36057055 0.0030120525 -0.10557847 4287726692
-0.35978645 0.0044408957 -0.10364075 4287465568
-0.35900813 0.0058595864 -0.10171713 4287533150
-0.35871235 0.0075185276 -0.10048438 4286482017
-0.35794225 0.0089188525 -0.098582536 4288319857
-0.35623813 0.009803134 -0.095366426 4287793264
-0.3545585 0.010674991 -0.092196338 4286149469
-0.34711522 0.0083370926 -0.080926858 4285295440
-0.34217086 0.0072924267 -0.073213115 4284836431
-0.3342548 0.0044949451 -0.061367184 4284639566
-0.33094969 0.0042293174 -0.056016956 4284048460
-0.32058236 -0.00017947725 -0.040836681 4283589708
-0.31867471 0.00023208337 -0.037495594 4283393870
-0.316802 0.00063633412 -0.034215439 4283328591
-0.31333101 5.3484961e-05 -0.028732894 4283328591
-0.31187204 0.00064326596 -0.026054343 4283263055
-0.30980656 0.00083894533 -0.022548797 4283263320
-0.30901819 0.0017976402 -0.020814665 4285629816
-0.30823675 0.0027481837 -0.019095611 4290034080
-0.30715698 0.0034970671 -0.016973292 4291413925
-0.30669424 0.004625205 -0.015702061 4291869837
-0.30653623 0.0059428061 -0.01485021 4291865986
-0.3060773 0.0070595019 -0.013590459 4289960554
-0.30592087 0.0083683571 -0.012745186 4286611560
-0.30576497 0.0096737212 -0.011902291 4285299294
-0.30620921 0.011380328 -0.011872722 4284707667
-0.30635339 0.012886652 -0.011436392 4284052312
-0.30679917 0.014600803 -0.011405991 4283921240
-0.30785415 0.016742725 -0.012192036 4284315991
-0.30891833 0.018903524 -0.012984843 4284448344
-0.31030291 0.021303875 -0.014200519 4285364825
-0.31361303 0.025098253 -0.017977921 4285167707
-0.31505451 0.027586047 -0.019248554 4284907102
-0.31585681 0.029625598 -0.019662347 4285038692
-0.31633496 0.031435702 -0.019642567 4285564523
-0.3164854 0.033007234 -0.019187348 4286155372
-0.31597999 0.03408803 -0.017866714 4286484851
-0.31515279 0.034917358 -0.016126337 4287736968
-0.31433299 0.035739541 -0.014401367 4290564001
-0.31383997 0.036800198 -0.013110204 4292599226
-0.31398827 0.038349707 -0.012661372 4293847751
-0.31413659 0.039899439 -0.012212477 4292926395
-0.31460607 0.041702479 -0.012181406 4292468392
-0.31637549 0.044543318 -0.013836608 4291743141
-0.31685254 0.046369873 -0.013807534 4292138681
-0.31700251 0.047936674 -0.013353685 4292338624
-0.31847328 0.050579622 -0.014603292 4292402359
-0.31962591 0.052978847 -0.01543563 4292204716
-0.32011372 0.054841116 -0.015408401 4291811496
-0.32060295 0.056709204 -0.015380965 4291350181
-0.36184481 0.0030790989 -0.11164633 4287858022
-0.36104715 0.0045235497 -0.10966466 4287400031
-0.35976952 0.0057069226 -0.10699855 4287532895
-0.35850602 0.0068775574 -0.10436171 4287533405
-0.35821 0.0085409302 -0.10311966 4286283613
-0.35508323 0.0086784232 -0.09783455 4286808682
-0.35294908 0.0093099363 -0.093985595 4286412385
-0.34995398 0.0094355484 -0.088925749 4285426516
-0.34616068 0.009072436 -0.082752176 4285098575
-0.3429065 0.0089589711 -0.077367 4284770893
-0.33372009 0.005408783 -0.06361638 4284245580
-0.33155841 0.0057920688 -0.059833024 4283720525
-0.31495017 -0.0023102518 -0.035729922 4283458895
-0.31345683 -0.0016942413 -0.032958448 4283459663
-0.31198585 -0.0010872313 -0.030228343 4283459663
-0.31085467 -0.00029643005 -0.027983291 4283459921
-0.30973688 0.00048522613 -0.025764702 4283459923
-0.30894408 0.0014510928 -0.024006223 4284051295
-0.30846849 0.00260296 -0.022694059 4287010178
-0.30768707 0.0035529195 -0.020961776 4291346841
-0.30752566 0.0048871986 -0.020092469 4292589441
-0.30614471 0.0054287058 -0.017542204 4292783476
-0.30598697 0.0067491592 -0.016685273 4292455808
-0.30552825 0.0078668799 -0.015416605 4291933052
-0.30537212 0.0091785481 -0.014566321 4291473022
-0.30491716 0.01028492 -0.013309066 4291011438
-0.30506125 0.011791189 -0.01287284 4288447322
-0.30520535 0.013297678 -0.012436547 4285693032
-0.30564943 0.015012588 -0.012407626 4284576604
-0.30669934 0.017156484 -0.013198044 4284182610
-0.30745286 0.019102987 -0.013581989 4283788369
-0.30851832 0.021280754 -0.014383141 4283722833
-0.31179222 0.025063761 -0.018152121 4283920212
-0.31321853 0.027544165 -0.019420067 4284183126
-0.31368983 0.029340344 -0.019400155 4284446555
-0.31383929 0.030902477 -0.018947745 4284841316
-0.31431225 0.032706797 -0.018926939 4285300840
-0.31381544 0.033783834 -0.017612994 4285892459
-0.31300148 0.034611009 -0.015881522 4287143549
-0.31251228 0.035674926 -0.014586101 4289576340
-0.31202593 0.036732841 -0.013298231 4292203692
-0.31185767 0.038031012 -0.012433714 4293648312
-0.31232157 0.039823279 -0.012403208 4292794290
-0.31278688 0.041621104 -0.012372556 4291547812
-0.31486091 0.044712134 -0.014448031 4291283109
-0.31566039 0.046799351 -0.014845593 4291549368
-0.31581029 0.048366349 -0.014391772 4292275400
-0.31694394 0.050741196 -0.015218285 4292603078
-0.31842098 0.053413387 -0.016484726 4292470717
-0.31857252 0.054997604 -0.016025925 4292273590
-0.3187241 0.05658203 -0.01556706 4291942830
-0.36165211 0.0024001305 -0.11566593 4288185704
-0.36085057 0.0038551136 -0.11365829 4287268189
-0.36005503 0.0052995845 -0.11166551 4287467358
-0.35878047 0.0064810906 -0.10898343 4287467613
-0.35752001 0.007649818 -0.10633083 4287467868
-0.35627338 0.0088060182 -0.10370725 4286217048
-0.35133961 0.0079448512 -0.095774926 4285559642
-0.34836435 0.0080873286 -0.090693027 4285296212
-0.34502813 0.0079854643 -0.085112564 4285033297
-0.3401095 0.0069445889 -0.077286735 4284836690
-0.33659306 0.0066318847 -0.071497373 4285427028
-0.31609759 -0.0035216117 -0.041509829 4285362518
-0.31424531 -0.0030827357 -0.038188223 4284312920
-0.31177747 -0.0030348864 -0.034004804 4283525205
-0.31064063 -0.0022279811 -0.031723838 4283459665
-0.30983421 -0.0012389868 -0.029917981 4283590736
-0.30966631 0.00012726687 -0.029018929 4283656274
-0.30824286 0.00071336911 -0.026354123 4283591255
-0.3080788 0.0020651212 -0.025468141 4285168746
-0.30760497 0.0032170273 -0.02414974 4289111946
-0.30713394 0.0043624318 -0.022839041 4291805845
-0.30728081 0.0058984319 -0.022394283 4292653430
-0.30711943 0.0072335862 -0.021520285 4292848498
-0.30573741 0.0077600316 -0.018952217 4292653948
-0.30527732 0.008879872 -0.017671512 4292389755
-0.3051208 0.010195934 -0.016814305 4292718966
-0.30466455 0.011304331 -0.01554516 4292914539
-0.30450964 0.012611642 -0.014694604 4292256105
-0.30435517 0.013915415 -0.013846401 4291669378
-0.30479857 0.01563387 -0.0138195 4290877549
-0.30554432 0.017570287 -0.014204225 4288187750
-0.30599138 0.019301936 -0.014177612 4285101411
-0.30674389 0.021257889 -0.014564911 4283788121
-0.30998191 0.025029575 -0.018325489 4283591505
-0.31107596 0.027269732 -0.019160656 4283723088
-0.3112244 0.028822567 -0.018711025 4283985748
-0.3116906 0.03061308 -0.018690113 4284248665
-0.31215823 0.032409102 -0.018669045 4284643166
-0.31166992 0.033482436 -0.017361725 4285103714
-0.31118453 0.034549627 -0.016062059 4285891689
-0.310702 0.03561078 -0.014769933 4287074680
-0.31053561 0.036910534 -0.013903364 4288982158
-0.3106831 0.038453575 -0.01345658 4290299815
-0.31114522 0.040246632 -0.013427596 4291154344
-0.31192541 0.042298865 -0.013818213 4290824091
-0.31431824 0.04566196 -0.016337536 4290296732
-0.31479275 0.047493294 -0.016312258 4291090101
-0.31494281 0.049062807 -0.015857801 4292339651
-0.31607419 0.051444519 -0.016692175 4292927936
-0.31721583 0.053848021 -0.017534029 4292861114
-0.31736732 0.055432402 -0.01707525 4292730550
-0.31718707 0.056735944 -0.016183652 4291941547
-0.36145717 0.0017134532 -0.11973102 4288581487
-0.36015785 0.0029299429 -0.11696875 4287463776
-0.35887307 0.0041331016 -0.11423726 4287335262
-0.35808626 0.0055740685 -0.11224607 4287467614
-0.35586929 0.00624969 -0.10816602 4287402331
-0.35369274 0.0069132624 -0.10416021 4287139931
-0.35201597 0.0078137144 -0.10089819 4285953878
-0.34633321 0.0064975908 -0.09181793 4285230674
-0.33275896 0.00072864426 -0.071315274 4284902481
-0.32829049 -0.00012549032 -0.064093538 4284837203
-0.32399419 -0.00094648835 -0.057149976 4285296733
-0.32270488 -0.00010092252 -0.054572497 4287596657
-0.31587976 -0.0024963606 -0.044035316 4288585338
-0.31468791 -0.0016720099 -0.041633304 4287206266
-0.30993319 -0.0029887825 -0.03413346 4285824876
-0.30881068 -0.0021843964 -0.031858552 4284970077
-0.30832887 -0.0010068339 -0.030505773 4283984729
-0.30847773 0.00055103697 -0.030054757 4283722071
-0.30737385 0.0013280258 -0.02782399 4283722847
-0.30721077 0.0026810248 -0.026934545 4285828741
-0.3070482 0.004030271 -0.026047658 4290101421
-0.30688611 0.0053757466 -0.025163306 4291543205
-0.30703354 0.0069187041 -0.024716619 4292588155
-0.30687177 0.0082583902 -0.023835393 4292784247
-0.30671054 0.0095944218 -0.022956733 4292850808
-0.30532736 0.010105577 -0.020370644 4292513887
-0.30486709 0.01122226 -0.019082053 4292513888
-0.3044095 0.012332671 -0.017800884 4292910431
-0.3039546 0.013436898 -0.016527038 4293040480
-0.30409941 0.014952433 -0.016088299 4292713325
-0.30424422 0.016468193 -0.015649483 4292782964
-0.30468935 0.018198205 -0.015625043 4292001159
-0.30513576 0.019933423 -0.015600455 4291278219
-0.30558348 0.021673927 -0.015575729 4290551159
-0.3078723 0.02476855 -0.018073315 4288842081
-0.30864024 0.026767081 -0.018477114 4285888348
-0.30909979 0.028543958 -0.018456085 4284050776
-0.30956075 0.030326309 -0.018434918 4283788116
-0.30970871 0.031875197 -0.017986521 4283920213
-0.30985674 0.033424292 -0.017538043 4284249431
-0.30937803 0.034488693 -0.016241699 4284773979
-0.30921346 0.035790056 -0.015373067 4285300068
-0.30936089 0.037333004 -0.014926378 4286286702
-0.30982095 0.039124396 -0.014899649 4287077242
-0.31028244 0.040921301 -0.014872814 4288522376
-0.31106114 0.042978689 -0.015268308 4288915078
-0.31344846 0.046354115 -0.017806595 4288916109
-0.31392229 0.048189372 -0.017783504 4290430628
-0.31374839 0.049493242 -0.016897824 4291613102
-0.31422272 0.051333658 -0.016873218 4292071086
-0.31502503 0.053454306 -0.017280295 4292136626
-0.31452322 0.054478884 -0.015962688 4292006066
-0.31434852 0.055774294 -0.015079453 4291480227
-0.3599543 0.0022461333 -0.12104139 4287661156
-0.3591544 0.0037100529 -0.11900246 4287465569
-0.35787275 0.0049113026 -0.11625453 4287401823
-0.35660541 0.0060994802 -0.11353712 4287271261
-0.35392952 0.0065197079 -0.10874687 4287139931
-0.35039183 0.006436171 -0.10270382 4286481495
-0.34829941 0.007087864 -0.098811537 4285493588
-0.33283481 0.00032639963 -0.075296067 4284968274
-0.32795462 -0.00073827564 -0.067390405 4284836946
-0.32401022 -0.0013440721 -0.06088512 4285099866
-0.32091469 -0.001520924 -0.055644367 4287269237
-0.319655 -0.00067825383 -0.053096868 4290229395
-0.31397441 -0.0024510315 -0.044136506 4291414430
-0.31246772 -0.0018253964 -0.041262869 4290953627
-0.30841634 -0.0027525525 -0.034719415 4290358925
-0.3076185 -0.0017596239 -0.032897606 4288715646
-0.30714017 -0.00058316451 -0.03154175 4286416500
-0.30697632 0.0007804191 -0.030641668 4285364326
-0.30650204 0.0019445749 -0.02929841 4284905066
-0.30665022 0.0034961628 -0.028849306 4286157974
-0.30679843 0.0050479881 -0.028400119 4290233785
-0.30663592 0.0063981009 -0.027508408 4291868310
-0.30678391 0.0079480754 -0.027059782 4292651378
-0.3066217 0.009292379 -0.026171226 4292719226
-0.30646002 0.010632955 -0.025285235 4293112170
-0.30629882 0.011969795 -0.024401782 4292778341
-0.30491459 0.012465489 -0.021797573 4292777827
-0.30415204 0.013370059 -0.020076467 4293042278
-0.3036958 0.014476283 -0.018790515 4293104222
-0.30384117 0.01599858 -0.01834989 4292183921
-0.30368647 0.017307455 -0.017490262 4292390534
-0.30413198 0.01904384 -0.017468449 4292523386
-0.30427739 0.020566816 -0.017027631 4291078284
-0.30442286 0.022090005 -0.016586736 4291010950
-0.30608627 0.024735618 -0.018246021 4291207033
-0.30684668 0.026728394 -0.018649191 4290419578
-0.30730221 0.028500155 -0.018628508 4289368181
-0.30744943 0.030042162 -0.01818219 4287857249
-0.30759671 0.031584367 -0.017735796 4285494103
-0.307744 0.033126846 -0.017289346 4283854682
-0.30758193 0.034428209 -0.016420504 4283854935
-0.30772907 0.035968855 -0.015974566 4284380504
-0.30818599 0.037755575 -0.01594957 4284906077
-0.30864426 0.039547734 -0.015924385 4285235042
-0.30910391 0.041345425 -0.015899103 4286352496
-0.3101941 0.04366063 -0.016722908 4287073137
-0.31225395 0.046784308 -0.018846726 4287338105
-0.31272593 0.048620373 -0.018825224 4288720012
-0.31223235 0.04965578 -0.017507164 4289771930
-0.31238207 0.051223524 -0.017053375 4290494881
-0.3128536 0.053064197 -0.017029051 4291087529
-0.31268153 0.054359738 -0.016145619 4290955947
-0.31251001 0.055651657 -0.015264783 4290625438
-0.36074772 0.0020543355 -0.12666731 4287924073
-0.36043623 0.0037859608 -0.12533887 4287465312
-0.35913271 0.0050003314 -0.12252409 4287533409
-0.35784388 0.0062012998 -0.11974092 4287402332
-0.3565695 0.0073891138 -0.1169888 4287205724
-0.35387909 0.007797603 -0.11213388 4286612826
-0.34668967 0.0057225446 -0.10060117 4285756500
-0.34333554 0.0056527182 -0.094812021 4285164882
-0.32838058 -0.00093081157 -0.07185401 4284968275
-0.32365772 -0.0019549087 -0.064123705 4284969048
-0.31983891 -0.0025314731 -0.057758693 4286678381
-0.31788358 -0.0020862154 -0.054162726 4289770128
-0.31699827 -0.0010441486 -0.05215212 4291611298
-0.31208056 -0.0024058602 -0.044237323 4291873439
-0.31124628 -0.0013905172 -0.042327452 4291806620
-0.30721861 -0.0023259735 -0.03576329 4291806111
-0.30705336 -0.00094986364 -0.034850303 4291413666
-0.30657521 0.00022787042 -0.033484623 4290886810
-0.30641165 0.0015944954 -0.032578975 4290094725
-0.30656061 0.0031552729 -0.032127302 4288322432
-0.30639738 0.0045159683 -0.031224927 4287800990
-0.30654618 0.0060748868 -0.030773774 4290364601
-0.30638322 0.0074296608 -0.029874591 4292000150
-0.30684376 0.0091934027 -0.029871318 4292850543
-0.30636922 0.010335641 -0.028528022 4292981107
-0.30651763 0.011890857 -0.028077949 4292916849
-0.30635533 0.013233933 -0.027185189 4292911982
-0.30557618 0.014147082 -0.02541751 4292514157
-0.30419514 0.014627953 -0.022801993 4292850296
-0.30343458 0.015524795 -0.021073978 4292846959
-0.30358049 0.017053949 -0.020631453 4291992963
-0.3034254 0.018367164 -0.019764779 4292850559
-0.30357116 0.019894501 -0.019322785 4292721024
-0.30341637 0.021202158 -0.018459132 4291798922
-0.30356196 0.022727733 -0.018017646 4290615176
-0.30461323 0.024928674 -0.018840669 4290025339
-0.30506337 0.026689976 -0.018820439 4290026874
-0.30582073 0.028688848 -0.019225255 4290420095
-0.30596769 0.030228768 -0.018779628 4290484599
-0.30611464 0.031768903 -0.018333919 4289499501
-0.30626166 0.033309281 -0.017888147 4288185706
-0.30640867 0.034849867 -0.017442312 4287135072
-0.30655572 0.036390677 -0.016996413 4285562209
-0.30670279 0.037931729 -0.016550452 4284183137
-0.30746731 0.039971162 -0.016949311 4284248157
-0.30792516 0.04176965 -0.016925571 4284774494
-0.30901009 0.044086903 -0.017753955 4285430880
-0.31074008 0.046950608 -0.019453291 4285760358
-0.31120905 0.04878436 -0.019432768 4286550133
-0.31103927 0.050085772 -0.018546006 4287470979
-0.31087005 0.051383536 -0.017661832 4288587659
-0.31133854 0.053221848 -0.017638441 4289901201
-0.31116894 0.054515392 -0.01675549 4290033813
-0.36155635 0.0018588189 -0.1324013 4288317289
-0.36073476 0.003352043 -0.1302802 4287399263
-0.36042145 0.0050913184 -0.12893727 4287533151
-0.35911047 0.0063053942 -0.12608606 4287468126
-0.35781437 0.0075059938 -0.12326702 4287337051
-0.35604671 0.0084338589 -0.11974619 4286876251
-0.34960845 0.0068071401 -0.10920756 4285888343
-0.33875737 0.002667055 -0.092084065 4285230930
-0.32727268 -0.0019822677 -0.074082889 4284968530
-0.32256547 -0.0029858833 -0.066292994 4284903766
-0.31911466 -0.0033431295 -0.060409561 4286022503
-0.31577253 -0.0036888639 -0.054711297 4289310857
-0.31387958 -0.0032381474 -0.051188778 4291676579
-0.31302381 -0.0022034752 -0.049217042 4292134052
-0.30857739 -0.0033300486 -0.04194025 4291279251
-0.30776775 -0.0023210875 -0.04006106 4290622860
-0.30696547 -0.0013210078 -0.038198784 4291281820
-0.30679974 5.9974416e-05 -0.037278052 4292202666
-0.30663455 0.0014370641 -0.036360063 4292332456
-0.30646986 0.0028102458 -0.03544471 4291871902
-0.30630571 0.0041795508 -0.034532022 4291019932
-0.30645525 0.0057477448 -0.034078293 4290626220
-0.30629143 0.0071110777 -0.033168901 4291345582
-0.30612808 0.0084705446 -0.032262173 4292197786
-0.30627728 0.010034742 -0.031809587 4292457851
-0.30611423 0.011388297 -0.030906068 4292913774
-0.30595168 0.012738079 -0.030005222 4292585846
-0.30610052 0.014298329 -0.029553782 4292779629
-0.30531895 0.015210982 -0.027767764 4292321927
-0.30515864 0.016547782 -0.026876656 4292654209
-0.30469188 0.017662887 -0.025549846 4292979564
-0.30331731 0.018118635 -0.02293326 4292514662
-0.30316186 0.019436263 -0.022059463 4292583525
-0.30330819 0.020970466 -0.02161557 4293047923
-0.30315301 0.022282433 -0.020744821 4292979051
-0.3029983 0.023590779 -0.019876543 4292254310
