# .PCD v0.7 - Point Cloud Data file format
VERSION 0.7
FIELDS x y z rgba
SIZE 4 4 4 4
TYPE F F F U
COUNT 1 1 1 1
WIDTH 996
HEIGHT 1
VIEWPOINT 0 0 0 1 0 0 0
POINTS 996
DATA ascii
-0.3266134 0.0096076354 -0.022548379 4286289237
-0.32624051 0.011204969 -0.022027029 4289630799
-0.32621196 0.012869531 -0.021994814 4289370958
-0.32618344 0.014534342 -0.021962581 4289105992
-0.32615489 0.01619941 -0.021930346 4288452682
-0.32647043 0.017944429 -0.02238702 4288517190
-0.32644185 0.019612525 -0.022354729 4289040969
-0.32641324 0.021280872 -0.022322433 4291337038
-0.32638463 0.022949448 -0.022290135 4289174609
-0.32635602 0.024618277 -0.022257835 4287208530
-0.32701832 0.026473107 -0.023207266 4288850517
-0.32698962 0.028147567 -0.02317486 4287468375
-0.32730788 0.029920686 -0.023635466 4285696341
-0.32762712 0.031699546 -0.024097525 4284711249
-0.32794729 0.033484112 -0.024560934 4283987278
-0.32756948 0.035060454 -0.024032472 4283526985
-0.32719278 0.036632199 -0.023505561 4283132228
-0.3264716 0.038088378 -0.022489019 4282999875
-0.32609832 0.039648764 -0.021966897 4283066709
-0.32572615 0.041204613 -0.02144634 4285958019
-0.32569754 0.042873606 -0.021414036 4288850063
-0.32532656 0.044422686 -0.020895161 4290619258
-0.32598367 0.046335351 -0.021837479 4289367924
-0.325955 0.048007607 -0.021805098 4285625443
-0.32661602 0.049937643 -0.02275308 4283655244
-0.32693362 0.051747475 -0.02321298 4283265891
-0.32725224 0.053563111 -0.023674332 4284518265
-0.32722339 0.055246651 -0.023641739 4286749562
-0.32719451 0.056930453 -0.023609145 4288457096
-0.32751396 0.058757626 -0.024071734 4289638539
-0.32748505 0.0604445 -0.024039084 4285692516
-0.32815588 0.062429652 -0.025001297 4283859308
-0.32847831 0.064274542 -0.025468191 4284051299
-0.32835865 -0.0016491916 -0.02788347 4286150241
-0.32797843 -1.6269671e-05 -0.027347583 4283394631
-0.32725036 0.0015565426 -0.026313081 4283395400
-0.3268736 0.0031774568 -0.025782086 4283855949
-0.32615224 0.0047337441 -0.024757151 4284513361
-0.32577887 0.006342853 -0.024230933 4285171797
-0.32540664 0.007947267 -0.023706324 4286026585
-0.32503551 0.0095470324 -0.02318329 4286485849
-0.32466558 0.011142178 -0.022661882 4288452433
-0.32463697 0.012804378 -0.022629784 4288126035
-0.32460839 0.014466804 -0.022597698 4288322378
-0.32457978 0.016129458 -0.022565596 4288714567
-0.32489234 0.017871877 -0.02302256 4288453192
-0.32452258 0.019455548 -0.022501379 4288060490
-0.32449394 0.021118961 -0.022469265 4289766994
-0.32446533 0.022782601 -0.02243715 4288718676
-0.32443672 0.024446493 -0.022405013 4288453714
-0.32509106 0.026295302 -0.023352088 4289435472
-0.32506233 0.027964763 -0.023319865 4287664211
-0.32537657 0.029732352 -0.023779366 4285828182
-0.32534781 0.031404857 -0.023747072 4284974162
-0.32497615 0.032974649 -0.023223139 4284315727
-0.32597905 0.034962706 -0.0246702 4283658571
-0.32526147 0.036423888 -0.023650179 4283198534
-0.32488996 0.037986744 -0.023126367 4282934851
-0.32417896 0.039432537 -0.022115696 4282935114
-0.32415029 0.041098855 -0.022083528 4284772444
-0.32412165 0.042765457 -0.022051338 4286478949
-0.32409295 0.044432282 -0.022019165 4287465064
-0.32440472 0.046222042 -0.022475207 4286614387
-0.32403561 0.047766678 -0.02195479 4284185189
-0.32468864 0.049690221 -0.02290041 4282999882
-0.32465988 0.051363114 -0.022868106 4283134298
-0.32463109 0.05303628 -0.022835817 4284187495
-0.32460231 0.05470968 -0.022803508 4285628770
-0.32457352 0.05638333 -0.022771196 4287402611
-0.32523021 0.058340438 -0.023722176 4288521599
-0.3252013 0.060019732 -0.023689758 4286084703
-0.32586193 0.06199456 -0.024646526 4283856743
-0.32652661 0.063981801 -0.02560913 4283723360
-0.32606357 -0.0017945933 -0.027511967 4286148697
-0.32568857 -0.00016885763 -0.026979219 4283460678
-0.32497075 0.0013973383 -0.025950702 4283264841
-0.32459912 0.0030112253 -0.025422746 4283790414
-0.32388788 0.0045610182 -0.024403678 4284447825
-0.32351962 0.0061631822 -0.0238805 4284975444
-0.32315242 0.0077607199 -0.023358911 4287663702
-0.32278633 0.0093536247 -0.022838861 4286618459
-0.32275775 0.011010669 -0.022806948 4285304937
-0.32272917 0.012667941 -0.022775032 4285239152
-0.32303789 0.014399462 -0.023231056 4285436269
-0.32334754 0.016136464 -0.023688441 4285632363
-0.32331884 0.017799549 -0.023656417 4285830249
-0.32329014 0.019462857 -0.02362439 4285766754
-0.32292327 0.021042095 -0.023103151 4286618458
-0.32255751 0.022616759 -0.022583447 4287144019
-0.32252887 0.024275744 -0.022551507 4288127060
-0.32283726 0.026026627 -0.023007154 4288190036
-0.32314655 0.027783077 -0.023464177 4286878550
-0.32311785 0.02944785 -0.023432113 4285828695
-0.32308912 0.031112881 -0.023400048 4285105235
-0.32306039 0.032778136 -0.023367979 4284381777
-0.32371038 0.034653794 -0.024318047 4283790157
-0.3233417 0.036216866 -0.023794077 4283329608
-0.32297415 0.037775431 -0.023271753 4282935109
-0.32260773 0.039329477 -0.022750981 4282804040
-0.32224238 0.040879019 -0.022231778 4283263051
-0.32187819 0.04242415 -0.021714177 4283655757
-0.32218504 0.044202618 -0.022167778 4283918928
-0.32215637 0.04586478 -0.022135764 4283724630
-0.32179227 0.047403045 -0.021618299 4283199571
-0.322099 0.049189817 -0.022071727 4283000392
-0.3220703 0.050852709 -0.022039706 4283198028
-0.32237792 0.052647959 -0.022494506 4283919953
-0.32234919 0.054313865 -0.022462428 4284639823
-0.32232043 0.055980027 -0.022430345 4285493078
-0.32262886 0.057786535 -0.022886397 4285955676
-0.32293826 0.059598833 -0.023343803 4285361488
-0.32393008 0.061710447 -0.024789244 4283722326
-0.32424337 0.063540399 -0.025252402 4283592545
-0.32413149 -0.0018890119 -0.027643289 4286016084
-0.32376051 -0.00026794508 -0.027112007 4283328839
-0.32305071 0.0012939187 -0.026086342 4283198536
-0.32234523 0.0028465111 -0.025066897 4283593293
-0.32197973 0.0044487412 -0.024543596 4284119633
-0.32161534 0.006046352 -0.024021834 4285695569
-0.3209185 0.007575863 -0.023014825 4286879580
-0.32088989 0.0092277853 -0.022983095 4288910446
-0.32052881 0.010811642 -0.022466067 4289112720
-0.32050025 0.012461542 -0.022434378 4289582248
-0.32080409 0.01418503 -0.022887884 4290041769
-0.32110885 0.015913978 -0.023342771 4290237090
-0.3217499 0.017727433 -0.02428855 4290301081
-0.32138583 0.019306803 -0.023767132 4290294664
-0.3213571 0.020965459 -0.023735285 4290622075
-0.3213284 0.022624345 -0.023703415 4289962605
-0.32096553 0.024194648 -0.023183713 4287536229
-0.32093686 0.025851496 -0.023151888 4287271261
-0.32090816 0.02750862 -0.023120074 4286748763
-0.32087949 0.029165965 -0.023088239 4285763417
-0.32085079 0.030823566 -0.023056384 4284908628
-0.32082209 0.032481391 -0.023024546 4284250449
-0.3211273 0.034243442 -0.02348024 4283789644
-0.32143342 0.036011111 -0.023937365 4283394888
-0.32140464 0.037674744 -0.023905402 4283000907
-0.32070726 0.039115198 -0.022897137 4284316505
-0.32034582 0.040660542 -0.022379356 4286221153
-0.31998548 0.042201441 -0.021863148 4287204448
-0.31995684 0.043855958 -0.021831369 4287269214
-0.32025978 0.045631621 -0.02228388 4286481242
-0.31989953 0.047165755 -0.02176781 4285233492
-0.31987092 0.048820995 -0.021736 4283723083
-0.31984225 0.050476495 -0.021704204 4283131719
-0.32014501 0.052263167 -0.022156497 4283459146
-0.32011628 0.053921655 -0.022124648 4284442702
-0.32008758 0.055580389 -0.022092778 4285033805
-0.32039115 0.057378244 -0.022546347 4284378190
-0.32069564 0.05918178 -0.023001233 4283721038
-0.32167253 0.061281964 -0.024438528 4283394122
-0.32198083 0.06310302 -0.024899151 4283330146
-0.32221103 -0.0019828305 -0.027774014 4285883987
-0.32150695 -0.00041819675 -0.026747923 4283328071
-0.32080716 0.0011371439 -0.025728155 4283066953
-0.32011163 0.0026832956 -0.02471453 4283396170
-0.31975108 0.0042786384 -0.024194179 4283856463
-0.31939164 0.0058694053 -0.023675412 4287596370
-0.31870458 0.0073926793 -0.022674106 4286222704
-0.31834829 0.0089720432 -0.022159945 4290955422
-0.31831977 0.010614411 -0.022128485 4291469448
-0.31796461 0.012187058 -0.021615909 4290540179
-0.31826273 0.013899875 -0.022065539 4291005842
-0.31856176 0.015618108 -0.022516515 4291405454
-0.31985304 0.017576735 -0.024429198 4290747540
-0.31949285 0.019151721 -0.023909235 4290359711
-0.31946412 0.020805504 -0.02387755 4291411617
-0.31910506 0.022373678 -0.02335923 4290554528
-0.31907639 0.024025431 -0.023327585 4289179801
-0.31904769 0.025677439 -0.023295935 4287735419
-0.31901899 0.027329698 -0.023264285 4287929694
-0.31866115 0.028886624 -0.022747623 4286418006
-0.31863248 0.03053686 -0.022716014 4284776531
-0.31860384 0.03218732 -0.022684401 4283987791
-0.31890422 0.033941083 -0.023137612 4283724106
-0.31887549 0.035594545 -0.023105947 4283394888
-0.31950769 0.03746533 -0.024048174 4283001170
-0.31881809 0.038902204 -0.023042567 4285173357
-0.31846049 0.040443353 -0.022526221 4287933307
-0.31843179 0.0420953 -0.022494571 4289046910
-0.31807536 0.043629792 -0.02197987 4289177730
-0.31804672 0.045279719 -0.021948261 4288587390
-0.31769133 0.046807569 -0.021435091 4287011441
-0.31766272 0.048455514 -0.021403525 4284709980
-0.31763411 0.050103679 -0.02137194 4283854671
-0.3176055 0.051752094 -0.021340368 4284447327
-0.31790343 0.05353298 -0.021790145 4284248420
-0.31787473 0.055184361 -0.021758521 4284904793
-0.31817347 0.056973618 -0.02220954 4284185699
-0.31880251 0.058909517 -0.023147561 4284180576
-0.31943536 0.060857408 -0.024091253 4283657040
-0.32007208 0.062817432 -0.025040722 4283395938
-0.31996787 -0.002125164 -0.027407588 4285556557
-0.31960586 -0.00051577197 -0.026880883 4283328326
-0.31858382 0.00098179188 -0.025373392 4282935366
-0.31789804 0.0025215517 -0.024365492 4283198535
-0.3175424 0.0041100727 -0.023848161 4283462733
-0.31718779 0.0056940555 -0.02333232 4288448597
-0.31651032 0.0072111413 -0.02233663 4286352245
-0.31583691 0.008719366 -0.021346845 4291091373
-0.3154875 0.010285344 -0.020838628 4292247667
-0.31513917 0.011846891 -0.020331901 4290931072
-0.31607342 0.013689932 -0.021731628 4291533460
-0.3166914 0.015474957 -0.022661321 4291721578
-0.31763977 0.017348863 -0.024082165 4291986802
-0.31728449 0.018917199 -0.023565216 4290812570
-0.31725582 0.020563647 -0.023533754 4291867296
-0.31722713 0.022210343 -0.02350229 4291274632
-0.31719846 0.023857264 -0.023470823 4291273611
-0.31716976 0.025504436 -0.023439353 4288524440
-0.31714106 0.02715186 -0.023407876 4289111145
-0.31711236 0.028799506 -0.023376383 4287268949
-0.31675833 0.030349927 -0.022861192 4284709458
-0.31672969 0.031995568 -0.022829739 4283855951
-0.31735241 0.033846665 -0.023766916 4283526987
-0.31699753 0.035392549 -0.023250412 4283263816
-0.31762198 0.037257176 -0.024190258 4283001427
-0.31694007 0.038690522 -0.02318739 4285043315
-0.31658629 0.040227499 -0.022672448 4287936391
-0.31623358 0.041760083 -0.022159062 4288853131
-0.31620494 0.043404967 -0.022127619 4288786576
-0.31617627 0.045050085 -0.022096189 4288591245
-0.31582472 0.046573848 -0.021584475 4287540352
-0.31579611 0.048216991 -0.021553067 4285565031
-0.31544563 0.049734212 -0.02104287 4284707673
-0.31573886 0.051503975 -0.021490265 4285302902
-0.31571022 0.053147808 -0.021458851 4285500032
-0.31600428 0.054925852 -0.021907477 4285828718
-0.31629923 0.056709483 -0.022357494 4284849533
-0.31692058 0.058638856 -0.023293179 4285562229
-0.31754574 0.060580209 -0.024234563 4284772450
-0.31817466 0.062533572 -0.02518164 4283657825
-0.3184045 -0.0021687651 -0.028033661 4285163083
-0.31771606 -0.00061276072 -0.027013211 4283263559
-0.31703177 0.00093405048 -0.025998903 4282870342
-0.31635165 0.0024717851 -0.024990747 4282935879
-0.31567556 0.0040004896 -0.023988603 4283264843
-0.31532475 0.0055800336 -0.023474241 4286678351
-0.31433558 0.0070312312 -0.022002365 4285767534
-0.31398883 0.0085973134 -0.021494005 4289905307
-0.31332687 0.010092829 -0.020512722 4292914303
-0.31235534 0.01151176 -0.019067097 4292844934
-0.31264049 0.013198474 -0.019506393 4293119400
-0.31324175 0.014963591 -0.020419899 4292582528
-0.31512442 0.017045883 -0.023255719 4292256907
-0.31509581 0.018684812 -0.023224469 4291462546
-0.31506717 0.020323992 -0.023193231 4291664288
-0.31536022 0.022047982 -0.023644643 4290941590
-0.31533152 0.023690097 -0.023613352 4291726980
-0.31562546 0.02542224 -0.024066098 4288850585
-0.31559673 0.027067328 -0.024034753 4289111404
-0.31524545 0.028617918 -0.023519427 4287070803
-0.31521672 0.030261012 -0.023488108 4284576848
-0.31518802 0.031904355 -0.023456784 4283592780
-0.31548169 0.033650063 -0.023909295 4283198792
-0.31545293 0.035296351 -0.023877921 4283001671
-0.31542417 0.036942892 -0.023846524 4282936147
-0.31507313 0.038480084 -0.023331463 4285044083
-0.31472316 0.040012915 -0.022817988 4288264839
-0.31469446 0.041655239 -0.022786694 4289706635
-0.31434554 0.043181501 -0.022274738 4289509520
-0.31431687 0.044821825 -0.022243483 4288853387
-0.31396905 0.046341538 -0.021733107 4287736959
-0.31394044 0.047979884 -0.02170188 4286156395
-0.31359366 0.049493086 -0.021193104 4285429853
-0.31388316 0.051257316 -0.021639425 4284842105
-0.31385452 0.052896414 -0.021608187 4287667854
-0.31382588 0.054535724 -0.021576943 4287800964
-0.31443602 0.056446917 -0.022504784 4285506434
-0.31472805 0.058230542 -0.022955041 4286095494
-0.3156673 0.060304668 -0.024377184 4286543978
-0.31628853 0.062251445 -0.025321931 4284443490
-0.31651819 -0.0022608894 -0.028162612 4284703817
-0.31583744 -0.0007091671 -0.027144914 4283198021
-0.3154842 0.0008864518 -0.026622709 4282870341
-0.31480965 0.0024221619 -0.025614275 4282804806
-0.31413916 0.0039488976 -0.024611885 4283001415
-0.31347266 0.0054667112 -0.023615474 4284248650
-0.31281015 0.006975716 -0.022625027 4284977492
-0.31215158 0.0084759574 -0.021640463 4287402598
-0.31149688 0.0099675395 -0.020661727 4288585594
-0.31022733 0.011315666 -0.018752176 4288786844
-0.31050801 0.012994762 -0.019189144 4289777847
-0.31047976 0.014606741 -0.019158503 4290628781
-0.31169584 0.016519053 -0.021011667 4291416752
-0.31261033 0.018375805 -0.022408327 4291938224
-0.31353304 0.02024948 -0.023817513 4292267698
-0.31414318 0.022055501 -0.024753628 4291609005
-0.31443524 0.023785075 -0.025208177 4290623898
-0.31472817 0.025520122 -0.025664106 4287931523
-0.31469929 0.027167842 -0.025632799 4287405155
-0.31434873 0.028720766 -0.025114357 4285693777
-0.31367955 0.030172365 -0.024113405 4283985740
-0.31365079 0.031813387 -0.02408221 4283329865
-0.31330335 0.033353109 -0.023568429 4283001670
-0.31327465 0.034992147 -0.023537274 4282805062
-0.31292832 0.036525279 -0.023025066 4282936401
-0.31226733 0.037946105 -0.022036305 4285175408
-0.31318843 0.039910685 -0.023443781 4288658822
-0.31284222 0.041437179 -0.022931701 4290558086
-0.31281352 0.043074977 -0.022900559 4290425993
-0.31246835 0.044594936 -0.022390086 4289246600
-0.31212425 0.046110597 -0.021881109 4287737216
-0.31209561 0.047744226 -0.021850055 4285894507
-0.31175253 0.049253404 -0.021342615 4285234010
-0.31203833 0.051012173 -0.021787932 4284842863
-0.31200969 0.052646518 -0.021756869 4287140992
-0.31198105 0.054281086 -0.021725783 4285961095
-0.31226757 0.056050718 -0.022172313 4285234563
-0.31287202 0.057963975 -0.023100602 4286095763
-0.31379998 0.060030803 -0.024519179 4287465574
-0.31441358 0.061971005 -0.025461553 4284771683
-0.31496668 -0.0023040699 -0.028785074 4284115278
-0.31429157 -0.00075443706 -0.027767105 4283001414
-0.31362051 0.00078613905 -0.026755311 4282870087
-0.3129535 0.0023176882 -0.025749583 4282870599
-0.31260711 0.0038974285 -0.025233455 4282935622
-0.31194609 0.005413278 -0.024236782 4283067721
-0.31128901 0.0069203363 -0.023246016 4283725130
-0.31063586 0.0084186848 -0.02226115 4284708173
-0.30967754 0.0098430198 -0.020810077 4284644441
-0.30872768 0.011255009 -0.019371776 4284843113
-0.30778617 0.012654798 -0.017946173 4286025330
-0.30745542 0.014184073 -0.01745354 4287075186
-0.3098729 0.016375523 -0.021159502 4287993463
-0.31077638 0.018226255 -0.022552732 4288781949
-0.31200328 0.020175189 -0.024440132 4288978814
-0.31229073 0.021894092 -0.024892244 4288780664
-0.31257901 0.02361838 -0.025345735 4288190834
-0.31318712 0.025437916 -0.026287924 4286550369
-0.31283927 0.02699101 -0.025769377 4285368405
-0.31249249 0.028539717 -0.025252428 4284184397
-0.31183076 0.029987654 -0.024254102 4283395145
-0.31148705 0.031525411 -0.023741692 4283066952
-0.31114432 0.033058792 -0.023230821 4282935622
-0.31111562 0.034690663 -0.023199886 4282870342
-0.31077397 0.036217541 -0.022690544 4283001933
-0.31012225 0.037633095 -0.021707257 4284449631
-0.31009367 0.039258372 -0.021676436 4286881140
-0.31068799 0.041107919 -0.022597823 4288192381
-0.31065932 0.042738542 -0.022566903 4288455812
-0.31063062 0.044369385 -0.022536 4287868553
-0.31029019 0.045881025 -0.022028416 4286752642
-0.31026158 0.047509938 -0.021997517 4284646249
-0.31023291 0.049139105 -0.021966632 4284053079
-0.31020427 0.050768483 -0.021935746 4285042277
-0.31017563 0.052398112 -0.021904854 4286417508
-0.31045851 0.054159548 -0.022350375 4284711024
-0.31074229 0.055926509 -0.022797268 4286349437
-0.31134117 0.057836674 -0.023726091 4285894780
-0.31194365 0.059758577 -0.024660526 4286155113
-0.31254974 0.06169229 -0.025600547 4284510305
-0.31374136 -0.0022987705 -0.029901678 4284448105
-0.31306985 -0.00074897881 -0.028880415 4283592780
-0.3124024 0.00079170393 -0.027865335 4283329866
-0.31173897 0.0023233837 -0.026856354 4283199053
-0.31107944 0.0038461371 -0.025853392 4283067468
-0.31042391 0.0053600254 -0.024856411 4283002446
-0.30946216 0.0068040192 -0.023387367 4283133262
-0.30912447 0.0083615817 -0.022880197 4283395661
-0.30817413 0.0097842114 -0.021428585 4283461455
-0.30662769 0.011061192 -0.019057777 4283592785
-0.30659947 0.012661422 -0.019027522 4284051793
-0.30627039 0.014190807 -0.018533371 4284445776
-0.30745077 0.016084086 -0.020366641 4284707409
-0.30895311 0.01807758 -0.022696469 4284838995
-0.31016538 0.020019965 -0.024579197 4284970325
-0.31076252 0.021817483 -0.025513539 4284970065
-0.311048 0.023539245 -0.025967339 4285100367
-0.31133434 0.0252664 -0.026422506 4284708429
-0.31099021 0.026815267 -0.025905395 4283855691
-0.31064713 0.028359741 -0.025389835 4283264329
-0.30999282 0.029804051 -0.024394177 4283066696
-0.30965275 0.031337637 -0.023883158 4283001159
-0.30931368 0.032866891 -0.023373695 4283066694
-0.30928501 0.03449405 -0.023342919 4283066949
-0.308947 0.036016826 -0.022834955 4283066953
-0.30860996 0.037535302 -0.022328518 4283329612
-0.30858132 0.039158352 -0.022297841 4283920725
-0.30855271 0.04078161 -0.022267146 4284381793
-0.30883229 0.042519063 -0.022712009 4284712558
-0.30911273 0.044261906 -0.023158217 4284779632
-0.30846682 0.045652837 -0.02217502 4284384619
-0.30874625 0.047398236 -0.022619737 4283396444
-0.30871755 0.049025122 -0.022588979 4283264848
-0.30868888 0.050652232 -0.022558205 4284318805
-0.30866018 0.052279584 -0.02252744 4285823833
-0.30863148 0.053907163 -0.022496657 4284577377
-0.30891159 0.055668656 -0.022942506 4285100128
-0.30950311 0.057572499 -0.023869079 4286352984
-0.31041154 0.059628565 -0.025284892 4284510300
-0.31069684 0.061415218 -0.025738932 4283788639
-0.31219593 -0.0023418339 -0.030520985 4284122243
-0.31153002 -0.00079412229 -0.029499527 4283463002
-0.31118402 0.00079729187 -0.02897558 4283331414
-0.31052417 0.002329102 -0.027963344 4283200600
-0.30986822 0.0038519858 -0.026957128 4283200600
-0.30890602 0.0053069266 -0.025474392 4287004001
-0.30825973 0.0068101184 -0.024483072 4288583540
-0.30761731 0.0083046509 -0.02349763 4288451173
-0.30667499 0.0097255735 -0.022045493 4287794018
-0.30544087 0.011067642 -0.02013926 4286677850
-0.30541256 0.012668021 -0.020109074 4285757784
-0.30508512 0.014197542 -0.019613419 4284511327
-0.30625844 0.016091008 -0.021453114 4283920729
-0.30714041 0.017929815 -0.022839569 4283593050
-0.30864704 0.019946368 -0.02519829 4283461720
-0.30923867 0.021741133 -0.026133193 4283461715
-0.30952135 0.023460347 -0.026587307 4283461202
-0.30980486 0.025184941 -0.027042797 4283394895
-0.30977589 0.026823224 -0.027011888 4283132747
-0.3091231 0.028274179 -0.026009984 4283001418
-0.30847421 0.029716756 -0.025014015 4283001418
-0.30813682 0.031248346 -0.024502954 4283066697
-0.30780041 0.032775622 -0.023993352 4283197767
-0.30777165 0.034400482 -0.023962706 4283198023
-0.30743632 0.035921287 -0.023454677 4283066697
-0.30710194 0.037437841 -0.022948163 4283066184
-0.30707327 0.039058603 -0.022917593 4283066184
-0.30735019 0.040790807 -0.02336284 4283132233
-0.30732146 0.042414464 -0.023332223 4283263305
-0.3075991 0.044154733 -0.02377875 4283263048
-0.307264 0.0456625 -0.023270959 4283197769
-0.30723524 0.047286864 -0.023240333 4283066699
-0.30720651 0.048911486 -0.023209685 4283066699
-0.30717778 0.05053632 -0.023179034 4283198283
-0.30714902 0.05216141 -0.023148395 4283789396
-0.30712026 0.053786743 -0.023117738 4283727977
-0.3073976 0.055545565 -0.02356391 4283528808
-0.30798367 0.057446375 -0.024491038 4284116819
-0.30857322 0.059358783 -0.025423719 4283722315
-0.30916628 0.061282869 -0.02636198 4283592028
-0.31097201 -0.0023365484 -0.031636309 4284184423
-0.31030971 -0.00078867807 -0.030611562 4283462487
-0.30996546 0.00080287526 -0.030086022 4283199572
-0.30930915 0.0023348178 -0.029070523 4283134293
-0.30865675 0.0038578317 -0.028061071 4283134811
-0.30769986 0.0053128931 -0.026573481 4289502847
-0.30705708 0.0068162144 -0.025578976 4291479466
-0.30641815 0.0083108721 -0.024590351 4292130699
-0.30578291 0.0097969193 -0.023607548 4291801475
-0.30455217 0.011140686 -0.021689435 4291212403
-0.30452374 0.01274356 -0.021659283 4290488952
-0.30419701 0.01427536 -0.021160709 4289505161
-0.30506587 0.016097924 -0.022539798 4289043575
-0.30563986 0.017859785 -0.023455881 4288779381
-0.30682686 0.019792534 -0.025334869 4288450671
-0.30741119 0.021581637 -0.026267458 4288250980
-0.30799901 0.02338166 -0.02720564 4288253542
-0.30827975 0.025103724 -0.02766142 4287728228
-0.30825073 0.026739703 -0.027630655 4287135580
-0.30760339 0.028188914 -0.026628474 4286414424
-0.30726668 0.029724956 -0.026114279 4286085975
-0.30693102 0.031256683 -0.025601638 4285297747
-0.3062914 0.032684598 -0.024611413 4284313423
-0.30626261 0.034307197 -0.024580872 4283788880
-0.3059299 0.035826065 -0.02407277 4283394897
-0.30559817 0.037340626 -0.023566153 4283132241
-0.30587238 0.039067656 -0.024011804 4282935634
-0.30584362 0.040688809 -0.02398131 4283001426
-0.30611858 0.042423829 -0.024428202 4283066959
-0.30608976 0.044047881 -0.024397662 4283132236
-0.30606094 0.045672152 -0.024367098 4283066955
-0.30603212 0.047296673 -0.024336537 4283001417
-0.30600327 0.048921432 -0.024305986 4283001417
-0.30597445 0.050546423 -0.024275415 4283001673
-0.30594561 0.052171674 -0.024244843 4283132747
-0.30591679 0.05379713 -0.024214266 4283328843
-0.30619222 0.055556133 -0.024662146 4283328843
-0.30646855 0.057320606 -0.025111359 4283329612
-0.30736044 0.059369691 -0.026528671 4283394636
-0.30764011 0.06115092 -0.026983354 4283592028
-0.31104782 -0.0037958852 -0.034795601 4286808680
-0.31038114 -0.0022342941 -0.033755116 4284051286
-0.30940336 -0.00073264871 -0.032221567 4283395923
-0.30905992 0.0008613742 -0.031692937 4283330386
-0.30809394 0.0023405305 -0.030177915 4283264594
-0.30744508 0.0038636767 -0.029165216 4283265114
-0.3068001 0.0053779548 -0.028158598 4289110401
-0.30615896 0.0068834671 -0.027157975 4291678385
-0.30582538 0.0084436666 -0.026644655 4292987551
-0.30518997 0.0099338954 -0.025652956 4293310606
-0.3042582 0.011348149 -0.024191434 4293248903
-0.30422953 0.012958261 -0.024161227 4293117074
-0.30390173 0.014496657 -0.023656849 4293248140
-0.30417222 0.016179167 -0.024100794 4293376383
-0.3047443 0.017944021 -0.02502293 4293570164
-0.30592763 0.019880272 -0.026914144 4293438324
-0.30620393 0.021589071 -0.02736753 4293436783
-0.30648106 0.023303226 -0.027822299 4293309820
-0.30706689 0.025111515 -0.028766593 4292588160
-0.30672991 0.026656432 -0.028247774 4291666811
-0.30639395 0.028196977 -0.027730495 4291009393
-0.30605897 0.029733155 -0.027214734 4290745967
-0.30572501 0.031265017 -0.026700547 4289828207
-0.30508888 0.032693055 -0.025707116 4288516713
-0.30506 0.034315825 -0.025676679 4287728486
-0.30472896 0.0358348 -0.025167035 4286874469
-0.30439892 0.037349518 -0.024658859 4286152038
-0.30467126 0.039076705 -0.02510621 4285824620
-0.30464241 0.04069801 -0.025075786 4285497195
-0.30491552 0.042433191 -0.025524395 4285560672
-0.30488661 0.044057384 -0.025493918 4285297497
-0.3048577 0.045681808 -0.025463438 4285166164
-0.30482876 0.047306493 -0.025432955 4284904530
-0.30479985 0.048931379 -0.02540247 4284378701
-0.30477092 0.05055654 -0.02537198 4283984716
-0.30474201 0.052181918 -0.025341488 4283592270
-0.30471307 0.053807538 -0.025310993 4283460686
-0.3046841 0.055433415 -0.025280498 4283329101
-0.30526105 0.057331342 -0.026211515 4283329870
-0.30584139 0.059240863 -0.02714809 4283330128
-0.30611828 0.061019391 -0.02760309 4283658334
-0.31109467 -0.0036039685 -0.037962414 4286480743
-0.30946928 -0.0021802741 -0.035379816 4283985494
-0.3088083 -0.00062554301 -0.034339219 4283395667
-0.30783904 0.00086696056 -0.032805461 4283526994
-0.30687848 0.0023462409 -0.031285495 4283461203
-0.30654076 0.003926706 -0.030761458 4283527000
-0.30589738 0.0054432317 -0.029748654 4286876278
-0.30556265 0.0070124664 -0.02922927 4291285163
-0.30522886 0.0085772723 -0.028711414 4293512347
-0.30489612 0.010137647 -0.028195119 4293900163
-0.3042624 0.011625425 -0.027197398 4293772940
-0.30423349 0.013245241 -0.027167093 4293705350
-0.30390364 0.014792501 -0.026655378 4293831279
-0.30387476 0.016410384 -0.026625093 4294225517
-0.30414671 0.018106107 -0.027076129 4294487143
-0.30502549 0.01996829 -0.028498268 4294287975
-0.3053008 0.021679947 -0.028954815 4294092658
-0.30557689 0.023396924 -0.029412702 4293968011
-0.30554771 0.025030529 -0.029382134 4293444240
-0.30521342 0.026573405 -0.028863246 4292785297
-0.3051843 0.028205037 -0.028832713 4292126601
-0.30454782 0.029646119 -0.02783009 4291797380
-0.30451876 0.031273372 -0.027799649 4291734152
-0.30388612 0.032701533 -0.026803041 4291735426
-0.30385715 0.034324449 -0.026772667 4291668344
-0.30352783 0.035843555 -0.026261475 4291339123
-0.30349889 0.037464533 -0.02623114 4291009650
-0.30346993 0.039085761 -0.026200816 4290944379
-0.30344099 0.040707204 -0.02617047 4290945920
-0.30371222 0.042442549 -0.02662077 4290743405
-0.30368322 0.044066891 -0.026590372 4290282084
-0.30365422 0.045691479 -0.026559975 4290020453
-0.3036252 0.047316294 -0.026529575 4290154347
-0.3035962 0.048941351 -0.026499167 4288708187
-0.30356717 0.050566651 -0.026468761 4287460697
-0.30353817 0.052192178 -0.026438333 4286544733
-0.30350912 0.053817946 -0.02640792 4285691994
-0.30348009 0.055443972 -0.026377505 4284905306
-0.30405334 0.057342097 -0.027311867 4284708185
-0.30432665 0.059112385 -0.027765824 4284184159
-0.30460078 0.060888216 -0.028221184 4284317554
-0.31017539 -0.0035517057 -0.039608654 4286087014
-0.30855441 -0.0021260639 -0.03700972 4283985494
-0.30789512 -0.00056898803 -0.035962675 4283461460
-0.3069284 0.00092563313 -0.034419272 4283592018
-0.30627897 0.0024622919 -0.033387896 4283526483
-0.30563346 0.0039899461 -0.032362726 4283658070
-0.30529749 0.0055683176 -0.031837154 4284775287
-0.30496255 0.0071422136 -0.031313159 4290498232
-0.30493328 0.0087760016 -0.03128266 4293054895
-0.30490401 0.010410042 -0.031252172 4293769348
-0.30487478 0.012044304 -0.031221662 4293967498
-0.30484548 0.013678814 -0.031191166 4294033532
-0.30420807 0.015165551 -0.030178629 4294026601
-0.30417886 0.016795652 -0.030148221 4294221413
-0.30384704 0.018347459 -0.029629042 4294356588
-0.30472836 0.020219238 -0.031069109 4294224239
-0.30439472 0.02177107 -0.030547023 4293502079
-0.30436546 0.023404574 -0.030516542 4293507726
-0.30433622 0.025038302 -0.030486053 4293706893
-0.30430695 0.026672307 -0.030455565 4293573257
-0.30397442 0.028213121 -0.029935153 4292716417
-0.30334145 0.0296543 -0.02892931 4292059262
-0.3033123 0.031281721 -0.028898947 4291471238
-0.30268317 0.032710008 -0.027899146 4291470461
-0.30265409 0.034333069 -0.027868869 4291599473
-0.30262503 0.035956353 -0.027838569 4291599214
-0.30259594 0.037579887 -0.027808266 4291599212
-0.30256686 0.039203659 -0.027777975 4291600500
-0.30253777 0.040827684 -0.027747672 4291469436
-0.30250868 0.042451929 -0.027717359 4291202162
-0.30247959 0.044076417 -0.027687045 4290608494
-0.30245051 0.045701127 -0.027656712 4290547581
-0.30242142 0.04732611 -0.02762639 4291600260
-0.3023923 0.048951313 -0.027596066 4291335286
-0.30236322 0.050576769 -0.027565723 4290614393
-0.3023341 0.052202433 -0.027535394 4290945662
-0.30230498 0.053828355 -0.027505044 4290879605
-0.30257478 0.055587847 -0.02795806 4290683256
-0.30284542 0.05735283 -0.028412418 4290353266
-0.30311683 0.059123307 -0.028868102 4290355328
-0.31021675 -0.0033567795 -0.042829994 4286217831
-0.30858546 -0.001923772 -0.040190566 4284051557
-0.30760667 -0.00040935728 -0.038613845 4283395683
-0.30663678 0.0010915213 -0.037051458 4283460956
-0.30598518 0.0026347719 -0.036007486 4283526743
-0.30502993 0.0041110702 -0.03446864 4283723606
-0.30500039 0.0057543758 -0.034438059 4283921517
-0.30466428 0.0073352391 -0.033907853 4289640360
-0.30463481 0.0089765489 -0.033877309 4292071355
-0.30460531 0.010618107 -0.033846751 4293246351
-0.30488229 0.012329973 -0.034315672 4293639819
-0.30485275 0.013974478 -0.034285061 4293837186
-0.30482322 0.015619233 -0.034254443 4293899898
-0.30448732 0.017186709 -0.033724498 4294025320
-0.30415246 0.018749733 -0.033196196 4294292595
-0.30381861 0.020308314 -0.032669399 4294163326
-0.30348572 0.021862453 -0.032144196 4293702016
-0.30315384 0.023412198 -0.031620584 4293636220
-0.30312449 0.025046099 -0.031590175 4293834619
-0.30279362 0.026589248 -0.031068157 4294098814
-0.30276433 0.028221177 -0.031037772 4294096754
-0.30243444 0.029757785 -0.030517332 4293765231
-0.30270568 0.031485785 -0.030977016 4293241982
-0.30237591 0.033018 -0.030456638 4292913531
-0.30264702 0.034751337 -0.030916229 4292778865
-0.30261767 0.03638446 -0.030885847 4292581493
-0.30258834 0.038017835 -0.030855449 4292646770
-0.30255899 0.039651446 -0.030825041 4292649341
-0.30252966 0.041285317 -0.030794621 4292192653
-0.30250031 0.042919409 -0.030764207 4291664262
-0.30217081 0.044436257 -0.030244127 4290942079
-0.3018423 0.045948856 -0.029725624 4290221708
-0.30181304 0.047578823 -0.029695278 4291336329
-0.30178374 0.04920901 -0.02966495 4291469706
-0.30115902 0.050586876 -0.028662901 4290225032
-0.30142704 0.052341208 -0.029117709 4290290572
-0.30139777 0.053969711 -0.029087411 4290684033
-0.30166659 0.055732187 -0.029543536 4290879615
-0.30163726 0.057363577 -0.029513173 4290681723
-0.30220655 0.059273615 -0.030459831 4291148197
-0.30247772 0.061052639 -0.030920027 4291417798
-0.3082974 -0.001769074 -0.042885881 4287537807
-0.30731532 -0.00024823708 -0.041289598 4287011466
-0.30634224 0.0012588928 -0.039707895 4287271290
-0.30568847 0.0028088475 -0.03865118 4287204205
-0.30473012 0.0042912043 -0.037093431 4286941031
-0.30470037 0.0059421174 -0.037062783 4286021737
-0.3043631 0.0075300117 -0.036526293 4288323467
-0.30433339 0.0091789067 -0.036495693 4290824889
-0.30430368 0.010828055 -0.036465075 4292527522
-0.30458137 0.012548155 -0.036940154 4293248142
-0.30485988 0.014273725 -0.037416663 4293574273
-0.30483007 0.015928596 -0.037385944 4293638019
-0.30449206 0.017505242 -0.036848135 4293896557
-0.30415505 0.019077396 -0.036311947 4293898612
-0.30351377 0.020562304 -0.03527499 4293768574
-0.30317971 0.022123244 -0.034743581 4293965176
-0.30284676 0.023679728 -0.034213785 4293896301
-0.30281717 0.025321141 -0.034183327 4293632106
-0.3024852 0.02687096 -0.033655118 4293702013
-0.30215418 0.028416388 -0.033128511 4294165122
-0.30212468 0.030053604 -0.033098117 4294293879
-0.30239657 0.03178997 -0.033563815 4294094202
-0.302367 0.033430114 -0.033533368 4293898879
-0.30233744 0.035070505 -0.033502918 4293834620
-0.3023079 0.036711149 -0.03347246 4293635959
-0.30227834 0.038352013 -0.033442006 4293239663
-0.30224875 0.039993126 -0.033411548 4293176961
-0.30221918 0.041634489 -0.033381071 4293510802
-0.30188856 0.043159977 -0.032854829 4293239399
-0.30155891 0.044681162 -0.032330174 4292117333
-0.30152941 0.046318341 -0.032299776 4291129941
-0.30120081 0.047833029 -0.031776708 4291856734
-0.30117133 0.049468234 -0.031746365 4292849006
-0.30114186 0.051103678 -0.031716004 4292193147
-0.3008143 0.052609697 -0.031194553 4291925350
-0.30078486 0.054243181 -0.031164233 4291461977
-0.30105343 0.056011494 -0.031624902 4290740835
-0.30132282 0.057785317 -0.032086927 4290681233
-0.30189359 0.059705354 -0.033045646 4291283904
-0.301864 0.061349623 -0.03301511 4291151291
-0.30964863 -0.0030572098 -0.048312467 4291013510
-0.30800641 -0.0016129207 -0.045606371 4291614126
-0.30702108 -8.5657928e-05 -0.043990254 4291613356
-0.30604479 0.0014278257 -0.042388961 4291871903
-0.30538881 0.0029845145 -0.041319288 4292001686
-0.30473691 0.0045319572 -0.040256172 4291541392
-0.3047069 0.0061930716 -0.040225416 4290228361
-0.30436742 0.0077903862 -0.039680943 4289705619
-0.30433744 0.0094494577 -0.039650228 4290826164
-0.30430746 0.011108779 -0.039619509 4292005299
-0.30458677 0.012839931 -0.040102374 4292723612
-0.30486688 0.014576641 -0.04058668 4293247371
-0.30483681 0.016241731 -0.040555838 4293572739
-0.30449665 0.017827675 -0.040010031 4293898868
-0.30415747 0.01940902 -0.039465848 4293505657
-0.30351219 0.020902099 -0.038413107 4293504631
-0.30287078 0.022386374 -0.037366714 4293832822
-0.30284095 0.024037624 -0.037336141 4293699185
-0.30250683 0.025598664 -0.036800146 4293367656
-0.30217373 0.027155219 -0.036265675 4293369201
-0.30184162 0.02870734 -0.035732828 4293833851
-0.3018119 0.030352088 -0.035702378 4294360948
-0.30178216 0.031997088 -0.035671923 4294357096
-0.30175245 0.033642314 -0.035641469 4294159983
-0.30202487 0.035392556 -0.036113184 4293898357
-0.30199507 0.037040755 -0.036082674 4293698925
-0.3019653 0.038689211 -0.036052149 4293633905
-0.30163345 0.040225685 -0.035519596 4293567342
-0.3016037 0.041872129 -0.035489108 4293304944
-0.30127293 0.043402001 -0.034958243 4292839771
-0.30094314 0.04492753 -0.034428906 4291985234
-0.30091345 0.046569757 -0.034398496 4291461722
-0.30088377 0.048212238 -0.034368102 4291788891
-0.30115405 0.049981296 -0.034836441 4292319840
-0.3011243 0.051626716 -0.034805983 4292651641
-0.3013953 0.053404029 -0.035275634 4292515172
-0.30136552 0.055052396 -0.035245121 4291591774
-0.30043641 0.056292444 -0.033718921 4290873728
-0.30100533 0.058210842 -0.034684088 4291479996
-0.30157763 0.060140982 -0.035655029 4291350982
-0.30936024 -0.0029053304 -0.051092647 4291934865
-0.3077125 -0.0014553159 -0.048352405 4292860594
-0.30672386 7.8451936e-05 -0.046716161 4292860343
-0.30574435 0.0015983154 -0.045094986 4292462507
-0.3050862 0.0031617961 -0.044012167 4293056173
-0.30443209 0.0047159456 -0.042936016 4293253295
-0.30471322 0.0064470991 -0.043426991 4293056683
-0.3043716 0.0080539463 -0.042874385 4292135068
-0.30434135 0.0097233141 -0.042843565 4292202150
-0.3043111 0.011392935 -0.042812724 4292466098
-0.30459198 0.013135304 -0.043303501 4292725932
-0.30456167 0.014807967 -0.043272622 4292988326
-0.30484337 0.016558725 -0.043764833 4293050513
-0.30418998 0.018073885 -0.042689379 4293508483
-0.3041597 0.019744724 -0.042658541 4293573761
-0.30351037 0.021246033 -0.041589718 4293702004
-0.30286497 0.022738434 -0.040527381 4293897066
-0.30252874 0.024310846 -0.039983343 4293895530
-0.30219346 0.025878709 -0.039440926 4293698410
-0.30155593 0.027348824 -0.038391482 4293501034
-0.3012237 0.028905515 -0.037853956 4293437297
-0.30119377 0.030555379 -0.037823495 4293835895
-0.30116388 0.032205462 -0.037793018 4293966452
-0.30113396 0.033855826 -0.037762549 4293634673
-0.30110404 0.035506412 -0.037732083 4293370994
-0.30137619 0.037265144 -0.038208388 4293435502
-0.30134621 0.0389187 -0.03817787 4293633646
-0.30101427 0.040459651 -0.037640624 4293634921
-0.30098432 0.042111211 -0.037610143 4293038173
-0.30065337 0.043645475 -0.037074488 4292248410
-0.30062348 0.045295049 -0.037044033 4291853399
-0.30059355 0.046944849 -0.037013572 4291002202
-0.30056366 0.048594903 -0.036983106 4290543713
-0.3008346 0.050372664 -0.037457604 4291003484
-0.30080462 0.052025676 -0.037427086 4291335279
-0.30107626 0.053811796 -0.037902903 4291797627
-0.30134878 0.055603582 -0.038380191 4291601029
-0.30162209 0.057401042 -0.038858928 4291675055
-0.30098623 0.058780562 -0.037811153 4291546566
-0.30156186 0.060724314 -0.038797569 4290758076
-0.30906886 -0.0027519979 -0.053899225 4292002199
-0.30709419 -0.0013476058 -0.050580837 4293187761
-0.30642363 0.000244087 -0.049467657 4292332468
-0.30544087 0.0017703837 -0.047826301 4291473823
-0.30478054 0.0033407123 -0.046730138 4292400045
-0.30412427 0.0049016252 -0.045640741 4292596914
-0.30440611 0.0066412077 -0.046138253 4292859311
-0.30437559 0.0083207712 -0.046107329 4291801489
-0.30434504 0.010000561 -0.046076402 4292526750
-0.30431449 0.011680613 -0.046045452 4292991152
-0.30459702 0.013434286 -0.046544284 4293514668
-0.30456641 0.015117432 -0.046513285 4293450160
-0.30484977 0.016879635 -0.04701364 4292133539
-0.30450523 0.018484421 -0.046451289 4292130192
-0.30416173 0.020084558 -0.045890711 4292982145
-0.30350828 0.02159418 -0.044805497 4293506937
-0.30285886 0.023094801 -0.04372694 4293636724
-0.30252045 0.024676416 -0.043174725 4293633642
-0.30218309 0.026253438 -0.042624243 4293504108
-0.30154163 0.027731527 -0.041558832 4293439082
-0.3012073 0.02929721 -0.041013286 4293370985
-0.30087394 0.030858397 -0.040469367 4293439867
-0.30084378 0.032516159 -0.040438849 4293443462
-0.30081365 0.034174174 -0.04040831 4293373558
-0.30078349 0.035832413 -0.040377785 4293303912
-0.30075336 0.037490904 -0.040347241 4293173103
-0.3007232 0.039149623 -0.04031669 4293241196
-0.30069304 0.040808614 -0.040286157 4293108836
-0.30066288 0.042467836 -0.040255606 4292449630
-0.30063269 0.044127312 -0.040225048 4292316258
-0.30060253 0.045787003 -0.040194485 4292645227
-0.30057234 0.047446955 -0.040163923 4292118878
-0.30054215 0.04910716 -0.040133357 4291064916
-0.3008146 0.050896659 -0.040615574 4291397206
-0.30108786 0.052691821 -0.041099224 4292252002
-0.30136195 0.054492705 -0.041584395 4291924345
-0.30133161 0.056161471 -0.041553661 4291803299
-0.30160648 0.057970896 -0.042040214 4291742403
-0.3021892 0.059929892 -0.043048684 4291217855
-0.30844694 -0.0026471745 -0.056173444 4291873442
-0.30679324 -0.0011875265 -0.053372148 4293187505
-0.3061204 0.00041127027 -0.052245133 4291675306
-0.30513436 0.0019440509 -0.050583262 4291146391
-0.30478713 0.0035798864 -0.050012011 4291941296
-0.30412671 0.0051498646 -0.048905842 4291807148
-0.30441019 0.0069007496 -0.049411505 4291677610
-0.30406517 0.0085246162 -0.048843864 4291274634
-0.30434853 0.01028124 -0.049349442 4292723869
-0.30431771 0.011971844 -0.049318388 4292991409
-0.30460191 0.013737001 -0.049825501 4293383853
-0.30457103 0.015430741 -0.049794391 4293188018
-0.30485606 0.017204525 -0.050303031 4291477422
-0.30450925 0.018818915 -0.049732164 4291145369
-0.30416352 0.02042859 -0.049163088 4292455036
-0.30350596 0.021946626 -0.04806117 4292978289
-0.30285248 0.023455579 -0.046966057 4293111163
-0.3025119 0.025046477 -0.046405561 4293373044
-0.30217236 0.026632754 -0.045846809 4293175661
-0.30152696 0.028118884 -0.044765119 4293110640
-0.30119044 0.029693706 -0.044211395 4293307250
-0.30085501 0.031263966 -0.043659408 4293110395
-0.30082461 0.032931987 -0.043628767 4292982154
-0.30079418 0.034600236 -0.043598127 4293179781
-0.30076376 0.036268763 -0.043567501 4293173868
-0.30103812 0.038047761 -0.044057988 4293039977
-0.30100763 0.039719313 -0.044027291 4293172320
-0.30128282 0.041506793 -0.044519275 4293109609
-0.30094665 0.043063134 -0.043965887 4292779361
-0.30091617 0.044735428 -0.043935176 4292448863
-0.30027747 0.046162363 -0.042864233 4292515947
-0.30116066 0.048206668 -0.044396237 4292650615
-0.30113009 0.049882255 -0.044365477 4292249436
-0.30109951 0.051558092 -0.044334706 4291263581
-0.30137521 0.05336817 -0.044827856 4291134589
-0.3013446 0.055047076 -0.044797037 4291475109
-0.30162108 0.056865782 -0.045291625 4291610047
-0.30189839 0.058690313 -0.045787744 4291348414
-0.30217659 0.060520746 -0.046285409 4289438884
-0.3078208 -0.0025416701 -0.058462214 4291809451
-0.30681267 -0.00097357942 -0.056747518 4293253808
-0.30613545 0.00063476613 -0.055602897 4291805860
-0.30514306 0.0021762289 -0.05391496 4291605649
-0.3047936 0.0038220691 -0.053335078 4292662448
-0.30412892 0.0054012109 -0.052211698 4292659625
-0.30441406 0.0071635535 -0.052725799 4291677354
-0.30438298 0.0088643534 -0.052694641 4291144336
-0.30435187 0.010565388 -0.052663501 4292660904
-0.30432075 0.012266681 -0.052632339 4292664501
-0.30460665 0.014043491 -0.053147878 4292991924
-0.30457547 0.015747955 -0.053116664 4292336311
-0.3045443 0.017452652 -0.053085443 4291153343
-0.30419624 0.019074354 -0.052507661 4290427058
-0.30384925 0.020691294 -0.051931679 4291209879
-0.30350336 0.022303447 -0.05135753 4292257147
-0.30284572 0.023820788 -0.050245471 4292783223
-0.30219215 0.025329018 -0.049140267 4292980088
-0.30185145 0.026922343 -0.048574798 4292847737
-0.30151182 0.028511029 -0.048011098 4293044342
-0.30086634 0.029996326 -0.046919502 4293436013
-0.30052975 0.031573512 -0.046360888 4293369195
-0.30080491 0.033352908 -0.046858039 4293239155
-0.30077422 0.035031568 -0.04682729 4293109623
-0.30105022 0.036819495 -0.047325913 4293305966
-0.30132705 0.038613189 -0.047826085 4293568108
-0.30129623 0.040297754 -0.04779524 4293237856
-0.30126542 0.041982576 -0.047764383 4292449128
-0.30123463 0.043667626 -0.047733512 4292254833
-0.30120379 0.045352928 -0.047702655 4292123499
-0.30117297 0.047038496 -0.047671791 4292320623
-0.30145037 0.048852161 -0.048173174 4291865221
-0.30172864 0.050671697 -0.048676159 4291269493
-0.3016977 0.052363206 -0.048645176 4291073671
-0.30166674 0.054054968 -0.048614204 4291082930
-0.30194581 0.055886105 -0.049118645 4291348929
-0.30191481 0.057580963 -0.049087599 4290954940
-0.30219463 0.059420895 -0.049593497 4288913564
-0.3024753 0.061266769 -0.050100978 4288253313
-0.30817664 -0.0022831839 -0.062481452 4290495140
-0.30715871 -0.00070369686 -0.060734104 4292267686
-0.30615044 0.000861054 -0.059003301 4292660383
-0.30547303 0.0024690786 -0.057848051 4292922525
-0.3054415 0.0041880254 -0.057816669 4292991406
-0.3044492 0.0057182917 -0.056113124 4292991409
-0.304737 0.0074951202 -0.05663747 4292396972
-0.30470556 0.0092094271 -0.056606155 4291473306
-0.304355 0.010853123 -0.056019343 4292662957
-0.30432358 0.012565236 -0.055988073 4292532659
-0.30429217 0.014277609 -0.0559568 4292991923
-0.30426076 0.01599024 -0.055925522 4290891696
-0.30422935 0.017703108 -0.055894241 4289907639
-0.30388007 0.019332211 -0.055309452 4290234305
-0.30353186 0.020956455 -0.054726459 4290558647
-0.30286995 0.02248737 -0.053597085 4290884255
-0.30221212 0.024009008 -0.05247473 4291537543
-0.30155841 0.02552145 -0.051359281 4292390268
-0.30121756 0.027119588 -0.050788727 4292849785
-0.30056986 0.028615961 -0.049683619 4292912240
-0.29992619 0.030103376 -0.048585322 4293106278
-0.29989535 0.031784281 -0.048554622 4293239151
-0.30017036 0.03356963 -0.04905678 4293307762
-0.30013946 0.035253614 -0.04902602 4293240683
-0.30165136 0.037489846 -0.051683739 4292977518
-0.30130979 0.039073676 -0.051111765 4292449377
-0.30158907 0.040885173 -0.051621735 4292121184
-0.30155793 0.042583175 -0.051590711 4292781423
-0.30183801 0.044403456 -0.052102238 4292320372
-0.30274624 0.046480801 -0.053708751 4292055912
-0.30271488 0.048190188 -0.053677525 4291331701
-0.30236948 0.049768686 -0.053098816 4290878858
-0.30233815 0.051475901 -0.053067647 4291279265
-0.30230683 0.053183369 -0.053036455 4291216059
-0.30227551 0.054891091 -0.053005267 4291480773
-0.30224419 0.056599084 -0.052974068 4290429111
-0.30221286 0.058307298 -0.052942868 4288453266
-0.30249524 0.060162876 -0.053458858 4286414967
-0.30277848 0.062024478 -0.053976405 4288058488
-0.3095758 -0.0036267147 -0.068363726 4286482802
-0.30887198 -0.0019686043 -0.067152344 4287077255
-0.30784082 -0.00037528589 -0.065365806 4288717703
-0.30714822 0.0012597262 -0.064173721 4290227850
-0.30645996 0.0028845614 -0.06298922 4291083157
-0.30545172 0.004437896 -0.061242282 4291281822
-0.30477428 0.0060403761 -0.060076352 4291544740
-0.30474254 0.0077654091 -0.060044929 4291739557
-0.30471081 0.0094907042 -0.060013503 4292001443
-0.30435795 0.011144485 -0.059417747 4292662184
-0.30432627 0.012867557 -0.059386365 4292595367
-0.30429456 0.014590889 -0.05935498 4293121449
-0.30394286 0.016234813 -0.058761135 4289506711
-0.30359226 0.017873803 -0.058169141 4287209358
-0.30356064 0.019592473 -0.058137845 4288919975
-0.30289441 0.021137156 -0.05699078 4290365119
-0.30223233 0.022672413 -0.05585086 4290561219
-0.30126256 0.024107428 -0.054169759 4290558646
-0.30061063 0.02562209 -0.053047441 4290753440
-0.30027065 0.027222672 -0.052473459 4291276431
-0.29993168 0.028818589 -0.05190127 4291864195
-0.29928786 0.030310107 -0.050792795 4292256120
-0.29925683 0.031996343 -0.050762083 4292124529
-0.2998383 0.033892889 -0.051808845 4292059762
-0.30042335 0.035801437 -0.052862033 4292584299
-0.30226356 0.038172808 -0.05612364 4292516458
-0.30254731 0.040002663 -0.056647163 4291987812
-0.30346736 0.042078249 -0.058290418 4291266410
-0.30343562 0.043803185 -0.058258992 4290875513
-0.30340388 0.045528371 -0.058227576 4291076230
-0.30305406 0.047125608 -0.057636354 4291603086
-0.30365944 0.049110811 -0.058726221 4291542442
-0.30299067 0.050571796 -0.057573572 4291151548
-0.30232611 0.052023917 -0.056428216 4291349953
-0.30229452 0.053742252 -0.056396917 4291415490
-0.3022629 0.05546084 -0.056365617 4289507245
-0.30223125 0.05717966 -0.056334309 4287730052
-0.30219966 0.058898769 -0.056302983 4285889130
-0.30248368 0.060767088 -0.056827556 4285692263
-0.30995303 -0.0033717335 -0.072549045 4286285160
-0.30924225 -0.0017008288 -0.071314387 4285761898
-0.3082009 -9.5775089e-05 -0.069493331 4286285672
-0.30716953 0.0014940603 -0.067689851 4287136617
-0.30680639 0.0031887521 -0.067071304 4287793262
-0.30578834 0.0047531929 -0.065290928 4287796341
-0.30510435 0.0063675893 -0.06410294 4287929730
-0.30474794 0.0080391346 -0.063495994 4288391055
-0.30439267 0.0097056357 -0.062890977 4288981906
-0.30436066 0.01143954 -0.062859491 4289900430
-0.30432868 0.013173736 -0.062827975 4290819470
-0.30397463 0.014830222 -0.062224992 4291737743
-0.30362168 0.016481703 -0.061623879 4288584575
-0.30326986 0.018128254 -0.061024651 4285495655
-0.303238 0.019855227 -0.060993273 4285498482
-0.30256951 0.021406537 -0.059831895 4287734945
-0.30159047 0.022858646 -0.058118995 4290168510
-0.30062062 0.02429742 -0.056422133 4291089607
-0.29965973 0.025723048 -0.05474107 4290890951
-0.2990137 0.027230769 -0.053618766 4290888896
-0.29867661 0.028826805 -0.053044885 4291083186
-0.29803655 0.030318476 -0.051932972 4291146659
-0.29830933 0.032107122 -0.052442044 4291079064
-0.29950294 0.034219176 -0.054586753 4291077522
-0.3000896 0.036137819 -0.055653598 4291339919
-0.30225155 0.03863832 -0.059518889 4291406226
-0.30253699 0.040480636 -0.060051151 4291472279
-0.30540553 0.043309536 -0.065172702 4291277728
-0.30537319 0.045062222 -0.065140858 4291018930
-0.30534083 0.046815176 -0.065109015 4291087040
-0.30433288 0.048172619 -0.063343577 4291283904
-0.30430067 0.049917705 -0.063311875 4291481539
-0.30394545 0.051526424 -0.062706076 4291349699
-0.3029505 0.052853677 -0.060963199 4290035640
-0.30259964 0.054448113 -0.060364928 4288584600
-0.30224991 0.056037765 -0.059768565 4286677367
-0.30253568 0.057912987 -0.060301982 4285297761
-0.30250371 0.059645832 -0.060270514 4284510558
-0.30247173 0.061378911 -0.060239024 4286678891
-0.31315523 -0.004513124 -0.081822962 4288582258
-0.31171975 -0.0029065367 -0.079280205 4286548326
-0.31064722 -0.001266607 -0.077386983 4285961839
-0.30958521 0.00035748896 -0.07551235 4286224239
-0.30853358 0.0019659859 -0.073656037 4287402091
-0.30782726 0.0036205028 -0.07241787 4289108333
