# .PCD v0.7 - Point Cloud Data file format
VERSION 0.7
FIELDS x y z rgba
SIZE 4 4 4 4
TYPE F F F U
COUNT 1 1 1 1
WIDTH 990
HEIGHT 1
VIEWPOINT 0 0 0 1 0 0 0
POINTS 990
DATA ascii
-0.32903242 -0.012516321 -0.029756978 4280430893
-0.32857963 -0.011594792 -0.029477892 4280365614
-0.32812822 -0.010676018 -0.029199701 4280496944
-0.32733715 -0.0096425125 -0.028437881 4280694065
-0.32672015 -0.0086729676 -0.027921449 4280891955
-0.32627463 -0.007764779 -0.027647533 4281223219
-0.32566237 -0.0068030786 -0.027134916 4282210101
-0.32538769 -0.0059564691 -0.027102318 4284303675
-0.32528079 -0.0051658871 -0.027308945 4283649863
-0.32517391 -0.0043752315 -0.02751559 4282084954
-0.32540229 -0.0036920251 -0.02820229 4282804102
-0.32529521 -0.0029000719 -0.028409274 4284709511
-0.32518813 -0.0021080442 -0.028616278 4284576908
-0.32491353 -0.0012639943 -0.028582608 4284184460
-0.32480651 -0.00047247286 -0.028789481 4283786381
-0.32436553 0.00042043859 -0.028515462 4282412422
-0.32392585 0.0013106904 -0.028242297 4282142594
-0.32348752 0.0021983022 -0.027969958 4280967292
-0.32305047 0.0030833094 -0.02769844 4280894047
-0.32245049 0.0040132622 -0.027190132 4280765531
-0.32185319 0.0049390681 -0.026684141 4280761925
-0.32125857 0.0058607841 -0.026180431 4280631106
-0.32099053 0.0066880076 -0.026149189 4280629815
-0.32072288 0.0075140228 -0.026117966 4280695094
-0.32045564 0.0083388761 -0.026086813 4280694831
-0.32051176 0.009075772 -0.02652614 4280563247
-0.32040617 0.009856727 -0.026730254 4280562991
-0.3206242 0.01055302 -0.027406808 4280299566
-0.32068053 0.011293388 -0.02784811 4280299819
-0.32073694 0.012034927 -0.028290149 4280167979
-0.32046884 0.012859218 -0.02825737 4280167722
-0.32036299 0.013642199 -0.028461998 4280167722
-0.31993383 0.014504233 -0.028192049 4280167722
-0.3195059 0.015363728 -0.027922839 4280168234
-0.31923971 0.016182659 -0.027890541 4280167212
-0.31913421 0.016962945 -0.028094485 4280103725
-0.31886843 0.017780202 -0.028062068 4280102459
-0.31860307 0.018596271 -0.028029772 4280235835
-0.31881768 0.019304173 -0.028706385 4280234309
-0.31855211 0.020119838 -0.028673571 4280239429
-0.31844667 0.020899834 -0.028877424 4280234570
-0.31834123 0.021679901 -0.029081294 4280896842
-0.31807622 0.022493346 -0.029048312 4280893752
-0.31765258 0.023338299 -0.028778987 4282665528
-0.31754732 0.024116779 -0.028982464 4282670916
-0.31744209 0.024895314 -0.029185938 4284761925
-0.31733683 0.02567392 -0.029389432 4284833855
-0.31739023 0.026422223 -0.029829944 4287652415
-0.3174437 0.027171705 -0.030271057 4287723115
-0.31733826 0.027951639 -0.030474899 4286805868
-0.31723282 0.02873162 -0.030678753 4286731609
-0.31728616 0.029483546 -0.031120887 4285287512
-0.31718063 0.030264227 -0.031324923 4285153083
-0.31707507 0.031044958 -0.031528976 4284304441
-0.31696951 0.031825759 -0.031733043 4284236642
-0.31718171 0.032554954 -0.032415971 4285227623
-0.317076 0.033337016 -0.03262037 4285292152
-0.31712931 0.034094438 -0.033065058 4285295482
-0.31702349 0.034877207 -0.033269644 4285296490
-0.31691766 0.035660047 -0.033474244 4285096808
-0.31697091 0.036419939 -0.033919968 4285035614
-0.31686497 0.037203465 -0.034124751 4285232477
-0.31675902 0.037987053 -0.034329552 4285292916
-0.3166531 0.038770698 -0.034534369 4285623161
-0.31654713 0.03955441 -0.0347392 4285688433
-0.31628248 0.040358204 -0.034702171 4285883503
-0.31617659 0.04114145 -0.034906883 4285944668
-0.3159124 0.041943599 -0.034869812 4285616472
-0.31596479 0.04270808 -0.035316348 4285484367
-0.31570074 0.043509163 -0.03527898 4284895308
-0.31559491 0.044292036 -0.035483595 4284697935
-0.31548905 0.045074951 -0.035688225 4286939473
-0.31569922 0.045826063 -0.03637838 4287670461
-0.31575149 0.046594895 -0.03682676 4287995617
-0.3161214 0.047335234 -0.037764873 4288124355
-0.31649294 0.048078943 -0.038707223 4285625783
-0.32892078 -0.015201696 -0.029906226 4281087837
-0.32898515 -0.014463481 -0.030360598 4280758318
-0.32870415 -0.013599683 -0.030324973 4280365100
-0.3284235 -0.012737134 -0.0302894 4280365097
-0.32797164 -0.011815249 -0.030009519 4280364843
-0.32735035 -0.010836347 -0.029487133 4280430638
-0.3265622 -0.0098031163 -0.028725008 4280562224
-0.32577884 -0.008776119 -0.027967596 4280693810
-0.32533541 -0.0078690909 -0.027694074 4280958002
-0.32472622 -0.0069086114 -0.027182128 4281552691
-0.32428604 -0.0060077594 -0.026910886 4282732341
-0.32401317 -0.0051641921 -0.026878567 4282466106
-0.32390657 -0.0043759109 -0.027084609 4281943866
-0.32429886 -0.0037484497 -0.028008172 4282273081
-0.32419202 -0.0029582563 -0.028214715 4282991673
-0.32391876 -0.0021155116 -0.028181439 4282863416
-0.3239783 -0.0013777227 -0.028627839 4282400567
-0.32337347 -0.00043367344 -0.028115064 4282205747
-0.32310143 0.00040541225 -0.028082008 4281547317
-0.32282978 0.0012432939 -0.028048955 4281351994
-0.32239407 0.002129036 -0.027777568 4280826425
-0.321796 0.0030604112 -0.027269475 4280760882
-0.32136345 0.0039402191 -0.027000301 4280629299
-0.32076994 0.0048641502 -0.026495891 4280629301
-0.32017905 0.0057840091 -0.025993744 4280497460
-0.31991237 0.0066094287 -0.025962725 4280497712
-0.31980696 0.00738909 -0.026166523 4280497712
-0.31954074 0.0082128197 -0.026135398 4280497196
-0.31959608 0.0089485329 -0.026574142 4280431148
-0.31981254 0.0096423971 -0.027249441 4280365100
-0.32002968 0.01033841 -0.027926799 4280233516
-0.32008553 0.011078651 -0.028368538 4280233770
-0.31997964 0.011861572 -0.028573185 4280233770
-0.31971228 0.012685361 -0.028540272 4280233769
-0.31960648 0.013467819 -0.028744785 4280364585
-0.31917873 0.014329471 -0.028474586 4280497706
-0.31859219 0.015227412 -0.027968936 4281676074
-0.31816757 0.01608336 -0.027700985 4281744944
-0.31838131 0.016786829 -0.028376559 4283316273
-0.31795698 0.017640576 -0.028108018 4283323974
-0.31801093 0.018382898 -0.028547719 4283973190
-0.31806496 0.019126398 -0.028988093 4284046675
-0.31795949 0.019906364 -0.029191956 4284503123
-0.31785399 0.020686392 -0.029395854 4284504673
-0.31774852 0.021466475 -0.029599749 4284637537
-0.31780237 0.022213068 -0.030041341 4284636225
-0.31753752 0.023026817 -0.030007618 4285094977
-0.31759122 0.023774678 -0.030449526 4285097044
-0.31716764 0.024619106 -0.030177798 4285879125
-0.31690365 0.025430014 -0.030144086 4285881663
-0.31727439 0.026117517 -0.031061927 4286278974
-0.31716877 0.026898587 -0.031266082 4286347112
-0.31722215 0.027650187 -0.031709325 4286283627
-0.31711644 0.028431935 -0.031913657 4286276951
-0.31701073 0.029213754 -0.032118011 4285420630
-0.31690499 0.029995641 -0.032322396 4285354304
-0.31679925 0.030777579 -0.03252678 4284963390
-0.31669351 0.031559568 -0.032731175 4284895869
-0.31674656 0.032315549 -0.033175949 4284968068
-0.31679967 0.033072736 -0.033621412 4285027723
-0.31685287 0.033831116 -0.034067519 4285163148
-0.31674683 0.034615099 -0.03427244 4285230473
-0.31664082 0.035399124 -0.03447739 4286083464
-0.31669387 0.036160007 -0.034924518 4286214000
-0.31674704 0.036922075 -0.035372365 4286544748
-0.31648165 0.037729528 -0.035334766 4286606196
-0.31637552 0.038514361 -0.03553991 4286608501
-0.31626937 0.039299291 -0.035745081 4286607189
-0.31600451 0.040104516 -0.035707328 4286405966
-0.31589845 0.04088895 -0.035912368 4286338367
-0.31579235 0.041673433 -0.036117423 4285418556
-0.31568629 0.04245799 -0.036322497 4285220414
-0.31542203 0.043260489 -0.03628438 4285023807
-0.31531599 0.044044551 -0.036489327 4284895306
-0.31520995 0.044828683 -0.036694288 4287137101
-0.31541997 0.045580573 -0.03738695 4287866551
-0.3154721 0.046350416 -0.03783682 4287930081
-0.31584191 0.047091331 -0.038778652 4287993291
-0.31621337 0.047835652 -0.039724749 4286282691
-0.32796755 -0.015295947 -0.029949589 4281546589
-0.32803109 -0.014558927 -0.030403344 4280954670
-0.32775119 -0.013696367 -0.030367754 4280299308
-0.32747173 -0.012835053 -0.030332234 4280299306
-0.32702199 -0.011914366 -0.03005277 4280299051
-0.32657355 -0.01099647 -0.029774131 4280298797
-0.3256197 -0.009904718 -0.028770054 4280364846
-0.32484034 -0.00887895 -0.028013654 4280430639
-0.32423225 -0.0079161786 -0.027500998 4280562479
-0.32362691 -0.0069577373 -0.026990691 4280630319
-0.32318935 -0.0060587986 -0.026720341 4280697649
-0.32291788 -0.0052170986 -0.026688296 4281022774
-0.32264686 -0.0043766149 -0.026656304 4281810485
-0.32286996 -0.003697467 -0.027337639 4281614898
-0.3227635 -0.0029102387 -0.027543426 4281088307
-0.32249233 -0.0020707005 -0.027510816 4280957235
-0.32222158 -0.0012323501 -0.027478267 4280629043
-0.32211521 -0.00044614964 -0.027683804 4280629042
-0.32217306 0.0002897197 -0.028127864 4280694322
-0.32190251 0.0011264572 -0.028094895 4280694836
-0.32146883 0.002011057 -0.027823865 4280629043
-0.32087371 0.0029413388 -0.02731647 4280628528
-0.32044315 0.0038200254 -0.027047629 4280562736
-0.31985256 0.0047428836 -0.026543902 4280562737
-0.31910428 0.0057075238 -0.025807975 4280431152
-0.31883901 0.0065311934 -0.025777198 4280431150
-0.3188937 0.0072644823 -0.026214981 4280299821
-0.31862855 0.0080871098 -0.026183933 4280299818
-0.31884307 0.0087781064 -0.026857115 4280299562
-0.31905824 0.0094712339 -0.027532376 4280299054
-0.31927404 0.010166484 -0.02820969 4280234799
-0.31949043 0.010863895 -0.028889012 4280233789
-0.31938455 0.01164683 -0.029093685 4280238397
-0.31911761 0.012470822 -0.02906041 4280234562
-0.31901178 0.013253291 -0.02926496 4280567362
-0.31858489 0.014115303 -0.028994011 4280696645
-0.31799966 0.015013766 -0.028487226 4282798916
-0.31773493 0.015831776 -0.028454592 4282994498
-0.31778875 0.016573247 -0.028894883 4285813314
-0.31736526 0.017427299 -0.028625598 4285887817
-0.31741875 0.018169502 -0.029065717 4286929737
-0.31763151 0.018876841 -0.029743949 4286939227
-0.31736678 0.019692885 -0.029710412 4287785307
-0.31726128 0.020472929 -0.029914333 4287789415
-0.31731477 0.021218756 -0.030356154 4287586919
-0.3173683 0.021965744 -0.030798636 4287590745
-0.31694472 0.022813428 -0.030526169 4286996825
-0.3166807 0.023626205 -0.030492188 4286998646
-0.31673366 0.024374049 -0.030934131 4286735223
-0.31678668 0.025123047 -0.031376801 4286732893
-0.31699875 0.025842352 -0.03205964 4285295708
-0.31721148 0.026563892 -0.032744542 4285233008
-0.3171055 0.027347362 -0.032949358 4285819762
-0.31699952 0.028130902 -0.033154193 4285886301
-0.31689355 0.028914521 -0.033359036 4285553756
-0.31678754 0.02969818 -0.033563904 4285554757
-0.31668153 0.030481897 -0.033768769 4285422914
-0.31657553 0.031265676 -0.033973668 4285422685
-0.31662855 0.032023188 -0.034420364 4284833888
-0.31652245 0.032807652 -0.034625445 4284762973
-0.3165755 0.033567004 -0.035073034 4285090652
-0.31662858 0.034327544 -0.03552131 4285163613
-0.3165223 0.035113383 -0.035726734 4286932830
-0.31657538 0.035875782 -0.036175843 4287194715
-0.31662852 0.03663937 -0.036625672 4287657306
-0.31652206 0.037426561 -0.03683145 4287722091
-0.31641558 0.038213797 -0.037037238 4287527279
-0.31630909 0.039001096 -0.037243064 4287459931
-0.31604338 0.039809015 -0.037204057 4286866262
-0.31577808 0.040615767 -0.037165135 4286733123
-0.31567174 0.041402061 -0.037370682 4285288510
-0.31556538 0.042188395 -0.037576258 4284891454
-0.31530058 0.042992923 -0.03753712 4285090623
-0.31519431 0.043778792 -0.037742555 4285159761
-0.315088 0.044564735 -0.037948009 4287268695
-0.31513986 0.045334328 -0.038398642 4288062645
-0.31535038 0.046089329 -0.039096024 4287929561
-0.31556153 0.046846677 -0.039795518 4287861963
-0.31609276 0.04757683 -0.040994018 4287070916
-0.32701722 -0.015389957 -0.029992882 4281546588
-0.32707989 -0.014654103 -0.030446006 4280954415
-0.32697177 -0.01385486 -0.030654963 4280299054
-0.32669309 -0.012994069 -0.030619277 4280299308
-0.32607511 -0.012013219 -0.030095894 4280233260
-0.32562888 -0.011096537 -0.029817689 4280298795
-0.32467997 -0.010006049 -0.028814966 4280299051
-0.32390469 -0.0089814942 -0.028059645 4280364586
-0.32329959 -0.0080199381 -0.027547685 4280495657
-0.32269722 -0.0070626549 -0.027038034 4280496936
-0.32209757 -0.0061096656 -0.026530748 4280496939
-0.32182753 -0.0052698124 -0.026498938 4280693808
-0.32155788 -0.0044311527 -0.026467206 4281218350
-0.32112572 -0.003540555 -0.026199147 4281088298
-0.321509 -0.0029153272 -0.027114503 4280759083
-0.32140282 -0.0021303808 -0.027319709 4280694061
-0.32113346 -0.0012938678 -0.027287416 4280496942
-0.32102734 -0.00050940114 -0.027492518 4280496944
-0.3210842 0.00022477451 -0.027935453 4280496944
-0.32097799 0.0010099518 -0.028140739 4280497454
-0.3207089 0.0018443473 -0.028107878 4280497198
-0.3199541 0.0028226066 -0.027363347 4280496686
-0.31968683 0.0036526348 -0.027331233 4280496430
-0.31877768 0.004668646 -0.026356746 4280496428
-0.31803426 0.0056313658 -0.025623066 4280496428
-0.31777036 0.0064532962 -0.025592515 4280562731
-0.31766534 0.0072295042 -0.02579546 4280954923
-0.31756032 0.0080057895 -0.025998408 4281089320
-0.31809115 0.0086079314 -0.027139761 4282069545
-0.31830499 0.0093002981 -0.027814968 4282205231
-0.31851944 0.0099948179 -0.028492194 4283514419
-0.31889531 0.010649122 -0.02940952 4283590221
-0.31895033 0.011390253 -0.029852804 4284307022
-0.31868345 0.012215096 -0.029818941 4284572504
-0.31841701 0.01303875 -0.029785166 4284702040
-0.31799099 0.013901124 -0.029513463 4284769116
-0.31756625 0.014760963 -0.029242607 4285821275
-0.3173016 0.015579814 -0.029209388 4285818192
-0.31735513 0.016321661 -0.029650636 4286539088
-0.3170906 0.017139465 -0.029617144 4286541387
-0.31730303 0.017845757 -0.03029673 4286476364
-0.31735662 0.018590583 -0.030739477 4286478945
-0.31741023 0.019336559 -0.031182934 4286412897
-0.3173044 0.020118982 -0.031387493 4286409323
-0.31735805 0.020866804 -0.031831734 4286276203
-0.31773174 0.021547383 -0.032758188 4286279532
-0.31778583 0.022298638 -0.033204846 4285883756
-0.31783998 0.023051094 -0.033652212 4285884049
-0.31805506 0.023772053 -0.03434309 4286410898
-0.31810957 0.024527419 -0.034792352 4286407541
-0.31736067 0.025441339 -0.034026489 4286213492
-0.31725436 0.026227158 -0.034231938 4286214263
-0.31714803 0.027013024 -0.034437403 4287060855
-0.31704172 0.027798947 -0.03464286 4287134306
-0.31693539 0.028584933 -0.034848355 4287259745
-0.31682906 0.029370992 -0.035053868 4287264585
-0.31672272 0.030157078 -0.035259373 4286800198
-0.31661636 0.030943256 -0.03546492 4286669633
-0.31650999 0.031729456 -0.03567047 4286010944
-0.3164036 0.032515731 -0.035876039 4286007604
-0.3166163 0.033251103 -0.036569927 4285281586
-0.31650972 0.034038678 -0.036775839 4285224247
-0.31640318 0.034826308 -0.036981747 4286143288
-0.31645626 0.03559025 -0.037432868 4286338629
-0.31650943 0.036355399 -0.037884679 4286344775
-0.3164027 0.037144378 -0.038090959 4286474850
-0.31645584 0.037911396 -0.038543623 4287200104
-0.316349 0.038701095 -0.03875009 4287329632
-0.31608245 0.039511692 -0.038709868 4287130206
-0.31581625 0.040321134 -0.038669724 4287063879
-0.31570956 0.041109815 -0.038875908 4286404417
-0.31544384 0.041917566 -0.038835712 4286143039
-0.31517854 0.042724151 -0.038795583 4286143294
-0.315072 0.043511812 -0.039001502 4286146139
-0.31512395 0.044282343 -0.039453965 4287532388
-0.31501728 0.045070715 -0.039660074 4288062129
-0.31522807 0.045827068 -0.040360976 4287994831
-0.31543946 0.046585742 -0.041064002 4287993288
-0.31597152 0.047316782 -0.042269092 4287270085
-0.32606974 -0.015483703 -0.030036101 4281612380
-0.32613158 -0.014749027 -0.030488577 4281020206
-0.32602358 -0.01395097 -0.030697245 4280364334
-0.32574603 -0.013091384 -0.030661615 4280299053
-0.32529986 -0.012172381 -0.030382307 4280167980
-0.32485509 -0.011256114 -0.030103887 4280167979
-0.32390988 -0.010165838 -0.02910091 4280167979
-0.32297176 -0.0090837395 -0.028105501 4280233258
-0.3225345 -0.0081803175 -0.027833089 4280298794
-0.32177031 -0.0071672876 -0.027085323 4280233769
-0.32133684 -0.0062707122 -0.026815709 4280168491
-0.32090464 -0.005376765 -0.02654694 4280234031
-0.32079861 -0.0045931339 -0.026751837 4280299566
-0.32004416 -0.0035967461 -0.026011858 4280299562
-0.32042417 -0.002973032 -0.02692475 4280299819
-0.3201561 -0.0021377758 -0.026892828 4280300076
-0.31956571 -0.0012011921 -0.026389034 4280365357
-0.31994429 -0.00057238917 -0.027302137 4280364848
-0.3200002 0.00016012405 -0.027743971 4280300080
-0.32021841 0.00084393343 -0.028424533 4280300336
-0.31978816 0.0017270215 -0.028153677 4280366642
-0.31903726 0.0027042078 -0.027410166 4280365626
-0.318771 0.0035330988 -0.027378062 4280433211
-0.31802589 0.0045013381 -0.026639674 4280431424
-0.31728524 0.0054638884 -0.025905699 4280566593
-0.31702203 0.0062853713 -0.025874976 4280696137
-0.31707516 0.0070163216 -0.02631161 4281553737
-0.31697014 0.0077926181 -0.026514594 4281879884
-0.31749916 0.0083941631 -0.027657516 4283781450
-0.31771207 0.0090862522 -0.028333524 4284177468
-0.31808558 0.0097375 -0.029249158 4286797633
-0.31830013 0.010434324 -0.029930091 4286946656
-0.31851539 0.011133289 -0.030613119 4288376671
-0.31824863 0.011958958 -0.030578697 4288384599
-0.31814259 0.01274266 -0.030783603 4288312408
-0.31787631 0.013566631 -0.030749083 4288315498
-0.31745076 0.014428911 -0.030475829 4288440937
-0.31718555 0.015249889 -0.030441638 4288378979
-0.31739861 0.015954835 -0.031123979 4287129700
-0.31697404 0.016813099 -0.030850362 4287129454
-0.31718674 0.017520502 -0.03153336 4286081134
-0.3172403 0.018266803 -0.031978037 4286083950
-0.31745389 0.018978111 -0.032664295 4285165166
-0.31718785 0.019798469 -0.032628469 4285160563
-0.31724149 0.020547742 -0.033074699 4285100147
-0.31729519 0.021298209 -0.033521622 4285099609
-0.31718889 0.022083782 -0.03372702 4284900185
-0.3175633 0.0227693 -0.0346606 4284900717
-0.31761739 0.023523904 -0.03511012 4286080366
-0.31783259 0.0242473 -0.035804808 4286147166
-0.31740412 0.025100149 -0.035522256 4287064158
-0.31713706 0.025919441 -0.035484258 4287064422
-0.31703046 0.026707126 -0.035690214 4288178279
-0.3170841 0.027464962 -0.036140583 4288251259
-0.31697744 0.028253358 -0.036346726 4288776317
-0.31687075 0.029041804 -0.03655288 4288778097
-0.31676406 0.029830297 -0.036759049 4287986288
-0.31649742 0.030646386 -0.036720216 4287917387
-0.31655064 0.031407487 -0.03717142 4287255623
-0.31644392 0.032196149 -0.037377637 4287186746
-0.31665727 0.032933291 -0.03807592 4285481528
-0.31655037 0.033723265 -0.038282476 4285220666
-0.31644347 0.03451331 -0.038489055 4285420090
-0.31649676 0.035279345 -0.038942717 4285417283
-0.31655005 0.036046583 -0.03939705 4285096260
-0.31644297 0.036837991 -0.039603982 4285030227
-0.31649628 0.037607111 -0.040059224 4286802520
-0.31638911 0.038399246 -0.040266331 4287198037
-0.31612167 0.039212562 -0.040224861 4287326805
-0.31585464 0.040024702 -0.040183481 4287394635
-0.31574759 0.0408158 -0.040390335 4287716937
-0.31548101 0.041626234 -0.040348865 4287789639
-0.31521484 0.042435516 -0.040307492 4287521862
-0.31510791 0.043225586 -0.040514078 4287459941
-0.31500101 0.044015713 -0.040720664 4287860850
-0.31505305 0.044789042 -0.041175839 4287995573
-0.31510517 0.045563586 -0.041631732 4288060111
-0.31531683 0.046323605 -0.042338315 4288124872
-0.31584969 0.047055561 -0.043550014 4287532229
-0.32512507 -0.015577155 -0.030079206 4281678175
-0.32518607 -0.014843655 -0.030531041 4281020205
-0.32507819 -0.014046806 -0.030739428 4280299053
-0.32497033 -0.013249879 -0.030947819 4280233518
-0.32452574 -0.012331305 -0.030668369 4280167725
-0.32408246 -0.011415474 -0.030389735 4280167979
-0.32314083 -0.010325396 -0.029386422 4280233515
-0.3223713 -0.0093013663 -0.028630545 4280233258
-0.32193494 -0.008397555 -0.028357388 4280298538
-0.32117251 -0.0073838779 -0.027608059 4280233258
-0.32057714 -0.0064315177 -0.027100306 4280167723
-0.3203086 -0.0055926214 -0.027068159 4280233774
-0.32004046 -0.00475492 -0.027036093 4280299309
-0.31977269 -0.0039184294 -0.027004082 4280365098
-0.3193441 -0.0030304813 -0.026735907 4280430890
-0.31923833 -0.0022490139 -0.026940254 4280496939
-0.31897175 -0.0014161152 -0.026908444 4280759084
-0.3190268 -0.00068591745 -0.027349001 4281088560
-0.31924301 -4.9495175e-06 -0.028027447 4281874481
-0.31945992 0.00067812519 -0.028707923 4282140979
-0.31919235 0.0015115696 -0.028674748 4283187768
-0.31860361 0.0024409762 -0.028166663 4283257929
-0.31849778 0.003222822 -0.028371116 4283845963
-0.31775233 0.0041934773 -0.027628675 4283848278
-0.31716987 0.0051121968 -0.02712564 4283849306
-0.31690612 0.0059358031 -0.027093932 4283980139
-0.31695929 0.0066681607 -0.027532509 4284578924
-0.31669569 0.007490695 -0.02750054 4284770420
-0.31722468 0.0080922479 -0.028648175 4285887343
-0.3174375 0.0087849637 -0.029326702 4286081099
-0.31765094 0.0094797751 -0.030007286 4287522896
-0.31802538 0.010133959 -0.030929467 4287668083
-0.31807974 0.010875897 -0.031374604 4288840560
-0.31797352 0.011660746 -0.03157983 4288779349
-0.31786728 0.012445636 -0.031785086 4288317528
-0.31760079 0.013271099 -0.031749826 4288248951
-0.31733468 0.014095377 -0.031714611 4287128439
-0.31706893 0.014918462 -0.031679459 4287134326
-0.31728226 0.015624541 -0.032365233 4286802808
-0.31701636 0.016447213 -0.032329615 4286800016
-0.31722975 0.017156243 -0.03301689 4285816975
-0.31712347 0.017941548 -0.033222232 4285820795
-0.31749773 0.018617451 -0.034154639 4286408059
-0.31723085 0.019440593 -0.034117617 4286408570
-0.31728464 0.020191895 -0.034566339 4286545530
-0.31717807 0.020979185 -0.034772217 4286539590
-0.31707153 0.021766549 -0.03497811 4285882694
-0.31696495 0.022553964 -0.035184011 4285882442
-0.31701857 0.023308413 -0.035633959 4286995274
-0.31707224 0.024064058 -0.036084574 4287003207
-0.31712601 0.024820916 -0.036535889 4287587399
-0.31701916 0.025610331 -0.036742311 4287588181
-0.31691232 0.026399842 -0.036948763 4287722838
-0.31696597 0.027159167 -0.037401162 4287723412
-0.3170197 0.027919732 -0.037854206 4288522648
-0.31691265 0.028710606 -0.038061012 4288584345
-0.31680563 0.029501501 -0.038267829 4288254873
-0.31653816 0.030320343 -0.038227789 4288179541
-0.31643116 0.031110762 -0.038434479 4286796110
-0.31632417 0.031901252 -0.038641185 4286596929
-0.3165378 0.032639667 -0.039343018 4285551167
-0.31643063 0.033431452 -0.039550066 4285418556
-0.31632346 0.034223307 -0.039757133 4285549884
-0.31637672 0.034990899 -0.040212799 4285550144
-0.31659088 0.035735898 -0.040918685 4285552705
-0.31648344 0.036529727 -0.041126266 4285552451
-0.316376 0.037323628 -0.041333873 4286141763
-0.31642938 0.038095549 -0.041791793 4286276168
-0.3161611 0.038911577 -0.041749097 4286473545
-0.31589317 0.039726447 -0.041706447 4286538833
-0.31578577 0.040519983 -0.041913956 4286603347
-0.31551835 0.041333113 -0.041871257 4286671954
-0.31509188 0.04216399 -0.041579004 4286733649
-0.31498468 0.042955898 -0.04178609 4286804599
-0.31487748 0.04374785 -0.04199319 4287598214
-0.31492954 0.044522755 -0.042450387 4287929528
-0.31498161 0.045298897 -0.042908289 4288060111
-0.31519356 0.046060286 -0.043618463 4288124872
-0.3155666 0.046808593 -0.04458363 4287335365
-0.32435113 -0.015733635 -0.030365426 4281808989
-0.32441145 -0.015000769 -0.030817144 4281020205
-0.32430366 -0.014204489 -0.031025399 4280233518
-0.32402802 -0.013346625 -0.030989679 4280233518
-0.3237527 -0.012490018 -0.030953983 4280233261
-0.32331094 -0.011574612 -0.030675195 4280233516
-0.32253852 -0.010543697 -0.029913092 4280298796
-0.32193556 -0.0095771095 -0.029396232 4280298541
-0.32133532 -0.0086148316 -0.028881716 4280298541
-0.32073778 -0.0076568606 -0.028369537 4280233261
-0.32014295 -0.0067031491 -0.027859703 4280168239
-0.32003668 -0.0059183575 -0.028064957 4280234293
-0.31976831 -0.0050791339 -0.028032118 4280366648
-0.31950033 -0.0042410945 -0.02799933 4280432958
-0.31939423 -0.0034573115 -0.028204309 4280632128
-0.31880459 -0.0025163379 -0.027696816 4280893509
-0.3186987 -0.0017342289 -0.027901372 4281488199
-0.31859282 -0.00095201837 -0.028105939 4282143304
-0.31896976 -0.00032160463 -0.029024374 4284110662
-0.31918651 0.00036205421 -0.029707422 4284902975
-0.3190802 0.0011473777 -0.029912801 4287258948
-0.31865129 0.0020307768 -0.029639576 4287465044
-0.31838429 0.0028633648 -0.029605759 4288244311
-0.3177973 0.0037898445 -0.029095627 4288184674
-0.31689516 0.0048054815 -0.02811466 4288048996
-0.31663123 0.0056305486 -0.028082257 4288115566
-0.31668419 0.0063638217 -0.028522201 4288511597
-0.31642041 0.0071878433 -0.028489528 4288513129
-0.31710854 0.0077449754 -0.029879926 4288312678
-0.3173216 0.0084387241 -0.03056182 4288312145
-0.31753534 0.0091346474 -0.031245835 4288309076
-0.31774971 0.0098326905 -0.031931896 4288453994
-0.31780389 0.010575535 -0.032378484 4289363818
-0.31785822 0.011319577 -0.032825753 4289305195
-0.31775171 0.012106259 -0.03303149 4288385901
-0.31748465 0.012933883 -0.032995239 4288182398
-0.31721801 0.013760285 -0.032959055 4285691774
-0.31711167 0.01454598 -0.033164524 4285758831
-0.31732565 0.015253641 -0.033854607 4286476143
-0.31705889 0.016079111 -0.03381779 4286470509
-0.31727296 0.016789742 -0.034509417 4285490285
-0.3171663 0.017577447 -0.034715433 4285557612
-0.31754181 0.018254589 -0.035654068 4287654253
-0.31727403 0.019080531 -0.035615817 4287656307
-0.31716722 0.019869579 -0.035822161 4287988851
-0.31706038 0.02065869 -0.036028538 4287979351
-0.3171142 0.021413345 -0.036480151 4286869079
-0.3170073 0.022203149 -0.036686711 4286864459
-0.31706107 0.022959666 -0.037139151 4287918923
-0.31711492 0.023717342 -0.037592333 4287991157
-0.31716883 0.024476251 -0.038046174 4288181366
-0.31722283 0.02523635 -0.038500737 4288177749
-0.31711555 0.02602887 -0.038707994 4287195986
-0.31700826 0.026821436 -0.038915265 4287129202
-0.31706217 0.027584082 -0.039370909 4288251509
-0.31695479 0.028377373 -0.039578367 4288389259
-0.31668636 0.029199498 -0.039537184 4288515214
-0.31641832 0.030020446 -0.039496105 4288506193
-0.31631106 0.030812696 -0.03970331 4286272587
-0.31604353 0.031631902 -0.039662164 4285941567
-0.316257 0.03237104 -0.040366616 4285680445
-0.31614965 0.033164069 -0.040574007 4285615419
-0.3160423 0.033957165 -0.040781416 4285746491
-0.31609541 0.034725737 -0.041238602 4285749309
-0.31614855 0.035495546 -0.04169647 4286140478
-0.31620178 0.036266554 -0.042155042 4286205756
-0.31625512 0.037038829 -0.042614367 4285353019
-0.31630847 0.037812307 -0.043074347 4285157697
-0.31587887 0.038652118 -0.042778917 4285226563
-0.31577119 0.039447434 -0.042986915 4285222732
-0.31566352 0.040242776 -0.043194912 4285094478
-0.31555584 0.041038211 -0.04340294 4285027663
-0.315128 0.041872069 -0.043107543 4285487440
-0.31502047 0.042666402 -0.043315262 4285691011
-0.31491295 0.043460779 -0.043523014 4287205526
-0.3149651 0.044237856 -0.043982767 4287798461
-0.31501737 0.045016155 -0.044443253 4287994574
-0.31522995 0.045779474 -0.045157943 4288059338
-0.31560415 0.046529457 -0.046129618 4286875079
-0.32357827 -0.015889883 -0.030651201 4282005859
-0.32347062 -0.015094849 -0.030859148 4281085998
-0.32336298 -0.014299758 -0.031067088 4280233775
-0.32325533 -0.013504603 -0.031275067 4280299055
-0.32298085 -0.012648514 -0.031239234 4280299054
-0.32254052 -0.011733521 -0.030960239 4280299053
-0.32177103 -0.010702894 -0.030197889 4280364592
-0.32133454 -0.0097949179 -0.029921779 4280364851
-0.32089937 -0.0088896407 -0.029646505 4280364851
-0.32030234 -0.0079302853 -0.029132234 4280431154
-0.31987035 -0.0070311129 -0.028859226 4280631097
-0.31960166 -0.0061897952 -0.028825752 4281355333
-0.31949532 -0.0054043154 -0.029031185 4282666064
-0.31938896 -0.0046187891 -0.02923663 4282801252
-0.31960684 -0.0039403494 -0.029921517 4282935914
-0.31869188 -0.0028892655 -0.028930726 4283327350
-0.31858572 -0.002105321 -0.029135762 4283663220
-0.31864062 -0.0013728476 -0.029579736 4284181615
-0.31901872 -0.00074144138 -0.03050429 4285496680
-0.31923622 -5.6331635e-05 -0.031191651 4286021204
-0.31912956 0.00073138275 -0.031397674 4287660632
-0.31886092 0.0015686586 -0.031362396 4287795813
-0.31859273 0.0024047513 -0.031327181 4288317288
-0.31800306 0.0033357928 -0.030811271 4288250996
-0.31725627 0.004309881 -0.030058784 4288185972
-0.31715029 0.0050925389 -0.030263487 4288181106
-0.31704432 0.0058752932 -0.030468211 4288444526
-0.31677905 0.0067034033 -0.030433957 4288380250
-0.31715149 0.0073512141 -0.031357121 4288181850
-0.31720516 0.0080909254 -0.03180258 4288113753
-0.31725892 0.0088318195 -0.032248743 4287914586
-0.31731275 0.0095738787 -0.03269558 4287989343
-0.3175272 0.010274276 -0.033385433 4288706659
-0.3174206 0.011061545 -0.033591349 4288713607
-0.31747466 0.011807136 -0.03404025 4288914823
-0.31736797 0.012595119 -0.034246348 4288778120
-0.31710076 0.013423686 -0.034209169 4287401606
-0.31731522 0.014131226 -0.034902401 4287399784
-0.31736925 0.014880497 -0.035353079 4287591782
-0.31742334 0.015630959 -0.035804406 4287588678
-0.31731638 0.016421026 -0.036011033 4286802503
-0.31737047 0.017173335 -0.036463264 4286872412
-0.31758606 0.017889529 -0.037162624 4287983197
-0.31731746 0.018718261 -0.03712317 4287984492
-0.31737161 0.019473635 -0.037576936 4288449132
-0.31726435 0.020265754 -0.037784122 4288445290
-0.31731847 0.021022985 -0.038238809 4287921258
-0.31721112 0.021815833 -0.038446169 4287919181
-0.31742695 0.02254108 -0.039150223 4288253516
-0.31731939 0.023335248 -0.039357942 4288250025
-0.31737369 0.024096787 -0.039814916 4288185516
-0.31742799 0.024859533 -0.040272571 4288182612
-0.31715843 0.025686627 -0.04023074 4287979854
-0.31705078 0.026481619 -0.040438674 4287983431
-0.31694314 0.027276689 -0.040646616 4288305991
-0.31667405 0.028101511 -0.040604554 4288318074
-0.31640542 0.028925132 -0.040562578 4288316031
-0.31613716 0.029747544 -0.040520716 4288309326
-0.31602976 0.03054102 -0.040728241 4286536007
-0.31592229 0.031334564 -0.040935803 4286271037
-0.31597531 0.032101601 -0.041393388 4285875259
-0.31602842 0.032869857 -0.041851707 4285812794
-0.31592077 0.033664774 -0.042059626 4285943610
-0.31597391 0.034434892 -0.042518847 4285945657
-0.31618819 0.035181943 -0.04323094 4285874745
-0.31624162 0.035955127 -0.043692142 4285810738
-0.31613362 0.036752682 -0.043900754 4285219120
-0.31618699 0.037527755 -0.044362813 4285025591
-0.31591761 0.038348034 -0.044318009 4285422137
-0.31580961 0.039145794 -0.044526659 4285551427
-0.31570157 0.039943602 -0.044735324 4285291590
-0.3154327 0.040761575 -0.044690304 4285224268
-0.31516427 0.041578364 -0.044645369 4285423694
-0.31505638 0.042375125 -0.044853758 4285562264
-0.3149485 0.043171961 -0.045062169 4287140789
-0.31500083 0.043951225 -0.045524545 4287864006
-0.31505325 0.044731695 -0.045987654 4287994573
-0.31526655 0.045496926 -0.046706881 4287993548
-0.31548047 0.04626457 -0.047428351 4286543563
-0.3228066 -0.016045898 -0.030936632 4282793573
-0.32286558 -0.015314342 -0.031388178 4281479730
-0.32275793 -0.014519211 -0.031596154 4280365364
-0.32248381 -0.013662387 -0.031560097 4280430901
-0.32221007 -0.012806771 -0.031524122 4280430388
-0.32193676 -0.011952426 -0.031488173 4280495921
-0.32149869 -0.011039795 -0.031209283 4280627762
-0.32106191 -0.010129909 -0.030931214 4280562485
-0.32062647 -0.0092227124 -0.030654032 4280496692
-0.32019234 -0.0083182091 -0.030377692 4281022259
-0.31959686 -0.0073600598 -0.029861806 4281817409
-0.31932795 -0.0065172096 -0.029827556 4283859034
-0.31922144 -0.0057305275 -0.030033322 4287787624
-0.31943941 -0.0050527533 -0.030720489 4287859842
-0.32096928 -0.0048085689 -0.033356827 4288052092
-0.32135734 -0.0041774772 -0.034301315 4287923054
-0.31863356 -0.0025306421 -0.030616006 4287727983
-0.3186886 -0.001796257 -0.031062445 4287792241
-0.31906796 -0.00116386 -0.031993199 4288053355
-0.31977552 -0.00063130434 -0.033415828 4288121178
-0.31950501 0.00021145114 -0.033378851 4288382043
-0.31890967 0.0011530088 -0.032855138 4288386910
-0.31880271 0.0019426415 -0.033061702 4288380257
-0.3182103 0.0028782941 -0.032539908 4288380522
-0.31762058 0.0038097554 -0.032020528 4288313960
-0.31735364 0.0046430794 -0.031984944 4288312675
-0.31724724 0.0054287976 -0.032190461 4288312929
-0.31698081 0.0062604016 -0.032154802 4288245846
-0.31719461 0.0069550588 -0.032843262 4287918166
-0.3170881 0.007741529 -0.033048999 4287849045
-0.31698158 0.008528077 -0.033254739 4287324503
-0.31719568 0.0092273699 -0.033945955 4287391591
-0.3172496 0.0099720592 -0.034395471 4287791721
-0.31730363 0.010717942 -0.03484571 4287989364
-0.31719676 0.01150706 -0.035052124 4289565557
-0.31741178 0.012213239 -0.035748243 4289571454
-0.31730473 0.013003672 -0.035955004 4289563774
-0.31735885 0.01375377 -0.036407471 4289565555
-0.31741306 0.014505051 -0.036860645 4289037938
-0.31762907 0.015218151 -0.037561666 4289035876
-0.31752166 0.016011227 -0.037769116 4288511845
-0.31741422 0.016804375 -0.037976589 4288515944
-0.31763059 0.017522199 -0.038680434 4288379752
-0.31719941 0.018390823 -0.038391549 4288378215
-0.31709197 0.019184118 -0.038599055 4288970087
-0.31682327 0.02001326 -0.038558528 4288979039
-0.31687707 0.02077092 -0.039014135 4289231199
-0.3167696 0.021564407 -0.039221693 4289237852
-0.31698489 0.022289831 -0.039927531 4288581724
-0.31687728 0.02308462 -0.040135436 4288572806
-0.31693119 0.023846574 -0.040593319 4288183432
-0.3171472 0.024577333 -0.041302904 4288188502
-0.31687737 0.025405917 -0.041260224 4289030738
-0.31693137 0.026170982 -0.041719776 4289100619
-0.31666169 0.026998481 -0.041676793 4288309323
-0.31655383 0.027794845 -0.041885108 4288247154
-0.31628466 0.028620591 -0.041842103 4288052342
-0.31585509 0.029473804 -0.041548431 4288046667
-0.31574747 0.030268518 -0.041756317 4286929222
-0.31563982 0.031063315 -0.041964207 4286732093
-0.31585345 0.031804457 -0.042674921 4286205500
-0.31574565 0.032600559 -0.04288315 4286076996
-0.31579867 0.033371005 -0.043343697 4286208838
-0.31585178 0.034142729 -0.043804981 4286207809
-0.31606635 0.034891054 -0.04452071 4285418304
-0.31611979 0.035665803 -0.044983983 4285220151
-0.31617323 0.036441784 -0.045447938 4284891957
-0.31606489 0.037241902 -0.045657225 4284828472
-0.3159565 0.038042061 -0.045866542 4285748537
-0.31584814 0.038842279 -0.046075851 4286011967
-0.31573975 0.039642569 -0.046285179 4285749313
-0.31547004 0.040463291 -0.046238903 4285681992
-0.31520072 0.04128284 -0.046192646 4285358922
-0.31509247 0.042082079 -0.046401706 4285237404
-0.31498423 0.042881362 -0.046610776 4287142076
-0.31487596 0.043680713 -0.046819881 4287994568
-0.31508932 0.044445477 -0.04754151 4287928526
-0.31514195 0.045229431 -0.048007961 4287927238
-0.31535619 0.045998443 -0.04873313 4285690305
-0.31540915 0.046785489 -0.049201582 4284368754
-0.31546214 0.047573805 -0.049670812 4282529601
-0.31567749 0.04834896 -0.050400779 4281222475
-0.32203603 -0.016201723 -0.031221671 4283190893
-0.32209435 -0.015470802 -0.031673118 4281743427
-0.32198673 -0.014676267 -0.031880975 4280497226
-0.32187909 -0.013881683 -0.032088842 4280432208
-0.32177147 -0.013087027 -0.032296725 4280431688
-0.32149827 -0.012231776 -0.032260206 4280496702
-0.32122546 -0.011377757 -0.03222375 4280563004
-0.32095304 -0.010524996 -0.032187384 4280496442
-0.32051677 -0.0096151121 -0.031907681 4280430648
-0.3200818 -0.0087079257 -0.031628869 4280890676
-0.31964809 -0.0078034275 -0.03135087 4281487447
-0.3197042 -0.0070699914 -0.031799827 4283729809
-0.31976041 -0.0063354294 -0.032249514 4287469734
-0.31981665 -0.0055996464 -0.032699864 4287663567
-0.3211906 -0.0053030914 -0.035116151 4288054187
-0.32158065 -0.004670674 -0.036068343 4287989340
-0.32097462 -0.0037087919 -0.035533223 4287922531
-0.32103223 -0.0029651758 -0.035989594 4287923318
-0.32125592 -0.0022734737 -0.036695458 4288053362
-0.32098174 -0.0014217769 -0.036655627 4288121702
-0.3197197 -0.00026189946 -0.035131708 4288315489
-0.31928489 0.00063381664 -0.034847524 4288318546
-0.31901422 0.0014770307 -0.034809425 4288244819
-0.3184191 0.0024172994 -0.034281734 4288181079
-0.31831193 0.0032082675 -0.034488667 4287915092
-0.31788117 0.0040949043 -0.034206796 4287984201
-0.31793576 0.0048376354 -0.034657814 4288247626
-0.31750587 0.0057212599 -0.034375917 4288246863
-0.317238 0.0065565044 -0.034338485 4288179023
-0.31713113 0.0073453686 -0.034544867 4288114510
-0.31702426 0.0081343129 -0.034751251 4287850835
-0.31691739 0.0089232996 -0.034957658 4287853684
-0.31713203 0.0096254209 -0.035653599 4288189041
-0.31702498 0.010415727 -0.035860341 4288249177
-0.31707886 0.011163706 -0.036312733 4288836187
-0.31729421 0.011870991 -0.037012376 4288843376
-0.31734842 0.012621908 -0.037466675 4288776561
-0.31740272 0.01337401 -0.037921697 4288777602
-0.31745708 0.014127318 -0.038377475 4288781699
-0.3175115 0.014881834 -0.038833894 4288775825
-0.31740382 0.015676763 -0.039041843 4288781712
-0.31729615 0.016471738 -0.039249811 4288778362
-0.31751275 0.01719074 -0.039957233 4288777849
-0.31691906 0.018099178 -0.039416511 4288773472
-0.31681144 0.018893719 -0.039624363 4289161824
-0.31654251 0.019724367 -0.039582968 4289172558
-0.31659618 0.020482969 -0.040040117 4289098318
-0.31648853 0.021277705 -0.040248021 4289104755
-0.31654212 0.022038171 -0.040706001 4288975476
-0.31643438 0.022833608 -0.040914085 4288970324
-0.31664962 0.023562789 -0.041624177 4288574291
-0.31686547 0.024294253 -0.042336401 4288580953
-0.31659546 0.025124358 -0.042292926 4288968025
-0.31664929 0.025890395 -0.042753957 4289035089
-0.31654117 0.02668855 -0.042962763 4288444496
-0.31627133 0.027516998 -0.042918853 4288381287
-0.31600192 0.028344255 -0.042875029 4288248169
-0.3157329 0.029170303 -0.042831261 4288243784
-0.31546429 0.029995173 -0.042787578 4287126339
-0.31535646 0.03079119 -0.042995825 4286929983
-0.31556997 0.031533059 -0.043709233 4286536766
-0.31546196 0.032330409 -0.043917827 4286471254
-0.31567594 0.033075899 -0.044633705 4286410586
-0.31556776 0.033874586 -0.044842653 4286408014
-0.31578219 0.034623686 -0.04556112 4286144075
-0.31599733 0.035375129 -0.046281803 4286076481
-0.31588879 0.036176436 -0.046491433 4285615166
-0.31610435 0.036931541 -0.047214646 4285485627
-0.31583354 0.03775673 -0.047167484 4285943610
-0.31572488 0.038558796 -0.047377314 4286142008
-0.31561622 0.039360967 -0.047587156 4285679927
-0.31550756 0.040163178 -0.047797028 4285550142
-0.31523737 0.040985484 -0.047749493 4285754433
-0.31512874 0.041787181 -0.047959223 4285828257
-0.31502014 0.042588957 -0.048168965 4287273164
-0.31491154 0.043390777 -0.048378713 4287994576
-0.31496412 0.044175088 -0.04884655 4287928018
-0.31501675 0.044960652 -0.049315087 4287925688
-0.31523123 0.045731064 -0.050043948 4285424297
-0.31512225 0.046535596 -0.050254412 4283973477
-0.31517512 0.047324955 -0.050725173 4282266934
-0.31522804 0.0481156 -0.051196709 4281155386
-0.38505495 0.042874496 -0.16413446 4283521853
-0.32148966 -0.015690172 -0.032201849 4283123273
-0.32154763 -0.014958237 -0.032654423 4281087563
-0.32160565 -0.01422512 -0.03310775 4280825932
-0.32149783 -0.013429208 -0.033315986 4280496196
-0.32139 -0.012633272 -0.033524223 4280364860
-0.3211166 -0.011776971 -0.033486731 4280234298
-0.32084364 -0.010921913 -0.033449356 4280233272
-0.32057109 -0.010068107 -0.033412043 4280233270
-0.32013467 -0.0091574434 -0.03313008 4280299316
-0.31969959 -0.0082494775 -0.032849006 4280432720
-0.31959227 -0.0074574123 -0.033056237 4282669696
-0.31964847 -0.0067214267 -0.033507932 4286418330
-0.31970474 -0.0059842421 -0.033960287 4287008972
-0.32058418 -0.0055225817 -0.035646461 4288057256
-0.32080701 -0.0048355074 -0.036351241 4288124516
-0.3210305 -0.0041462458 -0.037058163 4288316008
-0.32125467 -0.0034548212 -0.037767284 4288251249
-0.3213127 -0.0027074683 -0.03822754 4288118893
-0.32103762 -0.0018527752 -0.03818642 4288189030
-0.31993604 -0.00073888537 -0.036898021 4288249957
-0.31933513 0.00021210365 -0.036362354 4288184417
-0.31906363 0.0010582212 -0.036323041 4288049505
-0.3189559 0.0018534084 -0.036531076 4287851361
-0.3185218 0.0027467979 -0.036244594 4287194717
-0.31825152 0.0035892248 -0.036205519 4287326537
-0.31814402 0.0043827677 -0.036413122 4288049994
-0.3177121 0.0052704504 -0.036127511 4288183373
-0.31744301 0.0061092377 -0.036088664 4288704335
-0.31733575 0.0069011212 -0.036295831 4288711002
-0.31706712 0.0077381646 -0.036256872 4288706653
-0.31712115 0.0084850937 -0.036710247 4288710258
-0.31717521 0.0092332335 -0.037164293 4288777327
-0.3170678 0.010025982 -0.037371691 4288640089
-0.31712186 0.010775953 -0.037826639 4287590490
-0.31717604 0.011527164 -0.038282309 4287586404
-0.31723022 0.012279542 -0.038738653 4287529573
-0.31728452 0.013033145 -0.039195709 4287594104
-0.31733891 0.01378794 -0.039653499 4288384633
-0.31723106 0.014584042 -0.039861795 4288451196
-0.31728542 0.015340721 -0.040320449 4289239164
-0.31717744 0.016137559 -0.040528916 4289237367
-0.31739435 0.016857732 -0.041239955 4289500791
-0.31679952 0.017769028 -0.040695079 4289497448
-0.31669164 0.018565428 -0.040903434 4289493864
-0.31642213 0.019398257 -0.040861018 4289495388
-0.31647581 0.020158365 -0.041320201 4288904028
-0.31636789 0.020954933 -0.041528609 4288905066
-0.31642151 0.021716934 -0.041988652 4289564266
-0.31615204 0.022548242 -0.041945454 4289567573
-0.31636709 0.023278117 -0.042658199 4289229396
-0.31658286 0.024010276 -0.043373149 4289235540
-0.31647456 0.024809573 -0.043582264 4288835924
-0.31652838 0.025577147 -0.04404537 4288838736
-0.31625795 0.026408311 -0.04400054 4288642384
-0.31614962 0.027207779 -0.044209704 4288648036
-0.31571826 0.02806706 -0.043911122 4288511335
-0.31561011 0.028865401 -0.044119991 4288507213
-0.31534094 0.029692424 -0.044075288 4287521097
-0.31523284 0.030490279 -0.044284027 4287391556
-0.31528553 0.031260844 -0.044746716 4287192387
-0.31549957 0.032005791 -0.045465011 4287127119
-0.31555256 0.032779403 -0.0459297 4286934354
-0.3156057 0.033554252 -0.046395142 4286871371
-0.31565887 0.034330361 -0.046861291 4287588938
-0.31587425 0.0350831 -0.047585644 4287721545
-0.31592771 0.035862293 -0.048053805 4287127368
-0.31581882 0.036666125 -0.048264116 4286931270
-0.31570992 0.037470039 -0.048474435 4286535749
-0.31560096 0.038274016 -0.048684787 4286403390
-0.31549203 0.039078049 -0.048895147 4285615164
-0.31538308 0.039882123 -0.049105521 4285290059
-0.31527415 0.040686283 -0.049315903 4286674002
-0.31516519 0.041490484 -0.049526311 4287337382
-0.3150562 0.042294733 -0.049736731 4287732684
-0.31510904 0.043080583 -0.050207045 4287864272
-0.31516194 0.043867685 -0.050678127 4287862739
-0.3152149 0.044656083 -0.051149897 4287856305
-0.31526795 0.045445733 -0.051622454 4284503709
-0.31515864 0.046252761 -0.051833589 4282530657
-0.31521165 0.047044374 -0.05230708 4281611062
-0.31526476 0.047837269 -0.052781262 4280956217
-0.38423976 0.042582911 -0.16484779 4282601532
-0.38409433 0.043656517 -0.16512866 4283854168
-0.32121563 -0.016036449 -0.033220924 4283319923
-0.3211078 -0.015240641 -0.033429146 4281152592
-0.32116547 -0.014507161 -0.0338834 4280824113
-0.32122326 -0.013772476 -0.034338366 4280494897
-0.32128116 -0.01303663 -0.034794085 4280429361
-0.32117304 -0.012238751 -0.03500285 4280298801
-0.32089913 -0.011380701 -0.034964196 4280299313
-0.32062569 -0.010523918 -0.03492564 4280299314
-0.32018784 -0.0096097374 -0.034640539 4280364851
-0.31975132 -0.0086983005 -0.034356352 4280497722
-0.31964365 -0.0079037827 -0.034564242 4282335555
-0.31970003 -0.0071658674 -0.035018455 4285424243
-0.31975648 -0.0064267288 -0.035473388 4286287811
-0.32063881 -0.0059656813 -0.037171751 4287929514
-0.32102874 -0.0053327922 -0.038131658 4288058490
-0.32125339 -0.0046416046 -0.038844079 4288382067
-0.32081148 -0.0037297024 -0.038551111 4288316770
-0.32053676 -0.0028742368 -0.038509771 4288183139
-0.32042819 -0.002073175 -0.038719378 4288189030
-0.31965846 -0.0010625182 -0.037927199 4288318318
-0.31938562 -0.0002122124 -0.037886504 4288252295
-0.31927747 0.00058598706 -0.038095344 4288120452
-0.31884125 0.0014846851 -0.037805438 4287984760
-0.31889704 0.0022321744 -0.038263347 4287590766
-0.31862521 0.0030788977 -0.038222577 4287721034
-0.31851718 0.0038760889 -0.038431171 4288177226
-0.31824577 0.0047210413 -0.038390286 4288247882
-0.31764957 0.0056585362 -0.037852153 4288572240
-0.31754184 0.0064534741 -0.038060144 4288578928
-0.31727201 0.007294056 -0.038019743 4288581488
-0.31716436 0.008088503 -0.038227621 4288644462
-0.31705669 0.0088830311 -0.0384355 4288906347
-0.31694901 0.009677601 -0.038643409 4288773465
-0.31700307 0.010429062 -0.03910039 4288050776
-0.31705725 0.011181744 -0.039558094 4288048461
-0.31711146 0.01193562 -0.040016495 4287854159
-0.31716576 0.012690699 -0.040475599 4287855462
-0.31705773 0.01348799 -0.040684208 4288245349
-0.31711203 0.014244945 -0.041144252 4288250451
-0.31716639 0.015003146 -0.041604951 4288712532
-0.31705815 0.015801821 -0.04181394 4288711794
-0.31711248 0.016561886 -0.042275544 4289373298
-0.31667942 0.017437341 -0.041979566 4289367927
-0.31657124 0.018235585 -0.042188421 4289567351
-0.3163012 0.019070616 -0.042144947 4289563767
-0.31635487 0.019832253 -0.042606205 4289105527
-0.31624666 0.02063066 -0.042815123 4289102169
-0.31630027 0.021394202 -0.043277223 4289431896
-0.31603023 0.022227677 -0.043232981 4289434455
-0.31624559 0.022958757 -0.043949343 4288965719
-0.31646165 0.023692152 -0.044667967 4288906060
-0.31635308 0.024493301 -0.044877589 4288571723
-0.31624451 0.025294526 -0.045087226 4288511823
-0.31613591 0.026095791 -0.045296896 4288775503
-0.31586534 0.02692795 -0.045251083 4288842848
-0.31559512 0.027758887 -0.045205317 4288511330
-0.31532535 0.028588597 -0.045159675 4288443479
-0.31521699 0.029388251 -0.045368906 4287786069
-0.3151086 0.03018797 -0.045578174 4287720270
-0.31516129 0.030960113 -0.046042945 4287322701
-0.3152141 0.031733479 -0.046508484 4287259457
-0.31542861 0.032481533 -0.047231711 4287065151
-0.31548172 0.03325795 -0.047699235 4287000646
-0.31553489 0.034035634 -0.048167482 4287265096
-0.31558815 0.034814585 -0.048636474 4287329116
-0.31564146 0.035594784 -0.049106222 4287331681
-0.31553236 0.036399897 -0.049316883 4287328354
-0.31542325 0.037205059 -0.049527559 4286802018
-0.31531411 0.038010292 -0.049738258 4286601807
-0.31520498 0.038815603 -0.049948968 4285683529
-0.31509584 0.039620932 -0.050159693 4285293427
-0.31498671 0.040426362 -0.050370444 4286876292
-0.31503955 0.041211884 -0.050841935 4287536310
-0.31509247 0.041998677 -0.051314216 4287798988
-0.31498313 0.0428055 -0.051525328 4287930066
-0.31519851 0.043576084 -0.052260999 4287796693
-0.31508896 0.044384271 -0.052472472 4287658136
-0.31530488 0.045158617 -0.05321078 4284435572
-0.31519514 0.045968175 -0.053422615 4282266959
-0.31524831 0.046762038 -0.053898778 4281545782
-0.31513852 0.047572356 -0.054110792 4280956214
-0.38342452 0.042291302 -0.16556118 4282336310
-0.38327903 0.04336492 -0.16584212 4283589201
-0.32094067 -0.016383799 -0.034243122 4285422967
-0.32083264 -0.015586732 -0.034451693 4281676624
-0.32105607 -0.01491521 -0.035155065 4281151282
-0.32111388 -0.014179107 -0.03561208 4280692274
-0.32117176 -0.013441866 -0.03606984 4280692530
-0.32122973 -0.012703378 -0.036528293 4280692530
-0.32095495 -0.011842332 -0.036488414 4280693041
-0.32084653 -0.011042477 -0.036697716 4280758834
-0.32040665 -0.010123982 -0.036408842 4280693556
-0.31980327 -0.0091498615 -0.03587294 4280628026
-0.31969526 -0.0083528925 -0.036081482 4280826946
-0.31958723 -0.0075558773 -0.036290046 4281093227
-0.31964371 -0.0068153306 -0.036747035 4283526319
-0.32069376 -0.0064114998 -0.03870647 4287532960
-0.32091808 -0.0057214936 -0.039420325 4287925643
-0.32114306 -0.00502929 -0.040136412 4288711558
-0.32070026 -0.0041146479 -0.039840817 4288580731
-0.32075801 -0.0033654456 -0.040304162 4288315260
-0.32048243 -0.0025075497 -0.040261362 4288317812
-0.3198756 -0.0015451617 -0.039713848 4288383608
-0.31960154 -0.0006912094 -0.039671682 4288319877
-0.31932789 0.00016153033 -0.039629612 4288187268
-0.31905466 0.0010129891 -0.039587598 4288317313
-0.31894618 0.0018131502 -0.039797004 4288707447
-0.31867346 0.002662807 -0.03975495 4288643926
-0.31856507 0.0034624846 -0.03996421 4288441430
-0.31812915 0.0043584262 -0.039671026 4288442195
-0.31785762 0.0052043856 -0.03962921 4288310871
-0.31758654 0.0060491036 -0.039587472 4288312169
-0.31731582 0.0068925847 -0.039545771 4288384362
