# .PCD v0.7 - Point Cloud Data file format
VERSION 0.7
FIELDS x y z rgba
SIZE 4 4 4 4
TYPE F F F U
COUNT 1 1 1 1
WIDTH 988
HEIGHT 1
VIEWPOINT 0 0 0 1 0 0 0
POINTS 988
DATA ascii
-0.33890986 0.016282331 -0.012459639 4280760114
-0.33912545 0.017188126 -0.012561437 4280431409
-0.33952627 0.018174144 -0.012895162 4280365358
-0.33955771 0.019004062 -0.012765507 4280300589
-0.3399598 0.019994503 -0.013099996 4280432683
-0.3399913 0.020825803 -0.012970127 4280696889
-0.34020862 0.021738907 -0.013072688 4281420387
-0.34042624 0.022653438 -0.013175367 4283979623
-0.3404578 0.023486225 -0.013045266 4283518309
-0.3406758 0.024402933 -0.013147972 4280895077
-0.34089416 0.025321146 -0.013250895 4281629291
-0.34092578 0.026155397 -0.013120566 4288703084
-0.3411445 0.027075766 -0.013223452 4288509765
-0.34136352 0.02799766 -0.013326523 4281414725
-0.34158292 0.028921023 -0.013429776 4281414961
-0.34199095 0.02993446 -0.013767507 4280562993
-0.34221137 0.030861631 -0.013871325 4280498230
-0.3426213 0.031880569 -0.014210514 4283191350
-0.34265316 0.032720421 -0.014079313 4283645262
-0.34306449 0.033743985 -0.014419394 4281225043
-0.34309638 0.034585271 -0.014287971 4280574307
-0.34350902 0.035613444 -0.014628879 4283654252
-0.34354097 0.036456171 -0.014497231 4285036156
-0.34357294 0.037298966 -0.014365555 4287605381
-0.34360489 0.038141817 -0.014233869 4289372292
-0.3434462 0.038888589 -0.013866213 4285292160
-0.34366882 0.039827671 -0.013970495 4281159541
-0.3437008 0.040670704 -0.013838784 4281423209
-0.34373277 0.041513808 -0.013707062 4281743700
-0.34376475 0.042356972 -0.013575349 4281612850
-0.34379673 0.043200172 -0.013443612 4281227342
-0.34382871 0.044043433 -0.013311868 4283079062
-0.42946675 -0.004008098 -0.14016801 4286874529
-0.42951024 -0.0028611724 -0.13998885 4286738793
-0.42955372 -0.0017141406 -0.13980968 4286807655
-0.34159717 -0.02287068 -0.025610324 4286805368
-0.34030676 -0.022368601 -0.023766495 4286742649
-0.3403385 -0.021531399 -0.023635715 4286731348
-0.33943427 -0.020940969 -0.02229419 4282204499
-0.33890769 -0.020256026 -0.0214423 4281875510
-0.33856851 -0.019524131 -0.020833306 4281482292
-0.33786187 -0.018895444 -0.01975026 4281415215
-0.33697689 -0.018321238 -0.018438052 4280628271
-0.33591759 -0.017802242 -0.0169023 4280564014
-0.33540711 -0.017134622 -0.016075648 4280827182
-0.33471972 -0.016521543 -0.015021865 4280827189
-0.33421469 -0.015860252 -0.014203869 4281025846
-0.33371192 -0.015201889 -0.013389567 4281026619
-0.33356541 -0.014440952 -0.013034285 4281683260
-0.33341908 -0.013681125 -0.01267949 4281750339
-0.33344987 -0.012868422 -0.012552543 4284570436
-0.33330375 -0.012110225 -0.012198392 4285037637
-0.33333457 -0.011298014 -0.012071506 4282610757
-0.33354229 -0.010429977 -0.012171638 4282214468
-0.33357307 -0.0096170288 -0.012044653 4286076740
-0.33378118 -0.0087469583 -0.012144853 4286753095
-0.33398956 -0.0078754807 -0.012245149 4289553991
-0.33455476 -0.0068853945 -0.012801961 4290098502
-0.33494335 -0.0059502837 -0.013131985 4289751622
-0.33515358 -0.0050725341 -0.013233476 4289700928
-0.33536416 -0.0041934121 -0.013335142 4288309055
-0.33557501 -0.0033128643 -0.0134369 4287989826
-0.33614734 -0.0023059989 -0.013999775 4285883459
-0.33635944 -0.0014212191 -0.014102345 4285360963
-0.33675346 -0.00047094256 -0.014436594 4283852099
-0.33696654 0.00041737096 -0.014539711 4283325511
-0.33736241 0.0013727804 -0.014875403 4282412616
-0.33775949 0.0023311405 -0.015212072 4282016073
-0.33779082 0.0031580206 -0.015082918 4283133514
-0.33800551 0.0040528099 -0.015186884 4283592011
-0.33785349 0.0048119584 -0.014824568 4283790924
-0.33788484 0.005639038 -0.014695367 4283922507
-0.33791617 0.0064661466 -0.014566178 4284117579
-0.33794752 0.0072933291 -0.014436962 4284314447
-0.33779564 0.008049679 -0.014075446 4283723090
-0.33764404 0.0088049266 -0.013714473 4283328593
-0.33749267 0.0095590679 -0.013354036 4282999120
-0.33734149 0.010312099 -0.012994127 4282735434
-0.33719057 0.011064086 -0.012634777 4282405956
-0.33703992 0.01181495 -0.012275988 4282076736
-0.33688945 0.012564732 -0.011917683 4281747771
-0.33692065 0.013387969 -0.011789085 4281418554
-0.33695182 0.014211282 -0.011660497 4281220920
-0.33752909 0.015262737 -0.012220814 4280957750
-0.33792588 0.016241951 -0.01255278 4280826164
-0.33814037 0.017146356 -0.012654502 4280562738
-0.338539 0.018130844 -0.012987845 4280496687
-0.33857039 0.018959515 -0.012858404 4280300589
-0.3389703 0.019948436 -0.013192576 4280366378
-0.33900177 0.020778511 -0.013062915 4280497964
-0.33921793 0.021690186 -0.013165366 4280760371
-0.33943444 0.022603326 -0.013267996 4281677106
-0.33946598 0.023434857 -0.013138107 4281482798
-0.33968285 0.024350177 -0.013240785 4280629551
-0.33990005 0.025266953 -0.013343577 4280897589
-0.34011757 0.026185218 -0.013446521 4283842613
-0.34033549 0.027104992 -0.013549665 4283715387
-0.3405537 0.028026205 -0.0136529 4280890171
-0.3407723 0.028948935 -0.01375629 4280890930
-0.34117875 0.029961675 -0.014094337 4280562993
-0.34139827 0.030888163 -0.014198297 4280563503
-0.34180665 0.031906422 -0.014537803 4281812527
-0.34183845 0.032745644 -0.014406701 4282006872
-0.34205905 0.033676662 -0.014511113 4281290081
-0.34228 0.034609172 -0.014615727 4281030478
-0.34250131 0.035543188 -0.01472045 4282991942
-0.34272292 0.036478747 -0.014825317 4283981390
-0.34275484 0.037320912 -0.014693758 4285765971
-0.34278676 0.038163137 -0.014562205 4286943575
-0.34262887 0.038909376 -0.014194634 4284568666
-0.34266075 0.039751079 -0.014063166 4282010465
-0.34269267 0.040592819 -0.013931676 4281816938
-0.34272456 0.041434642 -0.013800188 4281482327
-0.34275648 0.042276539 -0.013668675 4281415988
-0.34278837 0.043118469 -0.013537171 4281225803
-0.34282029 0.043960497 -0.013405638 4282815631
-0.42790779 -0.0040240125 -0.14002444 4286673557
-0.42795113 -0.002879451 -0.1398457 4286541942
-0.42799446 -0.0017348242 -0.13966691 4286873205
-0.33871633 -0.023329718 -0.023245789 4286870644
-0.33837667 -0.022591561 -0.022632638 4286741364
-0.33840817 -0.021758843 -0.022502596 4286731088
-0.33770037 -0.021121921 -0.021411907 4282203982
-0.33736384 -0.020390404 -0.020804396 4281875513
-0.33721161 -0.019611271 -0.020436628 4281416760
-0.33669379 -0.018933956 -0.01959488 4281414956
-0.33563411 -0.018411376 -0.018051475 4280628267
-0.33458418 -0.017893495 -0.016522175 4280564013
-0.33425698 -0.017176604 -0.015930364 4280826157
-0.33357465 -0.016564768 -0.014879405 4280826931
-0.33307332 -0.015904825 -0.01406361 4281024051
-0.33275062 -0.015195644 -0.013479468 4281026363
-0.3324289 -0.014488521 -0.012897105 4281682236
-0.33245963 -0.01367707 -0.01277037 4281750078
-0.33231446 -0.012919428 -0.012416597 4284843071
-0.33234516 -0.012108463 -0.012289958 4285301827
-0.33237588 -0.011297449 -0.012163294 4282344772
-0.33240658 -0.010486383 -0.012036621 4281886131
-0.33261329 -0.0096189361 -0.012136585 4286350787
-0.3328203 -0.0087501341 -0.012236677 4287217294
-0.33302763 -0.0078799482 -0.012336916 4290757252
-0.33358982 -0.0068913111 -0.012893124 4291417272
-0.3339763 -0.0059575755 -0.013222802 4290951876
-0.33418548 -0.0050811274 -0.013324244 4290822094
-0.33439493 -0.0042033056 -0.013425787 4289251532
-0.33460474 -0.0033240744 -0.013527496 4288784084
-0.33517393 -0.0023187152 -0.014089721 4286365399
-0.33520499 -0.0014984017 -0.013961608 4285630166
-0.33559635 -0.00055038818 -0.014294895 4283543253
-0.33580801 0.00033591074 -0.014397684 4282806982
-0.33602005 0.0012235952 -0.014500665 4281896123
-0.3364138 0.0021788666 -0.014835712 4281493387
-0.3366268 0.0030701284 -0.014939249 4282016632
-0.33665803 0.0038952131 -0.014810394 4282280020
-0.33668929 0.0047203461 -0.014681512 4283325508
-0.33672053 0.0055455603 -0.01455264 4283853380
-0.33675179 0.0063708215 -0.014423759 4283791684
-0.33678305 0.0071961535 -0.014294848 4283724363
-0.33663237 0.0079508722 -0.013934257 4283459920
-0.33648199 0.00870449 -0.013574229 4283262799
-0.33615068 0.009385433 -0.012984343 4282999375
-0.33600101 0.010136358 -0.012625853 4282735435
-0.33585155 0.010886193 -0.012267912 4282471495
-0.33570233 0.011634946 -0.011910461 4282142276
-0.33555332 0.01238265 -0.011553584 4281813313
-0.3355844 0.013203433 -0.011425388 4281418301
-0.33579564 0.014099177 -0.0115256 4281220920
-0.33655021 0.015224002 -0.0123141 4280958006
-0.33676296 0.016124839 -0.012415336 4280826162
-0.33715826 0.017104754 -0.012747335 4280628273
-0.33755472 0.018087689 -0.013080333 4280496687
-0.33758605 0.018915148 -0.012951098 4280300590
-0.33798382 0.019902505 -0.013284894 4280366125
-0.3380152 0.020731332 -0.013155444 4280431661
-0.33823025 0.021641634 -0.013257857 4280431152
-0.33844566 0.022553394 -0.013360417 4280300848
-0.3384771 0.023383671 -0.013230743 4280300845
-0.33869284 0.024297561 -0.013333309 4280431918
-0.33890894 0.02521296 -0.013436046 4280431924
-0.33912539 0.026129812 -0.013538949 4280498740
-0.33934215 0.027048141 -0.01364196 4280497205
-0.33955923 0.027967937 -0.013745131 4280497205
-0.33977672 0.028889244 -0.013848498 4280497968
-0.33999446 0.02981201 -0.013951955 4280562991
-0.34021258 0.03073629 -0.014055587 4280562991
-0.34061816 0.031751953 -0.014394093 4280565039
-0.34064984 0.032589301 -0.014263319 4280565059
-0.34105673 0.033609577 -0.014602656 4281221704
-0.3410885 0.034448329 -0.014471664 4281420095
-0.34149668 0.035473157 -0.014811776 4282335034
-0.34171718 0.036407243 -0.014916616 4282798145
-0.34174901 0.037248161 -0.014785286 4283592774
-0.34178084 0.038089104 -0.014653952 4284182088
-0.34162393 0.038834285 -0.014286839 4283648843
-0.34184456 0.039771214 -0.014391237 4283124559
-0.34168759 0.040515192 -0.014024328 4282340692
-0.34171942 0.041355759 -0.013893039 4281154121
-0.34175125 0.042196382 -0.013761759 4281153844
-0.34178308 0.043037046 -0.013630471 4281159499
-0.34181491 0.043877792 -0.013499158 4282747790
-0.42527223 -0.0054334518 -0.13869764 4290808981
-0.42531532 -0.0042949826 -0.13851987 4286017428
-0.42535841 -0.0031564482 -0.13834207 4285821559
-0.42540148 -0.002017841 -0.13816428 4286873462
-0.42270201 -0.0015804574 -0.13440157 4286935924
-0.33628452 -0.022859452 -0.021272279 4286806900
-0.33649862 -0.021983832 -0.021381702 4286796624
-0.33598241 -0.021301169 -0.020537825 4282072654
-0.3360137 -0.020474698 -0.020408761 4281744441
-0.33568123 -0.01974744 -0.019805575 4281351224
-0.33516893 -0.019072376 -0.018968521 4281284908
-0.33447909 -0.01845067 -0.017901115 4280497195
-0.33361501 -0.01788326 -0.016607955 4280431917
-0.33311203 -0.017218411 -0.015785784 4280498477
-0.33243471 -0.016607784 -0.014737653 4280564018
-0.33193704 -0.015949212 -0.013924031 4280892723
-0.33161679 -0.015241513 -0.013341445 4280894523
-0.33147234 -0.014483331 -0.012987564 4281485628
-0.33132812 -0.013726216 -0.012634194 4281553726
-0.33118412 -0.012970218 -0.012281338 4287007294
-0.33121473 -0.012161029 -0.012154994 4287653699
-0.33142003 -0.011296894 -0.012254849 4284112452
-0.3314507 -0.010487 -0.012128376 4283612867
-0.33165634 -0.0096208109 -0.012228251 4289896154
-0.331687 -0.0088101774 -0.012101682 4290997147
-0.33206856 -0.0078843608 -0.012428476 4289053583
-0.33262771 -0.0068971803 -0.012984048 4288709325
-0.33301213 -0.0059648342 -0.013313388 4287673819
-0.33322021 -0.0050896988 -0.013414729 4287398633
-0.33342862 -0.0042131608 -0.013516217 4287941612
-0.33363739 -0.0033352321 -0.013617875 4288076534
-0.33402479 -0.0023936906 -0.013949369 4290306041
-0.33423448 -0.0015122534 -0.014051572 4291015160
-0.33444443 -0.0006294343 -0.014153876 4290038519
-0.33465475 0.00025480444 -0.014256344 4289709027
-0.33486539 0.0011404491 -0.014358983 4290097627
-0.33525646 0.0020934376 -0.014693083 4290298016
-0.33528757 0.0029159838 -0.014564643 4290020997
-0.3354992 0.0038058679 -0.014667735 4289633113
-0.33534983 0.0045612492 -0.014307735 4287459394
-0.33556151 0.005452516 -0.01441061 4286339138
-0.33559266 0.0062759384 -0.014282036 4283986754
-0.33562383 0.0070994082 -0.014153434 4282614090
-0.33547437 0.0078525245 -0.013793789 4283658831
-0.33532518 0.0086045247 -0.013434729 4284376655
-0.3349964 0.0092841182 -0.012846404 4283458127
-0.33484793 0.010033433 -0.012488838 4282603851
-0.33469966 0.010781689 -0.012131845 4282274376
-0.33455163 0.01152887 -0.011775316 4281945158
-0.33458263 0.012348386 -0.011647355 4281681732
-0.33461362 0.013167954 -0.011519383 4281418303
-0.33482382 0.014062374 -0.011619548 4281221176
-0.33503425 0.014958194 -0.011719831 4280892469
-0.3357859 0.016084874 -0.012508277 4280826161
-0.33599791 0.016985798 -0.012609651 4280693808
-0.33657342 0.018044708 -0.013172576 4280628015
-0.33660465 0.018870909 -0.013043571 4280498735
-0.33700028 0.019856729 -0.013377 4280960814
-0.3370316 0.020684339 -0.013247757 4282398766
-0.33724555 0.021593239 -0.0133501 4282073902
-0.33745983 0.022503579 -0.013452563 4281087790
-0.33767447 0.023415398 -0.013555198 4281022765
-0.33788943 0.024328673 -0.013657979 4280562990
-0.33792087 0.02515913 -0.013528296 4280562995
-0.33813617 0.026074568 -0.013631081 4280563507
-0.33835182 0.026991472 -0.013734065 4280562993
-0.33838329 0.027823392 -0.013604154 4280497201
-0.33859932 0.028742483 -0.01370717 4280498222
-0.33881566 0.029663056 -0.013810295 4280628270
-0.33903232 0.030585105 -0.013913576 4280628783
-0.33924937 0.031508643 -0.014017062 4280628271
-0.33928096 0.032343432 -0.013886705 4280563759
-0.33968443 0.03336018 -0.014224381 4280890671
-0.33990246 0.034288216 -0.014328307 4281023534
-0.34012082 0.035217725 -0.014432342 4281481261
-0.34052688 0.036242306 -0.014771924 4281746482
-0.34055862 0.037081297 -0.014640915 4282270005
-0.34059036 0.037920333 -0.014509897 4282729526
-0.34062213 0.038759444 -0.014378871 4282533175
-0.34084156 0.039694902 -0.014483142 4282271030
-0.34068564 0.040437825 -0.01411679 4281813556
-0.34071738 0.041277118 -0.013985734 4280956980
-0.34074914 0.042116493 -0.013854668 4281023029
-0.34078091 0.042955909 -0.013723576 4281158728
-0.34081268 0.043795377 -0.013592494 4282747275
-0.42339072 -0.0055295541 -0.1381073 4290808180
-0.42343363 -0.0043946523 -0.13793011 4285887346
-0.42313439 -0.0033451719 -0.13730316 4285756018
-0.42317724 -0.0022112951 -0.13712613 4286873201
-0.42185816 -0.0014271799 -0.135161 4286935925
-0.33457834 -0.023030257 -0.020401556 4286806901
-0.33479011 -0.022158749 -0.020509781 4286796624
-0.33482128 -0.021334175 -0.020381045 4282072141
-0.3346718 -0.020558462 -0.020015633 4281744443
-0.33434239 -0.01983328 -0.019414874 4281285178
-0.33419362 -0.019060364 -0.019051017 4281284910
-0.33332926 -0.0184898 -0.017751498 4280497197
-0.33247149 -0.017923478 -0.016461872 4280431916
-0.33197224 -0.017259995 -0.015641894 4280497452
-0.33147523 -0.016599476 -0.014825596 4280498224
-0.3308059 -0.015993362 -0.013785142 4280826928
-0.33066216 -0.015235207 -0.013431205 4280894264
-0.3305186 -0.014478121 -0.013077793 4281418809
-0.33037528 -0.013722117 -0.012724912 4281487935
-0.33040589 -0.012913584 -0.012598668 4287270720
-0.33043644 -0.012104969 -0.01247243 4288111169
-0.330641 -0.011241399 -0.012572449 4284446273
-0.33067161 -0.010432056 -0.012446096 4283945948
-0.3308765 -0.0095664458 -0.012546164 4290499064
-0.33108169 -0.0086994888 -0.012646358 4291716233
-0.33146232 -0.007773445 -0.012973998 4288828278
-0.33184409 -0.0068445676 -0.013302586 4288174680
-0.33222705 -0.0059128162 -0.013632185 4286932306
-0.33243436 -0.0050382437 -0.013733738 4286603898
-0.33264199 -0.0041622748 -0.013835395 4287651974
-0.33267283 -0.0033463582 -0.013708004 4287940769
-0.33305824 -0.0024062258 -0.014039188 4291208108
-0.33308911 -0.0015889155 -0.013911596 4292256889
-0.33347571 -0.00064456573 -0.014243531 4291864168
-0.33332866 0.00010991206 -0.013885851 4291676524
-0.33371595 0.0010576982 -0.014218028 4292455790
-0.33392549 0.0019427013 -0.014320441 4292727221
-0.33395651 0.0027627936 -0.014192401 4292257747
-0.33416641 0.0036498972 -0.014294875 4292065180
-0.33419746 0.0044707144 -0.014166722 4288850816
-0.33440775 0.00535993 -0.014269256 4287131544
-0.33425954 0.0061125504 -0.013910384 4284048291
-0.33446988 0.007003142 -0.014012705 4282219886
-0.3341426 0.007684554 -0.013423976 4283729993
-0.33399487 0.0084344493 -0.013066309 4284838990
-0.33384731 0.0091832709 -0.012709128 4283588434
-0.3337 0.0099310102 -0.012352504 4282537804
-0.33355296 0.010677673 -0.011996435 4282208583
-0.33340609 0.01142326 -0.011640854 4281814083
-0.33343703 0.012240966 -0.011513173 4281615935
-0.33346793 0.013058719 -0.011385502 4281418300
-0.33367673 0.013951049 -0.011485369 4281221432
-0.33406425 0.014920137 -0.01181345 4280892470
-0.33481175 0.016045047 -0.012601013 4280825906
-0.33502269 0.016944613 -0.012702276 4280694065
-0.33559501 0.018001838 -0.013264573 4280628270
-0.33562621 0.018826824 -0.01313576 4280565563
-0.33601972 0.019811131 -0.013468876 4281360731
-0.33605096 0.020637505 -0.013339864 4283591007
-0.33626384 0.021544999 -0.01344211 4283259505
-0.33647701 0.022453962 -0.013544509 4281690991
-0.33669052 0.023364376 -0.013647057 4281549692
-0.33690435 0.024276257 -0.013749755 4280708475
-0.33693573 0.025105465 -0.013620283 4280694635
-0.33714992 0.026019514 -0.013723032 4280637543
-0.3371813 0.02684949 -0.013593444 4280628811
-0.33739591 0.027765688 -0.013696229 4280500555
-0.33742729 0.028596431 -0.01356654 4280498995
-0.33764222 0.029514797 -0.013669327 4280694321
-0.33785748 0.030434625 -0.0137723 4280694575
-0.33807307 0.03135597 -0.013875443 4280628527
-0.33810458 0.032188881 -0.013745399 4280628528
-0.33850524 0.033203062 -0.014082081 4280562993
-0.33872187 0.034128882 -0.014185674 4280562736
-0.33893877 0.035056144 -0.01428938 4280497200
-0.33915606 0.035984915 -0.014393243 4280431924
-0.33918768 0.036821358 -0.014262649 4280563510
-0.33940536 0.037752356 -0.014366577 4280694583
-0.33943701 0.038589552 -0.014235867 4280825655
-0.33965498 0.039522756 -0.014339794 4280957238
-0.33968669 0.040360723 -0.014208964 4280825908
-0.33971837 0.041198738 -0.014078125 4280564021
-0.33975005 0.042036835 -0.013947275 4280761141
-0.33959532 0.042776458 -0.013582173 4281224006
-0.33981344 0.043713208 -0.013685548 4282549636
-0.42421624 -0.0060974695 -0.14131781 4288652202
-0.42425936 -0.0049565751 -0.14113972 4288576113
-0.42430246 -0.0038155718 -0.14096162 4286411631
-0.42434555 -0.0026745023 -0.1407835 4286347377
-0.42473444 -0.001445329 -0.14106153 4286938737
-0.3332139 -0.023927383 -0.020137852 4286936437
-0.33396268 -0.022918377 -0.020955615 4286479221
-0.33417398 -0.022046728 -0.021064289 4286468176
-0.33402497 -0.021270489 -0.020698374 4281744461
-0.33387616 -0.020495389 -0.020333003 4281481275
-0.33354819 -0.019770803 -0.019732235 4281285178
-0.33322126 -0.019048378 -0.019133313 4281283630
-0.33236191 -0.018478664 -0.017835513 4280366125
-0.33150905 -0.017913228 -0.016547473 4280300844
-0.33101273 -0.017250717 -0.015728571 4280431916
-0.33034423 -0.016642233 -0.014684606 4280431920
-0.32985315 -0.015985955 -0.013874198 4280826672
-0.3297103 -0.015228912 -0.013520754 4280827191
-0.3295677 -0.014472939 -0.013167799 4281090616
-0.32959822 -0.013665006 -0.013041683 4281158207
-0.32962874 -0.012857022 -0.012915562 4287270720
-0.32965925 -0.01204899 -0.012789431 4288174913
-0.32986307 -0.011185972 -0.012889631 4285429825
-0.33006716 -0.010321603 -0.01298998 4284931040
-0.3302716 -0.009455882 -0.013090469 4289387518
-0.33047631 -0.0085887872 -0.013191099 4290140038
-0.33068132 -0.0077203345 -0.013291884 4288755824
-0.33106163 -0.0067920149 -0.013620725 4288431422
-0.33109233 -0.0059792926 -0.013493864 4287909682
-0.33129829 -0.005106708 -0.013595058 4287796577
-0.33132902 -0.0042932718 -0.013468087 4287584110
-0.3317112 -0.0033574109 -0.013797917 4287522956
-0.33174199 -0.0025426277 -0.013670721 4287853974
-0.33194894 -0.0016652209 -0.013772277 4287918422
-0.33215618 -0.0007864252 -0.013873938 4290087488
-0.332187 2.9796276e-05 -0.013746537 4290867787
-0.3323946 0.00091064582 -0.013848244 4290283855
-0.33277985 0.0018583091 -0.01417984 4289963708
-0.33281076 0.0026765615 -0.014052102 4288453869
-0.33301929 0.0035616076 -0.014154269 4287660467
-0.33305025 0.004380607 -0.014026418 4287012244
-0.33325917 0.0052677509 -0.01412863 4286552245
-0.33311215 0.006018782 -0.013770687 4286936009
-0.33314309 0.0068379613 -0.013642827 4287259772
-0.33299631 0.0075873598 -0.013285529 4286742087
-0.33284974 0.0083356509 -0.012928792 4286217805
-0.33252642 0.0090121273 -0.01234437 4284178771
-0.33255729 0.0098290406 -0.012216846 4282340685
-0.33241138 0.010574133 -0.011861683 4281946182
-0.33244222 0.011390581 -0.011734233 4281616962
-0.33229652 0.012134042 -0.011379666 4281418813
-0.33250394 0.013023622 -0.011479313 4281156155
-0.33271164 0.013914617 -0.01157908 4281024312
-0.3330971 0.01488224 -0.011906854 4280892470
-0.33348373 0.01585287 -0.012235575 4280826163
-0.33405036 0.016903555 -0.012794674 4280694065
-0.33443993 0.017881086 -0.013126018 4280694062
-0.3346507 0.018782884 -0.013227751 4280698177
-0.33504206 0.019765649 -0.013560494 4281761145
-0.33507323 0.020590788 -0.013431692 4284912001
-0.33546591 0.021577952 -0.01376524 4284842654
-0.33549714 0.022404505 -0.013636219 4284717730
-0.33570954 0.023313534 -0.013738699 4284643258
-0.33592227 0.024224004 -0.013841321 4284063159
-0.33595356 0.025051974 -0.013712061 4284050838
-0.33616668 0.025964612 -0.013814736 4283922580
-0.336198 0.02679337 -0.013685356 4283789668
-0.33641145 0.027708165 -0.013788059 4283584354
-0.33644277 0.028537661 -0.013658579 4283584567
-0.3366566 0.029454626 -0.013761315 4281088563
-0.33668795 0.03028488 -0.013631719 4280759856
-0.33690214 0.031204008 -0.01373451 4280694319
-0.33693355 0.03203503 -0.013604777 4280629042
-0.33714807 0.032956321 -0.013707591 4280956211
-0.33736295 0.033879109 -0.013810563 4281025076
-0.33757815 0.034803391 -0.013913712 4281547572
-0.33797801 0.035821863 -0.014250634 4281876534
-0.33800954 0.036656395 -0.014120356 4281613880
-0.33822575 0.037585147 -0.014223974 4281481016
-0.33825731 0.03842045 -0.014093576 4281219127
-0.33847386 0.039351381 -0.014197159 4280891446
-0.33832046 0.040091239 -0.013832754 4280825909
-0.33853704 0.041023601 -0.01393613 4280694837
-0.33856863 0.041859772 -0.013805597 4280826677
-0.33860025 0.042696036 -0.013675055 4281158211
-0.33881727 0.043631304 -0.013778372 4282483062
-0.42267644 -0.0061089266 -0.14117287 4288381864
-0.42271942 -0.0049703727 -0.14099519 4288313199
-0.42276242 -0.0038317181 -0.14081746 4286478957
-0.33024234 -0.026037468 -0.017902493 4286413175
-0.33203518 -0.02477373 -0.020110901 4286939511
-0.33242184 -0.023862096 -0.02045412 4286936436
-0.33316761 -0.022853628 -0.021272268 4286476916
-0.33337811 -0.021982543 -0.021381121 4286402380
-0.33322978 -0.021206919 -0.021015247 4281742922
-0.33308166 -0.020432411 -0.020649906 4281415476
-0.33275518 -0.019708414 -0.020049177 4281284915
-0.33225182 -0.01903639 -0.019215431 4281283375
-0.33157393 -0.018417515 -0.018152187 4280365871
-0.33072472 -0.017852701 -0.016863981 4280300846
-0.3302305 -0.017190805 -0.016044959 4280431406
-0.32956484 -0.016582878 -0.015000864 4280431917
-0.32907587 -0.015927222 -0.014190376 4280760365
-0.32893372 -0.015170717 -0.013836951 4280826675
-0.32879174 -0.014415327 -0.013484041 4281089844
-0.32882223 -0.013607972 -0.013358034 4281092409
-0.32885271 -0.012800545 -0.013232014 4287335993
-0.32905573 -0.011938775 -0.013332526 4288174658
-0.32925907 -0.011075647 -0.013433149 4285559875
-0.32946268 -0.01021114 -0.013533916 4285127644
-0.32966661 -0.0093452828 -0.01363484 4289110776
-0.32969722 -0.0085351504 -0.013508401 4289809516
-0.32990146 -0.0076672607 -0.013609348 4288773451
-0.33010605 -0.0067980117 -0.013710431 4288500291
-0.33013669 -0.0059864628 -0.013583773 4288174657
-0.33034161 -0.0051151603 -0.01368492 4288062888
-0.3303723 -0.0043029045 -0.013558136 4287522501
-0.33057752 -0.0034295588 -0.013659305 4287386483
-0.3307831 -0.0025548392 -0.013760628 4286926168
-0.33081383 -0.0017411562 -0.013633621 4286732682
-0.33119518 -0.00080123142 -0.013963706 4289567639
-0.33105052 -4.9972292e-05 -0.013607893 4290667355
-0.33125672 0.00082887086 -0.013709283 4289559876
-0.33163935 0.001774283 -0.014039934 4289042310
-0.33167017 0.0025907354 -0.013912514 4287195556
-0.33187735 0.0034737501 -0.01401433 4286207894
-0.33190823 0.0042909174 -0.013886782 4286283405
-0.33211577 0.0051760292 -0.013988682 4286290354
-0.33196995 0.0059254491 -0.013631674 4288062920
-0.33200079 0.0067428141 -0.013504112 4289231231
-0.33185518 0.007490613 -0.01314775 4287918406
-0.3317098 0.0082373284 -0.01279192 4286872139
-0.33156461 0.0089829816 -0.012436599 4284440400
-0.33159542 0.0097987177 -0.012309293 4282274123
-0.33145046 0.010542758 -0.011954616 4281879622
-0.33148125 0.011357998 -0.011827372 4281484865
-0.33151203 0.012173289 -0.01170012 4281287483
-0.33171865 0.013062268 -0.011799917 4281024569
-0.33192557 0.013952659 -0.011899899 4280958518
-0.33213285 0.014844457 -0.011999985 4280892212
-0.33251742 0.015813597 -0.012328403 4280826418
-0.33290312 0.01678572 -0.01265777 4280694578
-0.33346841 0.017838644 -0.01321785 4280694320
-0.33367813 0.018739074 -0.013319543 4280764994
-0.33406737 0.019720316 -0.013651901 4281895033
-0.33409849 0.020544253 -0.013523306 4285895548
-0.33448899 0.021529891 -0.01385649 4286093704
-0.33470029 0.022436839 -0.013958996 4287077005
-0.33491194 0.023345225 -0.014061674 4287077033
-0.33494318 0.024171935 -0.013932647 4287010984
-0.33497438 0.024998689 -0.013803611 4287012253
-0.33518636 0.02590991 -0.013906207 4286875293
-0.33521762 0.026737429 -0.013777054 4286884462
-0.33542997 0.027650829 -0.013879678 4286607723
-0.33546126 0.028479075 -0.013750395 4286605128
-0.33549252 0.029307434 -0.013621112 4281613636
-0.33570525 0.030223671 -0.013723686 4280890677
-0.33591834 0.031141378 -0.013826378 4280695090
-0.33594966 0.031971179 -0.01369687 4280629575
-0.33616307 0.032891061 -0.013799629 4281418572
-0.33619446 0.033721596 -0.013669992 4281686848
-0.33640823 0.034643646 -0.013772804 4283058233
-0.33662233 0.035567202 -0.013875708 4283912250
-0.33665374 0.036399201 -0.013745859 4283387707
-0.33686823 0.037324928 -0.013848837 4282858563
-0.33689967 0.038157687 -0.01371887 4281941836
-0.33711451 0.039085615 -0.013821899 4280696386
-0.33714598 0.039919145 -0.013691814 4280760375
-0.33736116 0.040849268 -0.013794841 4280957239
-0.33739266 0.04168357 -0.013664636 4281023286
-0.33742416 0.042517915 -0.013534406 4281091650
-0.33763972 0.043450937 -0.013637371 4282349688
-0.42114303 -0.0061202995 -0.14102855 4286807976
-0.42118588 -0.0049841134 -0.14085126 4286742127
-0.42122877 -0.0038478272 -0.14067392 4286675821
-0.42127162 -0.0027114665 -0.14049661 4286674808
-0.42063472 -0.0017496045 -0.13941436 4287070840
-0.33216429 -0.023658037 -0.021479588 4287070836
-0.33273122 -0.022694619 -0.022063889 4284969588
-0.3327623 -0.021870615 -0.02193531 4284829260
-0.33279341 -0.021046564 -0.021806711 4281153097
-0.33246681 -0.020320576 -0.021203255 4280890931
-0.33214122 -0.019596716 -0.02060171 4281153842
-0.33163923 -0.018924898 -0.019766709 4281152559
-0.33096322 -0.018306332 -0.018701803 4280496943
-0.33011627 -0.017741863 -0.017411524 4280431150
-0.3296234 -0.017080188 -0.01659129 4280365870
-0.3291328 -0.016421426 -0.01577477 4280365356
-0.32847193 -0.015817102 -0.014733855 4280563244
-0.32833022 -0.015060654 -0.014380036 4280563762
-0.32818869 -0.014305296 -0.014026729 4280761907
-0.32821915 -0.013497913 -0.013900734 4280828727
-0.3282496 -0.012690457 -0.013774727 4285828664
-0.32845214 -0.011828526 -0.013875667 4286539329
-0.32848263 -0.011020366 -0.013749553 4283594051
-0.32885814 -0.010100666 -0.014077917 4283090651
-0.3290616 -0.0092346715 -0.014179258 4290744567
-0.32909217 -0.0084244879 -0.014052829 4292180069
-0.32929596 -0.0075564897 -0.014154182 4289107779
-0.32932657 -0.0067455745 -0.014027638 4288370245
-0.32935715 -0.0059346082 -0.013901087 4288830789
-0.32956132 -0.0050639017 -0.014002403 4288922300
-0.32959193 -0.0042521991 -0.013875737 4289294557
-0.32962257 -0.0034404485 -0.013749067 4289348204
-0.32982707 -0.0025670032 -0.013850325 4288298566
-0.32985774 -0.0017545201 -0.013723522 4287990421
-0.3300626 -0.00087902066 -0.0138248 4289640372
-0.33009326 -6.5798624e-05 -0.0136979 4290209892
-0.33012396 0.00074747181 -0.013570975 4289887040
-0.33050397 0.0016906745 -0.013900709 4289704817
-0.3305347 0.002505302 -0.013773592 4289095819
-0.33074054 0.0033862772 -0.013875077 4288760458
-0.3307713 0.0042016441 -0.013747844 4287722890
-0.3309775 0.0050847051 -0.01384941 4287079855
-0.33083284 0.0058325478 -0.013493335 4289184200
-0.3308636 0.0066480879 -0.013366076 4290546047
-0.33089438 0.0074636987 -0.013238791 4287852614
-0.33074993 0.0082093645 -0.012883465 4285823050
-0.33060566 0.0089539373 -0.01252861 4283850574
-0.33063638 0.0097684916 -0.012401509 4281879370
-0.33066714 0.010583094 -0.01227438 4281616198
-0.33069786 0.011397745 -0.012147246 4281353025
-0.33072859 0.012212477 -0.012020116 4281155898
-0.33075935 0.013027279 -0.011892959 4280893240
-0.33114064 0.013990637 -0.012220248 4280827188
-0.33134714 0.014881858 -0.012320546 4280760883
-0.33173019 0.015850333 -0.012649184 4280760626
-0.3321144 0.016821837 -0.01297882 4280629298
-0.3324998 0.017796347 -0.013309473 4280694577
-0.33253077 0.018617082 -0.013181411 4280830531
-0.33309561 0.019675143 -0.013743106 4281894009
-0.33312663 0.020497877 -0.013614716 4285698425
-0.33333623 0.021401241 -0.013716745 4286030455
-0.33354613 0.022306062 -0.013818913 4287730299
-0.33375639 0.023212304 -0.013921275 4287599770
-0.33396694 0.024120022 -0.014023729 4287139995
-0.33399808 0.024945542 -0.013894904 4287143331
-0.334209 0.025855383 -0.013997415 4287468707
-0.33424017 0.026681684 -0.013868469 4287472759
-0.33445147 0.027593685 -0.013971057 4286354294
-0.33448267 0.028420724 -0.013842 4286278748
-0.33451387 0.029247835 -0.013712928 4281810776
-0.33454508 0.030074997 -0.013583851 4280956988
-0.33457628 0.030902211 -0.013454765 4281482549
-0.33460748 0.031729501 -0.013325667 4281615199
-0.33481923 0.032646425 -0.013427816 4281882992
-0.33503127 0.033564791 -0.013530122 4282014289
-0.33506253 0.034393553 -0.013400797 4282467905
-0.33545631 0.035405986 -0.013735194 4282927936
-0.33548766 0.036236119 -0.013605638 4282535999
-0.33551899 0.037066329 -0.013476088 4282270807
-0.33573207 0.03799051 -0.013578637 4281813107
-0.33594549 0.038916223 -0.013681325 4281225566
-0.33597687 0.03974786 -0.013551553 4281155899
-0.33619061 0.04067573 -0.013654264 4281023546
-0.33622202 0.041508157 -0.013524351 4281023287
-0.33643615 0.042438228 -0.013627131 4281091652
-0.33665064 0.043369792 -0.013730055 4282087036
-0.42029366 -0.0059662643 -0.14179298 4286608776
-0.42033651 -0.0048300084 -0.14161569 4286480254
-0.42037934 -0.0036936784 -0.14143839 4286740606
-0.4204222 -0.0025572781 -0.14126109 4286740090
-0.33205327 -0.024230599 -0.022875218 4287071610
-0.33208433 -0.023406694 -0.022746673 4287071341
-0.33229411 -0.022535358 -0.022856764 4284766316
-0.33232519 -0.021710694 -0.022728102 4284632390
-0.33217752 -0.020934574 -0.022360962 4281086532
-0.33185184 -0.020208703 -0.021756666 4280825394
-0.3315272 -0.019484987 -0.02115429 4281153072
-0.33120352 -0.018763416 -0.020553676 4281152558
-0.3303524 -0.018195113 -0.019251483 4280497197
-0.32968232 -0.017580504 -0.018191382 4280430890
-0.32919008 -0.016918637 -0.017368788 4280365610
-0.328527 -0.01631102 -0.016319929 4280365099
-0.32786795 -0.015706977 -0.015277383 4280496939
-0.32772663 -0.014950584 -0.01492317 4280497965
-0.32758552 -0.014195251 -0.014569481 4280760109
-0.32744467 -0.013441 -0.014216334 4280762673
-0.3274751 -0.012634122 -0.014090436 4285487666
-0.32767686 -0.011772772 -0.014191512 4286144574
-0.32787898 -0.010910079 -0.014292757 4283127104
-0.32825354 -0.0099901631 -0.014621945 4282628981
-0.32845655 -0.0091240574 -0.01472371 4290819203
-0.3284871 -0.0083138449 -0.014597295 4292709055
-0.32869041 -0.007445707 -0.014699082 4289183437
-0.32872099 -0.006634763 -0.014572552 4288373440
-0.32875153 -0.0058237421 -0.014446027 4288980413
-0.32878211 -0.0050126729 -0.014319479 4289191659
-0.32881269 -0.0042015556 -0.014192923 4289772279
-0.32901642 -0.0033293697 -0.014294447 4289942411
-0.32904702 -0.0025175165 -0.014167779 4288771431
-0.32907763 -0.0017055899 -0.014041098 4288393603
-0.32910827 -0.00089361868 -0.013914392 4289625230
-0.3291389 -8.1592698e-05 -0.013787696 4290071635
-0.32916951 0.0007305069 -0.013660989 4290008631
-0.32937366 0.001607426 -0.013762148 4289964908
-0.32940432 0.0024202613 -0.013635326 4289825159
-0.3296088 0.0032992351 -0.013736508 4289747076
-0.32963946 0.0041127843 -0.013609577 4288305281
-0.32984433 0.0049938201 -0.013710785 4287470245
-0.32987502 0.0058081052 -0.013583741 4289643710
-0.32990572 0.0066224677 -0.013456684 4291136121
-0.32993644 0.0074368748 -0.013329602 4287983940
-0.32979289 0.0081814593 -0.012974745 4285233478
-0.32964954 0.0089249946 -0.01262042 4283456584
-0.32985425 0.0098093469 -0.012720747 4281681733
-0.3297109 0.010551779 -0.012366595 4281483841
-0.32974157 0.011365258 -0.012239677 4281286716
-0.32977223 0.012178783 -0.012112737 4281089590
-0.32997704 0.013065839 -0.012212662 4280761397
-0.33018216 0.013954306 -0.012312715 4280761394
-0.33056256 0.014919176 -0.012640656 4280694833
-0.33094412 0.015887039 -0.012969557 4280694575
-0.33097494 0.016704585 -0.012841991 4280628783
-0.33153406 0.01775421 -0.013400831 4280694834
-0.33174163 0.018651916 -0.013502357 4280830273
-0.33212671 0.01963013 -0.013834044 4281893241
-0.3323352 0.020531438 -0.013936111 4285567868
-0.33254403 0.021434184 -0.014038346 4285967241
-0.33275315 0.022338375 -0.014140718 4288255370
-0.33278421 0.023161957 -0.014012211 4288188575
-0.33299366 0.024068281 -0.0141146 4287206815
-0.33302474 0.024892591 -0.013985982 4287208864
-0.33323461 0.02580104 -0.014088455 4288192160
-0.33326569 0.026626112 -0.013959736 4288191879
-0.33329681 0.027451254 -0.013830989 4286092165
-0.33332792 0.028276449 -0.013702236 4285885533
-0.33335903 0.029101694 -0.013573473 4281811031
-0.33339015 0.029926991 -0.013444703 4281023297
-0.3336004 0.030840343 -0.013546733 4282600764
-0.33363155 0.03166642 -0.013417845 4283127382
-0.33366269 0.032492548 -0.013288948 4282674273
-0.33369383 0.033318721 -0.013160042 4282470734
-0.33390453 0.034235623 -0.013261911 4281548610
-0.33411554 0.035153992 -0.013363966 4280959309
-0.33414674 0.035981607 -0.013234837 4281028436
-0.33453852 0.036995102 -0.013568449 4281093990
-0.33456978 0.037824135 -0.013439098 4281616249
-0.3347818 0.038747616 -0.013541444 4282407527
-0.33499414 0.039672561 -0.013643944 4282079817
-0.33520681 0.040598981 -0.013746606 4281286722
-0.33523813 0.041430157 -0.013616923 4281219638
-0.33545116 0.042358801 -0.013719632 4281091393
-0.33566451 0.043288905 -0.01382244 4282152825
-0.4200801 -0.0067845224 -0.14364862 4289822596
-0.42012298 -0.0056458856 -0.143471 4286476931
-0.4201659 -0.0045071435 -0.14329337 4286349184
-0.42020881 -0.0033683712 -0.14311568 4286674816
-0.42025173 -0.0022294563 -0.14293802 4286675578
-0.33108187 -0.024210941 -0.022951933 4286743930
-0.33129054 -0.02334157 -0.023062095 4286737004
-0.33132157 -0.022518164 -0.022933645 4283716203
-0.33135259 -0.021694738 -0.022805177 4283518022
-0.33138362 -0.020871233 -0.022676714 4281020995
-0.33105937 -0.020145956 -0.022072431 4280890673
-0.33055943 -0.019472357 -0.021233492 4280628528
-0.33041391 -0.018701881 -0.020869419 4280628013
-0.32939154 -0.018184418 -0.019333212 4280431661
-0.3288992 -0.017520202 -0.018506782 4280431657
-0.32858241 -0.016807916 -0.017915631 4280300073
-0.32792115 -0.016200606 -0.016865136 4280234283
-0.32743546 -0.015545159 -0.016049854 4280365867
-0.32729435 -0.014788286 -0.015694834 4280365868
-0.32715347 -0.014032455 -0.015340305 4280497452
-0.3271839 -0.013224386 -0.015214255 4280498480
-0.32704321 -0.0124702 -0.014860324 4281617712
-0.32724482 -0.01160805 -0.014962089 4281816381
-0.32727525 -0.010799782 -0.01483601 4283649087
-0.32764891 -0.0098796729 -0.01516603 4283982429
-0.32785141 -0.0090134274 -0.015268229 4284197219
-0.32788193 -0.0082031647 -0.015141821 4284252121
-0.32808477 -0.007334915 -0.015244032 4287350260
-0.32811531 -0.0065239165 -0.015117531 4288068067
-0.32831851 -0.005653624 -0.01521979 4291022814
-0.32834908 -0.0048419153 -0.015093159 4291880696
-0.3285526 -0.0039695674 -0.015195471 4292203007
-0.32858321 -0.003157127 -0.015068726 4292329109
-0.32861382 -0.0023446057 -0.014941987 4291996274
-0.32864442 -0.0015320397 -0.014815222 4291743357
-0.32867503 -0.00071940012 -0.014688447 4291785601
-0.32853261 2.9661922e-05 -0.01433319 4291854924
-0.32856321 0.00084179005 -0.014206494 4291322932
-0.32859382 0.0016539922 -0.01407979 4291072106
-0.32862443 0.0024662423 -0.013953078 4290414982
-0.32882816 0.0033446231 -0.014054451 4290076544
-0.32885879 0.0041576088 -0.013927625 4289022845
-0.32888943 0.0049706465 -0.013800791 4288255393
-0.32892004 0.0057837572 -0.013673945 4289251001
-0.32895067 0.0065969168 -0.013547095 4289955447
-0.32898131 0.0074101528 -0.013420231 4287983427
-0.32901195 0.0082234368 -0.013293359 4286149700
-0.32904261 0.0090367654 -0.013166464 4283782213
-0.32907325 0.0098501751 -0.013039574 4281418562
-0.32910389 0.010663632 -0.012912679 4281286462
-0.32913455 0.011477163 -0.012785771 4281089338
-0.32916522 0.012290742 -0.012658838 4280957748
-0.32919586 0.013104373 -0.012531916 4280694835
-0.32957414 0.014066496 -0.012859685 4280629296
-0.32960483 0.01488148 -0.012732553 4280497711
-0.32998437 0.015847873 -0.013061111 4280497708
-0.33001512 0.016664214 -0.012933766 4280497454
-0.33074689 0.017789615 -0.013721209 4280629298
-0.33077773 0.018608555 -0.013593461 4280961858
-0.33116072 0.019585239 -0.013924773 4281828473
-0.33154494 0.020564977 -0.014257088 4285566846
-0.33157587 0.021386586 -0.014128924 4285766040
-0.3319613 0.022370666 -0.014462054 4287142297
-0.33181491 0.023111751 -0.014102913 4287273380
-0.33202332 0.024016716 -0.014205273 4288322212
-0.33205435 0.0248398 -0.014076863 4288325021
-0.33208534 0.025662962 -0.01394846 4287867549
-0.33211637 0.026486203 -0.013820027 4287800984
-0.33214739 0.027309487 -0.013691587 4286158232
-0.33217838 0.028132826 -0.013563158 4285951326
-0.33220941 0.028956234 -0.0134347 4281942870
-0.33241829 0.029866735 -0.013536525 4281024586
-0.33244935 0.030690901 -0.013407948 4282869318
-0.33248037 0.031515118 -0.013279385 4283455815
-0.33268961 0.032428443 -0.013381137 4283268680
-0.3327207 0.033253413 -0.013252438 4283200326
-0.33275178 0.034078427 -0.013123733 4283061060
-0.33296144 0.034994621 -0.013225455 4283061349
-0.33317137 0.035912257 -0.013327274 4282740867
-0.33320248 0.036738716 -0.013198363 4282608261
-0.33359221 0.037751928 -0.013531442 4283058311
-0.33362341 0.038579781 -0.013402295 4283520125
-0.33383435 0.039502524 -0.01350447 4283063147
-0.33404562 0.040426727 -0.013606785 4281880669
-0.33425719 0.041352443 -0.013709258 4281744180
-0.33446914 0.042279612 -0.013811854 4281026109
-0.33486262 0.043306384 -0.014147359 4281824623
-0.419186 -0.0077688242 -0.14459236 4289764014
-0.41922882 -0.0066301785 -0.14441478 4289756026
-0.41927171 -0.0054915026 -0.14423718 4286478968
-0.41931456 -0.0043527214 -0.14405955 4286349177
-0.41935745 -0.0032138706 -0.14388192 4286674809
-0.41940033 -0.0020749161 -0.14370427 4286675833
-0.3304669 -0.024099272 -0.023505375 4286675577
-0.33085257 -0.023182958 -0.023855228 4286669913
-0.33070609 -0.022406351 -0.023487538 4283519575
-0.33073711 -0.021582844 -0.02335909 4283321155
-0.33076811 -0.020759309 -0.023230642 4281020738
-0.33044478 -0.020034177 -0.022625525 4280890674
-0.32994625 -0.019360781 -0.021785315 4280562481
-0.32962543 -0.018640438 -0.021184703 4280496941
-0.32860741 -0.018123595 -0.01964823 4280431404
-0.32811719 -0.017459987 -0.018821748 4280431657
-0.32797468 -0.016697211 -0.018462528 4280235049
-0.32731524 -0.01609016 -0.017410373 4280234284
-0.3266598 -0.015486698 -0.016364589 4280365869
-0.32669023 -0.01467809 -0.016238471 4280365611
-0.32654977 -0.013922335 -0.015883569 4280431402
-0.32640952 -0.01316765 -0.015529157 4280432428
-0.32643992 -0.01236006 -0.015403199 4280761388
-0.32647032 -0.01155242 -0.015277215 4280832053
-0.32667148 -0.010689477 -0.015379312 4283843639
-0.32704419 -0.0097691454 -0.015710175 4284368957
-0.32724622 -0.0089027947 -0.015812781 4282342718
-0.32744855 -0.0080350889 -0.015915535 4281887578
-0.3276512 -0.0071660061 -0.016018424 4286607206
-0.32768175 -0.0063543683 -0.015891839 4287936882
-0.32788476 -0.0054832334 -0.01599478 4291662197
-0.32791534 -0.0046708598 -0.015868062 4292726934
-0.32811865 -0.0037977002 -0.015971048 4293047713
-0.32814926 -0.0029845943 -0.015844217 4293121960
-0.32817987 -0.0021714338 -0.015717395 4293053865
-0.32821047 -0.0013581985 -0.015590546 4293058506
-0.32806829 -0.00060810772 -0.015234376 4292724951
-0.32809886 0.00020461508 -0.015107621 4292526283
-0.32795686 0.00095308264 -0.014752052 4291870400
-0.32798746 0.0017653097 -0.014625358 4291538640
-0.32784563 0.0025121684 -0.014270409 4290754521
-0.32804862 0.0033899667 -0.014371944 4290215118
-0.32807919 0.0042023701 -0.014245243 4289300164
-0.32810977 0.005014848 -0.014118514 4288659142
-0.32814038 0.0058273734 -0.013991777 4289046472
-0.32817096 0.0066399728 -0.01386503 4289359231
-0.32820156 0.0074526239 -0.013738276 4287918655
-0.32823217 0.0082653482 -0.013611509 4286673986
-0.32826275 0.0090780985 -0.013484741 4283977284
-0.32846624 0.0099620102 -0.013585697 4281220927
-0.32849684 0.010775496 -0.013458813 4281089081
-0.32852748 0.011589081 -0.013331914 4280957750
-0.32855812 0.012402689 -0.01320501 4280826161
-0.32876194 0.013289995 -0.013305784 4280694320
-0.32896611 0.014178691 -0.013406706 4280562991
-0.32899678 0.014993726 -0.013279581 4280366126
-0.32920131 0.015884515 -0.013380555 4280366125
-0.32923201 0.01670029 -0.013253316 4280431662
-0.32943684 0.017593157 -0.013354304 4280563761
-0.32981664 0.018565333 -0.0136843 4281027392
-0.33037311 0.019619392 -0.014245045 4281894775
-0.33057976 0.020518724 -0.014347234 4285565820
-0.33078671 0.021419488 -0.014449594 4285630616
-0.33099395 0.022321682 -0.01455205 4286032537
-0.33102491 0.023143468 -0.01442386 4286227372
-0.33105585 0.023965303 -0.014295682 4289570987
-0.33108678 0.024787191 -0.014167476 4289572510
-0.33111772 0.025609128 -0.014039282 4287406750
-0.33114868 0.026431166 -0.013911054 4287344523
-0.33117962 0.027253227 -0.01378284 4286223754
-0.33121055 0.028075362 -0.013654615 4286082655
-0.33124152 0.028897554 -0.013526367 4282008150
-0.33144933 0.029806674 -0.01362812 4281092686
-0.33165744 0.03071725 -0.013730059 4283327819
-0.33168846 0.031540863 -0.013601589 4284043078
-0.33171946 0.032364558 -0.013473124 4284378693
-0.33175048 0.033188317 -0.013344632 4284585294
-0.33195898 0.034102377 -0.013446355 4286283092
-0.3321678 0.035017934 -0.013548232 4287593573
-0.33219889 0.035843108 -0.013419518 4287136884
-0.33222994 0.03666836 -0.013290795 4286539126
-0.33261758 0.037679967 -0.013623499 4286666615
-0.33264866 0.038506575 -0.013494581 4286797681
-0.33285853 0.039427906 -0.01359667 4286008419
-0.33306873 0.040350683 -0.013698953 4284109400
-0.33327922 0.041274935 -0.013801348 4283514166
-0.33349004 0.042200681 -0.01390388 4280894269
-0.33388141 0.043225802 -0.014238998 4281692014
-0.41833466 -0.0076145423 -0.14535858 4288583599
-0.41837752 -0.0064758612 -0.145181 4288511096
-0.41842031 -0.005337107 -0.14500342 4287462262
-0.41846317 -0.0041982862 -0.14482582 4287463032
-0.41850603 -0.0030593609 -0.14464819 4286412664
-0.41854888 -0.0019203675 -0.14447056 4286414201
-0.33235061 -0.023334155 -0.027444374 4285692025
-0.33220163 -0.022550246 -0.027070545 4285619029
-0.33205283 -0.021767508 -0.026697222 4283650387
-0.33208406 -0.020936977 -0.026567698 4283517763
-0.33193552 -0.020155951 -0.026195085 4280889666
-0.33160791 -0.019426106 -0.025580773 4280759602
-0.33110282 -0.018748933 -0.024727309 4280628017
-0.33042267 -0.018125547 -0.023638314 4280628012
-0.32747835 -0.018163113 -0.019496007 4280431404
-0.3271639 -0.017450389 -0.018903829 4280365865
-0.32702231 -0.016688744 -0.018545091 4280300585
-0.32636672 -0.016082592 -0.017494338 4280300589
-0.32588524 -0.015428315 -0.016678892 4280431405
-0.3259156 -0.014620286 -0.016552884 4280431658
-0.3257758 -0.013865094 -0.016198007 4280365866
-0.3258062 -0.013057526 -0.016072067 4280300843
-0.32566661 -0.012303943 -0.015717836 4280563499
-0.32586697 -0.011442242 -0.015820153 4280629811
-0.32606766 -0.010579162 -0.015922666 4281220661
-0.32643944 -0.0096586412 -0.01625436 4281548340
-0.3264699 -0.0088489503 -0.016128093 4281419572
-0.32667148 -0.0079818303 -0.016231019 4281420342
-0.32687336 -0.0071133072 -0.016334085 4282469431
-0.32707554 -0.0062434468 -0.016437313 4282736204
-0.32745028 -0.0053125815 -0.016770974 4283720274
-0.32748085 -0.0044995653 -0.016644189 4284313461
-0.32768399 -0.0036255671 -0.016747838 4284452481
-0.32771459 -0.0028118149 -0.01662094 4284449198
-0.3277452 -0.0019979854 -0.01649403 4284790719
-0.32777584 -0.0011841109 -0.016367098 4284915175
-0.32763383 -0.00043352865 -0.016010093 4286040825
-0.32749206 0.00031596757 -0.01565361 4286360573
-0.32752261 0.0011287893 -0.015526859 4287024895
-0.32738104 0.0018766619 -0.015170973 4287411455
-0.32723966 0.0026234665 -0.014815625 4287678207
-0.32727018 0.0034352625 -0.014689037 4287799794
-0.32730073 0.004247081 -0.014562428 4286558697
-0.32750329 0.0051263636 -0.014664173 4285704667
-0.32736182 0.0058709681 -0.014309186 4285101776
-0.32739237 0.0066829817 -0.014182548 4284508033
-0.32742292 0.0074950471 -0.014055902 4285496380
-0.32745349 0.0083071897 -0.013929244 4286410304
-0.32765615 0.0091898302 -0.014030487 4283843908
-0.32785913 0.010073856 -0.014131865 4280958013
-0.32788974 0.010887394 -0.014004992 4280892213
-0.32809305 0.011773461 -0.014106398 4280826163
-0.32812369 0.012587734 -0.01397941 4280760111
-0.32815433 0.013402084 -0.013852411 4280628527
-0.32835799 0.014290919 -0.013953755 4280496942
-0.32838866 0.015105982 -0.013826643 4280300334
-0.32841933 0.015921123 -0.013699538 4280366125
-0.32844999 0.016736312 -0.013572411 4280431406
-0.32865408 0.017628567 -0.013673601 4280563760
-0.32885846 0.018522236 -0.013774906 4280961599
-0.32941186 0.01957464 -0.014335046 4281828981
-0.32961744 0.020472638 -0.014437177 4285566586
-0.32999867 0.021452358 -0.014769777 4285766551
-0.33002952 0.022272848 -0.014641822 4287216282
-0.33006039 0.023093419 -0.014513857 4287271862
-0.33009127 0.023914058 -0.014385881 4289051061
-0.33012214 0.024734728 -0.014257882 4289044896
-0.33032876 0.025639066 -0.014360136 4287993759
-0.33018389 0.026376283 -0.014001891 4287868537
-0.33039054 0.027281975 -0.014103933 4286223221
-0.33042148 0.028103538 -0.013975799 4286017116
-0.33062842 0.029011324 -0.014077839 4281942615
-0.33065936 0.029833639 -0.013949605 4281025877
-0.33104339 0.030831276 -0.014282394 4283325524
-0.33107436 0.031654947 -0.014153951 4284238660
-0.33110538 0.032478686 -0.014025479 4283848253
-0.33113635 0.033302456 -0.013897018 4283729504
-0.33116734 0.034126326 -0.013768544 4285897336
-0.33119833 0.034950219 -0.013640047 4287597668
-0.33122936 0.035774209 -0.013511538 4286603343
-0.33143744 0.036690474 -0.013613388 4285547083
-0.33164585 0.037608206 -0.013715365 4286016069
-0.3316769 0.038433611 -0.013586652 4286677317
-0.3318857 0.039353516 -0.013688706 4285878085
-0.33209476 0.040274866 -0.013790873 4283784260
-0.33230415 0.041197699 -0.013893185 4283318336
-0.33251393 0.04212201 -0.013995685 4280893765
-0.33290315 0.043145459 -0.014330435 4281429607
-0.41748327 -0.0074602449 -0.14612485 4288317864
-0.41752607 -0.0063215247 -0.14594729 4288248698
-0.41756886 -0.0051826979 -0.14576973 4287661177
-0.41761169 -0.0040438036 -0.14559214 4287659639
-0.41765451 -0.0029048363 -0.14541456 4286412407
-0.41769734 -0.001765769 -0.14523694 4286348927
-0.32976639 -0.023736801 -0.025333028 4285489792
-0.33032939 -0.022770457 -0.025928089 4285421654
-0.33000547 -0.022039544 -0.025316589 4283650387
-0.32985941 -0.021262493 -0.02494722 4283517512
-0.32971352 -0.02048655 -0.024578441 4280890952
