# .PCD v0.7 - Point Cloud Data file format
VERSION 0.7
FIELDS x y z rgba
SIZE 4 4 4 4
TYPE F F F U
COUNT 1 1 1 1
WIDTH 988
HEIGHT 1
VIEWPOINT 0 0 0 1 0 0 0
POINTS 988
DATA ascii
-0.36625144 -0.020753864 -0.13235767 4283522395
-0.35843438 -0.024096893 -0.12077128 4283388755
-0.35665002 -0.024221404 -0.11769587 4282534993
-0.3551262 -0.024216045 -0.11499432 4282407240
-0.35315812 -0.024464849 -0.11167748 4284182086
-0.34829444 -0.026323965 -0.10431966 4284577108
-0.34065077 -0.029757025 -0.093100876 4284576856
-0.33911079 -0.029834222 -0.090426348 4284577368
-0.33799994 -0.029681187 -0.088356361 4283132760
-0.33730611 -0.029300639 -0.086871311 4282731336
-0.3366169 -0.028922569 -0.085396163 4281875523
-0.33593234 -0.028546959 -0.083930872 4281613886
-0.33525234 -0.028173765 -0.082475297 4281547836
-0.33457685 -0.027803022 -0.081029296 4281547836
-0.33390582 -0.027434623 -0.079592869 4281548093
-0.33284807 -0.027296782 -0.077627108 4281547832
-0.33199427 -0.027046695 -0.075946867 4281482037
-0.33076358 -0.027024936 -0.073753156 4281416246
-0.3297365 -0.026890915 -0.071844347 4281284919
-0.32871941 -0.026758114 -0.069953978 4281153590
-0.32771209 -0.026626544 -0.068081781 4280956725
-0.32671443 -0.026496176 -0.066227511 4280828211
-0.3257263 -0.026366986 -0.064390868 4281681202
-0.32492912 -0.026128491 -0.062818609 4282338880
-0.3243188 -0.025781358 -0.06150398 4282471757
-0.32371226 -0.025436386 -0.060197525 4282602573
-0.3231096 -0.025093516 -0.058899287 4282667852
-0.32286635 -0.024531825 -0.058089972 4282733645
-0.32244641 -0.024082614 -0.05704356 4283061071
-0.32220519 -0.023524603 -0.056240231 4283390029
-0.32214138 -0.022856899 -0.055677015 4283783499
-0.32190117 -0.022301978 -0.054877635 4284175432
-0.32183775 -0.021636685 -0.054316748 4284308292
-0.32212672 -0.020746958 -0.054228552 4284502597
-0.32223952 -0.019969376 -0.053903967 4284110920
-0.32235229 -0.019191738 -0.053579368 4283450951
-0.32264197 -0.018299242 -0.05349049 4283058758
-0.32257789 -0.017636279 -0.052930087 4282139206
-0.32269073 -0.016858481 -0.052605417 4282206278
-0.32262674 -0.016197015 -0.052046131 4282533704
-0.32256284 -0.015536505 -0.051487681 4282602323
-0.32232285 -0.014994085 -0.050697051 4282936922
-0.32208359 -0.014453245 -0.049908839 4283260287
-0.32184514 -0.013914042 -0.049123082 4285627007
-0.32160741 -0.01337646 -0.048339661 4285696128
-0.32137039 -0.012840451 -0.047558662 4286876545
-0.32113415 -0.012306034 -0.046780057 4286872217
-0.32107207 -0.011654754 -0.046231054 4287534745
-0.32083684 -0.01112327 -0.045456227 4287533969
-0.32060233 -0.010593375 -0.044683754 4287855504
-0.32019642 -0.01018419 -0.043689135 4287860626
-0.32013547 -0.0095382612 -0.043145794 4287795602
-0.32007465 -0.008893298 -0.042603206 4287727516
-0.32018551 -0.0081288973 -0.04228412 4285365406
-0.32029641 -0.0073644407 -0.041965023 4284899943
-0.32040727 -0.0065999129 -0.041645903 4285428564
-0.3205182 -0.0058353478 -0.041326743 4285759375
-0.32062909 -0.005070704 -0.041007575 4286087338
-0.32073998 -0.0043060118 -0.040688388 4286283942
-0.32067883 -0.0036651215 -0.040147949 4286086051
-0.32061774 -0.0030251336 -0.039608322 4285951889
-0.32055673 -0.0023860983 -0.039069459 4285226882
-0.32049584 -0.0017479461 -0.038531419 4284570991
-0.32060647 -0.00098531484 -0.038213074 4285293654
-0.3203744 -0.00047440096 -0.037457712 4286341974
-0.32031381 0.00016100574 -0.03692203 4286409301
-0.32025334 0.00079550175 -0.036387194 4286474582
-0.32036367 0.0015560485 -0.036069717 4286472282
-0.3203032 0.0021890942 -0.03553582 4286473047
-0.32024282 0.0028212771 -0.035002742 4286475851
-0.320353 0.0035808377 -0.034685683 4286409293
-0.32029268 0.0042115939 -0.034153592 4286405983
-0.32040277 0.0049706972 -0.033836737 4286144607
-0.32034245 0.0056000077 -0.033305638 4286145102
-0.32011226 0.0060984227 -0.032561995 4286148429
-0.3200523 0.0067255911 -0.032033041 4286211914
-0.31999248 0.0073518753 -0.031504843 4285750345
-0.31976351 0.0078463145 -0.030766098 4285621580
-0.31970406 0.0084704561 -0.030240005 4285951821
-0.31964469 0.0090936879 -0.02971467 4286149475
-0.31908086 0.0093211001 -0.028563032 4286214768
-0.31918994 0.01007331 -0.028249063 4286212448
-0.3191312 0.010693183 -0.027727133 4286012497
-0.31924024 0.01144494 -0.027413331 4285814599
-0.3191815 0.012063414 -0.026892344 4285617977
-0.31929049 0.012814724 -0.026578732 4285223490
-0.31923178 0.013431842 -0.026058726 4285224023
-0.31917319 0.014048086 -0.025539493 4285292883
-0.31911466 0.014663463 -0.025020981 4285289025
-0.31905627 0.015277985 -0.024503261 4285486914
-0.31899795 0.015891664 -0.02398628 4285489231
-0.31893972 0.016504442 -0.023470001 4285355599
-0.31904826 0.017252767 -0.023157619 4285354815
-0.31899008 0.01786422 -0.022642363 4285024827
-0.31909856 0.018612087 -0.022330185 4284893245
-0.31920704 0.019360017 -0.022017987 4284564543
-0.31914878 0.019969629 -0.02150386 4284300856
-0.3192572 0.020717116 -0.021191845 4283906353
-0.31936565 0.021464644 -0.020879801 4283382579
-0.31930733 0.022072369 -0.02036681 4283383861
-0.31924912 0.02267926 -0.019854588 4283382580
-0.3193574 0.023425842 -0.019542955 4283316018
-0.31913298 0.023890471 -0.018832339 4283052594
-0.31924114 0.024636079 -0.018521111 4283054393
-0.31901726 0.025098344 -0.017813059 4284172345
-0.31912526 0.025842957 -0.017502233 4284305982
-0.31906742 0.026445126 -0.016993871 4284567871
-0.31917536 0.027189275 -0.016683238 4284631880
-0.31928331 0.027933478 -0.016372597 4284433997
-0.31939128 0.028677743 -0.016061915 4284302926
-0.31966537 0.02956678 -0.015947837 4284041039
-0.31993988 0.030457148 -0.015833519 4283516243
-0.320048 0.031202683 -0.015522327 4283384412
-0.32049015 0.032242056 -0.015604381 4282927708
-0.32093358 0.033284541 -0.015686631 4282929231
-0.32087427 0.033883929 -0.015177527 4282989135
-0.32081509 0.034482483 -0.014669192 4282991413
-0.32092345 0.035229415 -0.014357405 4283449135
-0.32086426 0.035826609 -0.013849954 4283584330
-0.32114011 0.036723409 -0.013733787 4284047965
-0.3212485 0.037470486 -0.013421933 4284377712
-0.32152486 0.038369261 -0.013305261 4285167244
-0.36815307 -0.026888568 -0.14206778 4289290840
-0.36829156 -0.025933631 -0.1416692 4283387990
-0.36843005 -0.024978608 -0.14127058 4283258969
-0.36856854 -0.024023553 -0.14087194 4286348633
-0.36870706 -0.023068385 -0.14047326 4286542756
-0.36884558 -0.022113189 -0.14007457 4287394729
-0.3689841 -0.0211579 -0.13967584 4287526242
-0.36833781 -0.020620018 -0.13816264 4284771419
-0.36769521 -0.020085145 -0.13665809 4284377435
-0.36757359 -0.019274756 -0.13589437 4283455323
-0.36463511 -0.019991525 -0.13115028 4283322699
-0.36401263 -0.01946624 -0.12968796 4282534216
-0.36339363 -0.018943856 -0.12823382 4282341706
-0.36252877 -0.018561754 -0.12643696 4284117066
-0.35897642 -0.019675938 -0.12086906 4284511571
-0.33874118 -0.030115953 -0.091917239 4284444757
-0.33783501 -0.029846437 -0.090122953 4284379733
-0.33713996 -0.029464349 -0.088628262 4283059029
-0.33644956 -0.029084804 -0.087143518 4282662980
-0.3359651 -0.028592918 -0.085949324 4281876286
-0.33528271 -0.02821834 -0.0844822 4281614139
-0.33440599 -0.02796088 -0.082748458 4281548090
-0.3335366 -0.02770547 -0.08102905 4281548090
-0.33306617 -0.027223643 -0.079866648 4281547322
-0.33181909 -0.027200794 -0.077632442 4281547577
-0.33097094 -0.02695144 -0.075954944 4281482040
-0.32974797 -0.026930215 -0.073764704 4281416247
-0.32853889 -0.026909184 -0.071599267 4281284151
-0.32753003 -0.026776586 -0.069714651 4281153078
-0.32653078 -0.026645176 -0.067848101 4280961077
-0.32572466 -0.026403923 -0.066250853 4280831299
-0.32492495 -0.026164526 -0.064666279 4281684300
-0.32431266 -0.025816208 -0.063341632 4282341455
-0.32370427 -0.025470026 -0.062025361 4282472529
-0.32327899 -0.025015207 -0.060961477 4282603084
-0.32285571 -0.024562469 -0.059902623 4282669127
-0.32261249 -0.024000704 -0.059090458 4282734921
-0.32237002 -0.023440618 -0.058280814 4283061322
-0.32212836 -0.022882242 -0.057473682 4283521353
-0.3220644 -0.022213433 -0.056908201 4283914566
-0.32200056 -0.02154563 -0.056343567 4284437831
-0.32193679 -0.02087882 -0.055779733 4284571463
-0.32222676 -0.01998567 -0.055692464 4284765255
-0.32233989 -0.019205624 -0.055366874 4284441161
-0.32263041 -0.018310387 -0.055279102 4283717192
-0.32292137 -0.017413706 -0.055191163 4283323974
-0.32303467 -0.016632238 -0.054865003 4282081095
-0.32314801 -0.015850734 -0.054538809 4282008904
-0.32308334 -0.015186924 -0.053975403 4281681736
-0.32301879 -0.014524083 -0.053412836 4281746248
-0.32259986 -0.014098848 -0.052380279 4282010953
-0.32235923 -0.013557292 -0.051586397 4282273364
-0.32194349 -0.013135834 -0.050562046 4284830804
-0.32170483 -0.012597741 -0.049774021 4284973403
-0.32146695 -0.012061228 -0.048988421 4286671452
-0.32122979 -0.011526323 -0.048205171 4286675077
-0.32081956 -0.011112291 -0.047195643 4287399557
-0.32058433 -0.010580778 -0.046418138 4287401860
-0.32034984 -0.010050861 -0.045643009 4287790212
-0.32028854 -0.0094025647 -0.04509607 4287863184
-0.32022732 -0.0087552294 -0.044549976 4288054161
-0.32033861 -0.0079879044 -0.044229701 4288117104
-0.32027742 -0.0073420433 -0.043684617 4283784812
-0.32038864 -0.0065751839 -0.04336454 4282532433
-0.32049984 -0.0058082631 -0.043044437 4283981641
-0.32061106 -0.0050413148 -0.042724323 4284643979
-0.32072228 -0.0042742984 -0.042404182 4285628333
-0.3208335 -0.0035072041 -0.042084012 4286218664
-0.32077205 -0.0028649371 -0.041540813 4286151845
-0.32071069 -0.0022235655 -0.04099847 4286149785
-0.32064945 -0.0015831081 -0.040456951 4285360270
-0.32058826 -0.0009435984 -0.039916188 4284439672
-0.32069921 -0.0001785878 -0.039596863 4285160540
-0.32046628 0.00033269671 -0.038837112 4286407515
-0.32040539 0.00096945232 -0.038298763 4286410585
-0.32034466 0.0016053038 -0.037761208 4286343257
-0.32028404 0.0022402788 -0.037224472 4286274396
-0.32022348 0.0028743027 -0.036688477 4286080090
-0.32033393 0.0036361709 -0.036370493 4286081869
-0.3202734 0.0042687668 -0.035835553 4286146638
-0.32021299 0.0049005002 -0.035301387 4286145886
-0.32032332 0.0056613656 -0.034983821 4286145374
-0.32026291 0.0062916316 -0.034450628 4286144077
-0.32020262 0.0069210096 -0.033918269 4286016332
-0.32014242 0.0075495052 -0.03338667 4286013257
-0.31991234 0.0080454974 -0.032642316 4285880649
-0.3198525 0.008671823 -0.032112822 4285814092
-0.31979278 0.0092972545 -0.031584121 4285949773
-0.31973311 0.0099218218 -0.031056214 4286017890
-0.31984288 0.010678549 -0.030740356 4286148976
-0.31894031 0.010636501 -0.029162871 4286212449
-0.31904954 0.01138994 -0.028848406 4286012241
-0.3189908 0.012009839 -0.028325194 4285814600
-0.31909999 0.012762821 -0.028010907 4285618744
-0.31904131 0.013381358 -0.027488703 4285289537
-0.31898272 0.013999037 -0.026967248 4285224538
-0.31892416 0.014615824 -0.026446544 4285162839
-0.31903315 0.015367325 -0.02613287 4285162306
-0.31897464 0.015982747 -0.025613131 4285356354
-0.31891626 0.016597301 -0.025094161 4285354834
-0.3190251 0.017347857 -0.024780886 4284961620
-0.31896669 0.017961023 -0.024262847 4284895808
-0.31907547 0.018711139 -0.023949761 4284696379
-0.31901714 0.019322962 -0.023432722 4284630584
-0.31912583 0.020072615 -0.023119846 4284366902
-0.31923455 0.02082232 -0.022806926 4284169266
-0.31934327 0.021572072 -0.022493986 4283840814
-0.31928483 0.022181528 -0.021978306 4283447090
-0.31939349 0.022930838 -0.021665554 4283383609
-0.31933498 0.023538928 -0.021150801 4283383608
-0.31927663 0.02414619 -0.020636851 4283383350
-0.31921837 0.0247526 -0.020123618 4283251510
-0.31916019 0.02535814 -0.019611103 4283251763
-0.31910211 0.025962844 -0.019099353 4284107571
-0.31904414 0.026566727 -0.018588355 4284240712
-0.31898624 0.027169721 -0.018078042 4284503374
-0.31909439 0.027915591 -0.017766729 4284632386
-0.31903651 0.028517278 -0.017257391 4284367929
-0.31914461 0.02926271 -0.016946258 4284236599
-0.31925273 0.030008176 -0.016635094 4283974197
-0.31919479 0.03060803 -0.016126934 4283513653
-0.31946895 0.031499278 -0.016012736 4283449141
-0.31974351 0.032391891 -0.01589836 4282924087
-0.3200185 0.033285927 -0.015783824 4282928965
-0.3201268 0.034032781 -0.015472103 4282992710
-0.32006818 0.034630805 -0.014963863 4282992227
-0.32017642 0.035377216 -0.014652329 4283390313
-0.32011783 0.035973929 -0.014145055 4283588728
-0.32039291 0.036870211 -0.014029166 4284247683
-0.32050118 0.037616771 -0.013717548 4284971662
-0.32077679 0.038515072 -0.013601234 4285695395
-0.36726889 -0.027467191 -0.14309946 4284446104
-0.36740732 -0.026512275 -0.1427009 4284371798
-0.36754578 -0.025557287 -0.14230233 4283125844
-0.36768425 -0.024602223 -0.14190373 4283066713
-0.36782274 -0.023647102 -0.14150509 4287527769
-0.3679612 -0.022691879 -0.14110644 4287788187
-0.36809972 -0.021736613 -0.14070775 4284969890
-0.36823821 -0.020781254 -0.14030901 4284641889
-0.36785445 -0.020105159 -0.13916536 4284443739
-0.36721259 -0.019571194 -0.13765654 4284441691
-0.3670913 -0.018760459 -0.13689113 4283127131
-0.36517227 -0.0189301 -0.13357474 4282927691
-0.36454532 -0.018405279 -0.13209866 4282206280
-0.36392188 -0.017883362 -0.13063088 4282081098
-0.36330199 -0.017364316 -0.12917136 4283789642
-0.35874498 -0.019044137 -0.12216012 4284182610
-0.33766928 -0.030012524 -0.091898546 4283067732
-0.33676913 -0.029743837 -0.090107359 4282734164
-0.33628139 -0.029247873 -0.088899717 4282008404
-0.33559445 -0.028869275 -0.087415375 4281744708
-0.33511251 -0.028378315 -0.086221486 4281679166
-0.33443353 -0.0280047 -0.084754676 4281679163
-0.33336341 -0.027862862 -0.082745403 4281482298
-0.33269578 -0.027493935 -0.081302099 4281416506
-0.33183768 -0.027241614 -0.079597138 4281350458
-0.3307935 -0.027105061 -0.077637821 4281285177
-0.32995087 -0.026856454 -0.07596302 4281285432
-0.32854643 -0.026948484 -0.073514216 4281285175
-0.32753423 -0.026815241 -0.071614288 4281415223
-0.32653177 -0.026683278 -0.069732606 4281485366
-0.32572302 -0.026441108 -0.068122759 4282275125
-0.32492074 -0.026200771 -0.06652575 4282865987
-0.32412484 -0.025962314 -0.064941347 4282866509
-0.32369617 -0.025503894 -0.063864708 4282931791
-0.32308969 -0.02515864 -0.062546782 4283062865
-0.32284489 -0.02459334 -0.06172666 4283127372
-0.32260093 -0.024029775 -0.060909107 4282668871
-0.32235774 -0.023467878 -0.060094144 4282077512
-0.32229322 -0.022795549 -0.05952394 4282010442
-0.32222888 -0.022124235 -0.05895466 4281945160
-0.32198703 -0.021566909 -0.058145184 4282074950
-0.32210046 -0.020784555 -0.057818647 4282206790
-0.32203642 -0.020116189 -0.057251967 4282273095
-0.32214978 -0.019334305 -0.056925628 4282469448
-0.3224408 -0.018437071 -0.056838911 4282339657
-0.32255426 -0.017654479 -0.056512281 4282144328
-0.32284585 -0.016755104 -0.056425136 4282208838
-0.32295942 -0.01597178 -0.0560982 4282346311
-0.323073 -0.015188375 -0.055771247 4282798665
-0.32300821 -0.014523474 -0.055205531 4284698440
-0.32294354 -0.013859562 -0.054640692 4284375108
-0.32287893 -0.01319662 -0.054076694 4283449924
-0.3224597 -0.012773745 -0.053040959 4283320643
-0.32221892 -0.012233268 -0.052244816 4282597443
-0.3219789 -0.011694427 -0.051451109 4282734666
-0.32138875 -0.011396941 -0.050194617 4283325002
-0.32132599 -0.010741792 -0.049639162 4283455097
-0.32091427 -0.010328216 -0.048623171 4284578939
-0.32050443 -0.0099164955 -0.047611907 4284774780
-0.32044274 -0.0092658382 -0.047061376 4286741116
-0.32038119 -0.0086161299 -0.046511706 4287003790
-0.3201468 -0.0080886437 -0.045735754 4285428625
-0.32025832 -0.0073195207 -0.04541475 4285029201
-0.32019705 -0.0066726124 -0.044867516 4282662719
-0.32013586 -0.0060266647 -0.044321094 4281874238
-0.32041991 -0.0051352312 -0.044225894 4282864702
-0.32053137 -0.0043664617 -0.043905038 4283398025
-0.32064286 -0.0035976239 -0.043584157 4285235632
-0.32058138 -0.0029537976 -0.043038618 4286481067
-0.32069275 -0.0021854537 -0.042717949 4286348967
-0.32080415 -0.001417044 -0.042397246 4286281636
-0.32074267 -0.0007751942 -0.041852955 4285690016
-0.32068121 -0.00013430185 -0.041309502 4284901001
-0.3207925 0.00063312583 -0.040989205 4285291879
-0.32055864 0.0011447478 -0.040224969 4285947749
-0.32049754 0.0017828986 -0.039683949 4286148449
-0.32043648 0.0024201223 -0.039143674 4286409570
-0.32037556 0.0030564426 -0.038604248 4286341219
-0.32031476 0.0036918232 -0.038065601 4286212705
-0.32042557 0.0044560642 -0.037746642 4286212182
-0.32036474 0.0050900099 -0.037209004 4286144086
-0.32030404 0.0057230713 -0.036672179 4286145624
-0.32024348 0.0063552149 -0.036136147 4286148440
-0.32018295 0.0069864346 -0.035600886 4286144580
-0.32012254 0.0076167746 -0.035066433 4286010690
-0.32006228 0.0082462039 -0.034532771 4286011972
-0.32000208 0.0088747367 -0.033999868 4285879621
-0.31977186 0.0093695996 -0.033253465 4285813593
-0.31971204 0.0099959588 -0.032722678 4285948770
-0.31982207 0.010754974 -0.032405905 4286017370
-0.31976229 0.011379927 -0.031876158 4286146389
-0.31970254 0.012003994 -0.031347156 4286210122
-0.31913596 0.012223884 -0.030185338 4286077246
-0.31907699 0.012845101 -0.029659588 4285813569
-0.3190181 0.013465412 -0.029134579 4285684550
-0.3189593 0.014084851 -0.028610364 4285289797
-0.31906864 0.014839108 -0.02829556 4285289797
-0.31900987 0.015457194 -0.027772302 4285094471
-0.31895119 0.016074369 -0.027249789 4285098320
-0.31889263 0.016690684 -0.026728071 4285291343
-0.31900173 0.017443486 -0.026413891 4285287750
-0.3189432 0.018058423 -0.025893137 4284762694
-0.31888473 0.018672494 -0.025373099 4284632893
-0.31899372 0.019424329 -0.025059327 4284435002
-0.31910273 0.020176223 -0.024745515 4284368444
-0.31921175 0.020928159 -0.024431685 4284171325
-0.31915316 0.021539845 -0.023913058 4283973943
-0.31926212 0.022291331 -0.023599418 4283776049
-0.31920353 0.022901669 -0.023081787 4283512626
-0.31931242 0.023652712 -0.022768328 4283447861
-0.31925386 0.024261655 -0.022251615 4283317558
-0.31919542 0.024869788 -0.021735683 4283385910
-0.31930417 0.025619863 -0.021422628 4283710774
-0.31924576 0.02622664 -0.02090765 4283712054
-0.3191874 0.026832514 -0.020393377 4283976501
-0.3191292 0.027437598 -0.0198799 4284044359
-0.31907105 0.028041821 -0.019367138 4284306765
-0.31917951 0.028789943 -0.019054906 4284435266
-0.31912139 0.029392807 -0.018543072 4283974201
-0.31906334 0.029994834 -0.018031999 4283448631
-0.31917167 0.030742003 -0.017720165 4283447605
-0.31911367 0.031342704 -0.017210057 4283382325
-0.31922194 0.032089457 -0.016898394 4283382837
-0.31916395 0.032688804 -0.016389187 4283382582
-0.31943849 0.033583082 -0.016275022 4283388996
-0.31971344 0.034478739 -0.016160598 4284238405
-0.31965509 0.035076931 -0.015651537 4284309096
-0.31976339 0.035823952 -0.015339768 4284901236
-0.31987169 0.036571018 -0.015027977 4285232258
-0.31998003 0.037318118 -0.014716154 4286545807
-0.3202554 0.038216826 -0.014600476 4288319898
-0.36652309 -0.027090935 -0.14373264 4284371829
-0.36666152 -0.026135968 -0.14333411 4284305991
-0.36679995 -0.025180921 -0.14293553 4283127366
-0.36693841 -0.024225777 -0.14253692 4283066969
-0.36707684 -0.023270603 -0.14213832 4287325274
-0.36721534 -0.022315325 -0.14173964 4287590747
-0.3673538 -0.021360014 -0.14134096 4284969051
-0.36749229 -0.020404607 -0.14094225 4284707416
-0.36685023 -0.019868776 -0.13942541 4284508760
-0.36595398 -0.019475378 -0.13754851 4284441435
-0.3655771 -0.01880607 -0.13641767 4283126363
-0.36367488 -0.018974803 -0.13311425 4282927432
-0.36305389 -0.0184513 -0.13164364 4282205765
-0.36470953 -0.016671926 -0.13341239 4282080843
-0.36433756 -0.016012024 -0.13229674 4283721036
-0.34383413 -0.026632629 -0.10265543 4284116039
-0.3366009 -0.029909384 -0.091879949 4282993478
-0.33611232 -0.029411757 -0.090664811 4282731595
-0.33542418 -0.029031705 -0.089170814 4282008396
-0.33474067 -0.028654113 -0.087686814 4281744705
-0.33426127 -0.028164007 -0.086493239 4281679677
-0.33358562 -0.0277914 -0.085026719 4281679162
-0.3325206 -0.027650677 -0.083017759 4281482553
-0.33166108 -0.027397102 -0.081301518 4281416506
-0.33080861 -0.027145522 -0.079599313 4281350714
-0.32977116 -0.027009629 -0.077643201 4281285175
-0.32874388 -0.02687498 -0.075706191 4281284149
-0.32753846 -0.026854202 -0.073526233 4281284411
-0.32653272 -0.0267216 -0.071629308 4281421631
-0.32572138 -0.026478503 -0.070006743 4281489992
-0.32491651 -0.026237283 -0.068397097 4282276431
-0.32430029 -0.025886536 -0.0670522 4282932557
-0.32350683 -0.025649298 -0.065465696 4282998091
-0.32307959 -0.025191551 -0.064387828 4282997836
-0.3226544 -0.024735928 -0.063315049 4283126349
-0.32241011 -0.024170792 -0.062493082 4283190599
-0.32216662 -0.023607366 -0.061673727 4282666049
-0.3221021 -0.022933371 -0.061100986 4282008899
-0.32203773 -0.022260353 -0.06052915 4281879622
-0.32197347 -0.021588324 -0.059958175 4281684070
-0.3220872 -0.020803519 -0.059630658 4281752210
-0.32202291 -0.020133078 -0.059060756 4281823132
-0.32195878 -0.019463591 -0.05849177 4281884589
-0.32225031 -0.018564377 -0.058406081 4281955755
-0.322364 -0.017779946 -0.058078725 4281882280
-0.32265612 -0.016878549 -0.057992663 4281691543
-0.32276997 -0.016093371 -0.057664972 4281879152
-0.32288375 -0.015308161 -0.057337292 4282407269
-0.3229976 -0.01452288 -0.057009574 4282996293
-0.32293266 -0.013856897 -0.056441516 4285680453
-0.32304642 -0.013072107 -0.056114014 4285493316
-0.3228032 -0.012527874 -0.055308104 4284044612
-0.32238311 -0.012105512 -0.054267064 4283910726
-0.32214192 -0.011564775 -0.053467158 4281619014
-0.32190141 -0.011025663 -0.052669689 4281614662
-0.32166168 -0.010488194 -0.051874649 4281550918
-0.32159847 -0.0098311417 -0.051315792 4281549398
-0.32118452 -0.009418047 -0.050291989 4282931544
-0.32094702 -0.0088853585 -0.049504276 4283000667
-0.32071033 -0.0083542867 -0.048719011 4285946973
-0.32047433 -0.0078247767 -0.047936082 4286341474
-0.32023907 -0.0072968644 -0.047155589 4283061606
-0.32017758 -0.0066480036 -0.046605345 4282334532
-0.32011625 -0.0060000671 -0.046055943 4281480761
-0.32022792 -0.0052295956 -0.045734413 4281152827
-0.32033962 -0.0044590435 -0.045412838 4281550395
-0.32045132 -0.003688473 -0.045091249 4281758332
-0.32056302 -0.0029177978 -0.044769622 4284777636
-0.32067472 -0.0021471009 -0.044448003 4286874793
-0.32078645 -0.0013763391 -0.044126336 4286677164
-0.32089818 -0.00060549955 -0.043804642 4286413991
-0.32100993 0.00016535366 -0.043482941 4286215842
-0.32094803 0.00080805877 -0.042936113 4285951121
-0.32088622 0.0014498044 -0.04239013 4285555827
-0.32082456 0.0020906657 -0.041844957 4284834414
-0.32059014 0.0026013416 -0.041077651 4285296739
-0.32052886 0.0032399411 -0.04053469 4286607202
-0.32046762 0.0038776123 -0.0399925 4286607457
-0.32040653 0.0045143501 -0.039451167 4286670943
-0.32051766 0.0052809869 -0.039131232 4286669652
-0.32045659 0.0059162867 -0.038590938 4286143828
-0.32039562 0.0065506934 -0.038051378 4286143575
-0.32033476 0.0071841697 -0.037512679 4286082647
-0.320274 0.0078167506 -0.036974758 4286078789
-0.32021332 0.0084484266 -0.036437608 4286010690
-0.32015276 0.0090791676 -0.035901286 4286014788
-0.3199214 0.0095756035 -0.035149157 4286077253
-0.31969079 0.010070553 -0.034399312 4286143321
-0.31963086 0.010697873 -0.033866458 4286015587
-0.31957105 0.011324279 -0.033334423 4285949273
-0.31968123 0.012084544 -0.033017147 4285947730
-0.31962144 0.01270957 -0.032486111 4286013256
-0.31973159 0.013469362 -0.032169014 4285881146
-0.31916359 0.013685396 -0.031002063 4285681471
-0.31910443 0.014307017 -0.03047448 4285616969
-0.31904539 0.014927729 -0.029947644 4285224263
-0.31915507 0.015684299 -0.029631911 4285290046
-0.31909603 0.016303651 -0.029106058 4285355072
-0.31903711 0.016922109 -0.02858101 4285359190
-0.31897825 0.017539687 -0.028056713 4285226326
-0.31908771 0.01829477 -0.027741581 4285222720
-0.31902888 0.01891098 -0.027218271 4284696125
-0.31897017 0.019526301 -0.026695702 4284565818
-0.31907946 0.020280449 -0.026380986 4284500793
-0.31902078 0.020894384 -0.025859376 4284435775
-0.31913 0.021648074 -0.025544848 4284370243
-0.31907135 0.022260653 -0.025024245 4284302909
-0.31918055 0.023013866 -0.024709903 4283973173
-0.3191219 0.023625085 -0.024190275 4283513139
-0.319231 0.024377847 -0.023876118 4283447343
-0.31917235 0.024987673 -0.023357414 4283249968
-0.3192814 0.025739994 -0.023043459 4283254327
-0.31922278 0.026348479 -0.022525731 4283646263
-0.31916428 0.026956094 -0.022008769 4283646268
-0.31927317 0.027707448 -0.021695223 4283910717
-0.31921467 0.028313702 -0.021179194 4283978822
-0.31915629 0.028919108 -0.020663956 4284306506
-0.31926507 0.029669514 -0.020350788 4284500800
-0.31920671 0.030273579 -0.019836497 4283973431
-0.3193154 0.031023543 -0.019523531 4283447608
-0.31925702 0.031626236 -0.019010149 4283447865
-0.31919879 0.032228123 -0.018497564 4283383873
-0.31930736 0.032977127 -0.018184982 4283383908
-0.31924912 0.033577647 -0.017673332 4283458403
-0.31952453 0.034475289 -0.017559754 4283455362
-0.31963313 0.035224453 -0.017247107 4284441731
-0.31974173 0.035973687 -0.01693443 4284640134
-0.31985033 0.036722962 -0.016621737 4285300615
-0.31979173 0.037320986 -0.016111128 4285761941
-0.31990027 0.038069822 -0.015798621 4287468706
-0.3639752 -0.027641686 -0.14174157 4283060853
-0.36411268 -0.026693007 -0.14134569 4282927687
-0.36425018 -0.025744284 -0.14094977 4283258438
-0.36438769 -0.024795461 -0.14055385 4283264345
-0.3645252 -0.02384655 -0.14015786 4284769626
-0.36466274 -0.022897623 -0.13976187 4284837979
-0.364544 -0.02208541 -0.13899605 4285558875
-0.36442548 -0.021274714 -0.13823165 4285625688
-0.36379761 -0.020740924 -0.13673548 4284967512
-0.36292052 -0.020347532 -0.1348847 4284898906
-0.36255249 -0.019682175 -0.13376847 4282929499
-0.36143529 -0.019432243 -0.1315815 4282533448
-0.36082402 -0.018910313 -0.13012344 4282336837
-0.36046341 -0.018253652 -0.12902643 4282277451
-0.36010411 -0.017599335 -0.12793347 4282279244
-0.35444599 -0.019931987 -0.11930088 4282272071
-0.33553609 -0.029806571 -0.091861531 4281876806
-0.3348493 -0.0294249 -0.090362243 4281746763
-0.33416712 -0.029045673 -0.088873006 4281680204
-0.33368871 -0.028554207 -0.087675519 4281679425
-0.33321273 -0.028065128 -0.086484 4281548605
-0.33234453 -0.027808217 -0.084741987 4281482298
-0.33128831 -0.027667699 -0.082739428 4281416761
-0.33043596 -0.027414618 -0.081028566 4281417018
-0.32959059 -0.027163537 -0.079331696 4281350970
-0.32856163 -0.027027834 -0.077381678 4281284407
-0.32754272 -0.026893402 -0.075450622 4281414709
-0.3265337 -0.0267602 -0.073538259 4281551931
-0.32571968 -0.026516182 -0.071902819 4282539839
-0.32509643 -0.026162069 -0.070537031 4283195977
-0.32429403 -0.025922079 -0.068925261 4283195473
-0.3236798 -0.025572279 -0.067578681 4283195214
-0.32306945 -0.025224661 -0.066240594 4282801739
-0.32282314 -0.024655687 -0.065409534 4282404940
-0.32239786 -0.024200555 -0.064332627 4282074444
-0.32215354 -0.023635326 -0.06350778 4281681222
-0.32208884 -0.02295918 -0.062931858 4282139456
-0.3220242 -0.022284055 -0.062356751 4282736194
-0.32213837 -0.021496199 -0.06202798 4284510789
-0.32207382 -0.020822614 -0.061454039 4286935144
-0.3221879 -0.02003528 -0.061125487 4287075235
-0.32212335 -0.019363256 -0.060552668 4287335344
-0.3222374 -0.018576432 -0.060224306 4286940873
-0.32235143 -0.01778955 -0.059895944 4286550983
-0.32246548 -0.017002596 -0.059567548 4286348482
-0.32257953 -0.01621557 -0.059239127 4286351025
-0.32269359 -0.015428521 -0.058910698 4286151550
-0.32280767 -0.014641375 -0.058582228 4286207603
-0.32292175 -0.013854209 -0.058253743 4285884995
-0.32285672 -0.013187141 -0.057683386 4284106051
-0.32261321 -0.012641412 -0.056873176 4283914564
-0.32254857 -0.011976742 -0.0563052 4282605636
-0.32248408 -0.011313045 -0.055738144 4282665543
-0.32224193 -0.010771819 -0.05493338 4283260999
-0.32217783 -0.010110501 -0.054368678 4283260484
-0.32211384 -0.0094501851 -0.053804804 4283186244
-0.32187307 -0.0089133708 -0.053005546 4283188029
-0.32163301 -0.0083781648 -0.052208722 4282269245
-0.3213937 -0.0078445794 -0.051414348 4282208321
-0.32097989 -0.0074356399 -0.050389472 4283515201
-0.32074258 -0.0069054379 -0.049601 4283911227
-0.32050595 -0.0063768625 -0.048814878 4282267962
-0.32044405 -0.00572616 -0.048261274 4281873717
-0.32020846 -0.0052005085 -0.047478989 4281349427
-0.32032046 -0.0044275797 -0.047156457 4281152822
-0.32043248 -0.0036546413 -0.046833903 4281350199
-0.32054451 -0.0028815994 -0.046511322 4281489515
-0.32065654 -0.0021085443 -0.04618872 4284382351
-0.32076856 -0.001335404 -0.045866102 4286613668
-0.32088062 -0.00056221249 -0.045543443 4286612918
-0.32099271 0.00021103377 -0.045220759 4286546351
-0.32110476 0.00098433567 -0.044898074 4286348711
-0.3210426 0.0016284373 -0.044348508 4286150049
-0.32115462 0.0024012486 -0.044026013 4285754263
-0.32091856 0.0029138101 -0.043251805 4285032586
-0.32085672 0.0035551072 -0.042704709 4285362025
-0.32079494 0.004195469 -0.042158391 4286344549
-0.32073328 0.0048349081 -0.041612905 4286475862
-0.32067174 0.0054734228 -0.041068263 4286669652
-0.32078326 0.0062430305 -0.040747102 4286604099
-0.32072175 0.0068800682 -0.040203467 4286141763
-0.32048771 0.0073834327 -0.039439123 4286143308
-0.32042655 0.0080182459 -0.038897667 4286079309
-0.32036552 0.0086521609 -0.038357049 4286078537
-0.3203046 0.0092851771 -0.037817251 4286015561
-0.32007211 0.0097831655 -0.037059341 4286016078
-0.32001156 0.010413961 -0.03652171 4286079568
-0.31978005 0.010909214 -0.035767455 4286144597
-0.31954926 0.011402988 -0.035015497 4286014040
-0.3196598 0.01216557 -0.034697272 4285947984
-0.31959981 0.012792389 -0.034163378 4285947465
-0.31953993 0.013418333 -0.033630278 4285947982
-0.31948012 0.014043356 -0.033097927 4285882452
-0.31959042 0.014804407 -0.032780342 4285683279
-0.319022 0.015016878 -0.031609781 4285550662
-0.31896284 0.015638495 -0.031080892 4285224517
-0.31907272 0.016396835 -0.030764444 4285224768
-0.31901363 0.017017087 -0.030236548 4285486656
-0.31912345 0.017774969 -0.029920289 4285489484
-0.31906435 0.018393837 -0.02939341 4285225293
-0.31917411 0.019151241 -0.029077347 4285222722
-0.31911504 0.019768698 -0.02855142 4284631104
-0.31905606 0.02038529 -0.028026292 4284499774
-0.31916568 0.021141741 -0.027710631 4284501053
-0.31910676 0.021756917 -0.027186485 4284503619
-0.31921631 0.022512913 -0.026871013 4284634184
-0.31915736 0.023126734 -0.026347838 4284762177
-0.31926686 0.023882264 -0.026032545 4284301367
-0.31937635 0.02463785 -0.025717244 4283513141
-0.31931737 0.025249787 -0.025195275 4283447089
-0.31925848 0.025860835 -0.024674045 4282988338
-0.31936783 0.026615469 -0.024359146 4282990649
-0.31930897 0.027225137 -0.023838872 4283384121
-0.3192502 0.027833989 -0.023319401 4283382843
-0.31935942 0.028587641 -0.023004895 4283516732
-0.31946865 0.029341348 -0.022690365 4283585349
-0.31940985 0.029948311 -0.022172065 4284503114
-0.31935111 0.03055439 -0.021654485 4285092929
-0.31946018 0.03130715 -0.021340368 4284762679
-0.31956929 0.032059949 -0.021026222 4284302904
-0.3196784 0.032812819 -0.020712042 4284437561
-0.31961951 0.033416547 -0.020195875 4284696385
-0.31972855 0.034168966 -0.019881885 4284704875
-0.31966975 0.034771346 -0.019366676 4285361003
-0.31994668 0.035673942 -0.019253852 4285295503
-0.3198877 0.036275316 -0.018739074 4285951892
-0.31999668 0.037027378 -0.018425239 4286090129
-0.31993774 0.03762738 -0.017911376 4287994255
-0.36196524 -0.027924294 -0.14051446 4283059048
-0.36210203 -0.026980069 -0.14012046 4282927688
-0.36223885 -0.026035758 -0.13972643 4283260487
-0.36237568 -0.025091358 -0.13933237 4283264350
-0.36251253 -0.024146903 -0.13893828 4284772703
-0.36239636 -0.023337387 -0.13817692 4284838227
-0.36228043 -0.022529325 -0.13741694 4285559890
-0.36166155 -0.021994513 -0.13593018 4285625938
-0.36104614 -0.021462671 -0.13445175 4284966226
-0.36043423 -0.020933717 -0.13298164 4284898895
-0.36007327 -0.020271575 -0.13187629 4282928463
-0.35996085 -0.019475101 -0.13113058 4282533190
-0.35935542 -0.018954474 -0.12967788 4282336580
-0.35899851 -0.018299492 -0.12858473 4282277187
-0.35864294 -0.01764687 -0.12749566 4282271810
-0.34597176 -0.023968427 -0.10880334 4282270015
-0.33447483 -0.0297041 -0.091843173 4281876286
-0.33359256 -0.029437924 -0.09006124 4281746498
-0.33311516 -0.028945049 -0.088859797 4281679171
-0.33244219 -0.028569231 -0.087383017 4281679167
-0.33197048 -0.028081294 -0.086195208 4281548349
-0.33091435 -0.027939202 -0.084182143 4281482042
-0.33006206 -0.027684581 -0.082462512 4281415992
-0.32921684 -0.027432019 -0.080757007 4281416505
-0.328188 -0.027294783 -0.078796864 4281350714
-0.32735798 -0.02704593 -0.077121459 4281284167
-0.32634732 -0.026911672 -0.075196363 4281487182
-0.32571799 -0.026554098 -0.073811151 4281556813
-0.3249079 -0.026311031 -0.07217595 4282671693
-0.32447141 -0.02584561 -0.071067356 4283393099
-0.32385412 -0.025494687 -0.069708526 4283326537
-0.32324076 -0.02514592 -0.068358406 4283260486
-0.32281211 -0.024687178 -0.067268535 4282798915
-0.32256576 -0.024118109 -0.06643448 4282336069
-0.32232022 -0.023550767 -0.0656031 4281878599
-0.32207546 -0.022985175 -0.06477426 4281420400
-0.32219005 -0.022194289 -0.064444244 4282082976
-0.32212517 -0.021517556 -0.063866168 4282880685
-0.32206035 -0.02084187 -0.063288994 4285109439
-0.32217479 -0.020052038 -0.062959425 4288388789
-0.32211 -0.0193779 -0.06238335 4288582316
-0.32204536 -0.018704768 -0.061808195 4288901526
-0.32215965 -0.01791604 -0.06147908 4288641894
-0.32227394 -0.017127238 -0.061149936 4288045669
-0.32238823 -0.016338367 -0.060820762 4288118631
-0.32250252 -0.015549437 -0.060491584 4288178542
-0.32261685 -0.014760467 -0.060162369 4288126858
-0.32273117 -0.013971429 -0.059833128 4287988624
-0.32266608 -0.013302702 -0.059260208 4287266212
-0.32260117 -0.01263494 -0.058688205 4283266465
-0.32253635 -0.011968176 -0.058117088 4283124615
-0.32247162 -0.011302428 -0.057546817 4281753987
-0.32258561 -0.010515581 -0.057218492 4281813064
-0.32234257 -0.0099738548 -0.056408927 4284371272
-0.32227814 -0.0093110558 -0.055841241 4284379455
-0.32221389 -0.0086492216 -0.055274479 4284501823
-0.32214972 -0.0079883933 -0.054708552 4284499267
-0.32190827 -0.0074524949 -0.053905979 4281680963
-0.32166761 -0.0069182087 -0.053105876 4281417024
-0.32142767 -0.0063855816 -0.052308213 4281220416
-0.32101279 -0.0059789508 -0.051278848 4281219642
-0.32077488 -0.0054497025 -0.050487142 4281218617
-0.32071245 -0.0047971546 -0.049930032 4281218358
-0.32047558 -0.0042708302 -0.049142186 4281152564
-0.32058799 -0.0034948797 -0.048818413 4281087285
-0.32052588 -0.0028451965 -0.048263829 4281022262
-0.32063824 -0.0020697392 -0.047940243 4281024091
-0.32075059 -0.0012942288 -0.047616649 4283653749
-0.32086298 -0.00051864068 -0.04729303 4286022807
-0.32097536 0.00025698758 -0.046969377 4286417590
-0.32108775 0.0010326646 -0.04664572 4286875313
-0.32120016 0.0018084091 -0.046322018 4286809514
-0.3211377 0.0024539244 -0.045769643 4286610340
-0.32125002 0.0032291654 -0.045446154 4286346907
-0.32118762 0.0038731825 -0.04489487 4285819280
-0.32095096 0.0043847598 -0.044117495 4285622896
-0.32088894 0.0050265123 -0.043568458 4285033579
-0.32082701 0.0056673218 -0.043020185 4285228633
-0.32076514 0.0063072122 -0.042472765 4286407511
-0.32087702 0.0070792232 -0.042150624 4286409540
-0.32081524 0.0077176499 -0.041604254 4285683267
-0.32058027 0.0082212975 -0.040835407 4285682764
-0.32051885 0.0088574747 -0.040291253 4285751373
-0.32045755 0.0094927503 -0.039747886 4285754442
-0.32022393 0.0099923164 -0.038984198 4286082121
-0.32016298 0.010625354 -0.038443014 4286212175
-0.31993037 0.011122163 -0.037683021 4286210641
-0.31969845 0.011617495 -0.036925279 4286211412
-0.31963819 0.012247067 -0.036387693 4286145622
-0.31957799 0.012875738 -0.035850897 4286078543
-0.31951791 0.013503507 -0.035314899 4285816135
-0.31945795 0.014130388 -0.034779705 4285488719
-0.31956854 0.014893726 -0.034461193 4285554269
-0.31950858 0.015519171 -0.033926964 4285750359
-0.31944874 0.016143732 -0.033393547 4285617989
-0.31904933 0.016490616 -0.032432877 4285158725
-0.31899002 0.017112667 -0.031902172 4285157185
-0.3189308 0.017733807 -0.031372223 4285028161
-0.31904086 0.018493449 -0.031055249 4285096774
-0.31915095 0.019253155 -0.030738251 4285355846
-0.31926104 0.020012928 -0.030421222 4285353795
-0.31920171 0.020631628 -0.029892737 4284631362
-0.31914243 0.021249475 -0.029364977 4284434497
-0.31925237 0.022008261 -0.029048363 4284633409
-0.31919315 0.022624701 -0.028521627 4284767050
-0.31930304 0.02338301 -0.02820521 4284765777
-0.31924385 0.023998076 -0.027679466 4284828233
-0.31935364 0.02475594 -0.02736322 4284432699
-0.31946346 0.025513861 -0.027046967 4283513402
-0.31957328 0.026271822 -0.026730698 4283447863
-0.31934506 0.02673929 -0.025998626 4283056952
-0.31945473 0.027496221 -0.02568277 4283056450
-0.3193956 0.028107144 -0.025159972 4283450434
-0.31950521 0.028863627 -0.02484432 4283448887
-0.31944612 0.029473128 -0.024322478 4283579445
-0.31955567 0.030229155 -0.024007019 4283583806
-0.31966519 0.030985259 -0.023691529 4284438082
-0.31960607 0.031592902 -0.023170883 4285093209
-0.31971553 0.032348529 -0.022855591 4284832624
-0.31982502 0.033104207 -0.022540262 4284375670
-0.31993452 0.033859942 -0.022224925 4284506243
-0.31987524 0.03446519 -0.021705687 4284966783
-0.32015353 0.035371594 -0.021594161 4284969605
-0.32009411 0.035975814 -0.021075353 4285821571
-0.32020357 0.036731206 -0.020760143 4285887130
-0.32031304 0.037486639 -0.020444917 4286485150
-0.32025352 0.038088989 -0.019927271 4286752679
-0.35652611 -0.029997492 -0.13423356 4282469224
-0.35641754 -0.02919705 -0.13349013 4282340168
-0.3565518 -0.028270222 -0.13310343 4283522631
-0.35668609 -0.02734334 -0.13271669 4283594846
-0.35682034 -0.026416399 -0.13232993 4284904031
-0.35646904 -0.025749886 -0.13123515 4284970067
-0.35611904 -0.025085779 -0.13014443 4285953106
-0.35457185 -0.025074862 -0.12731569 4286083154
-0.35304448 -0.02506396 -0.12452313 4283983186
-0.35060868 -0.025563046 -0.12042154 4283717199
-0.34981784 -0.025169469 -0.11871129 4282403919
-0.34880489 -0.024905339 -0.11668421 4282139462
-0.34780097 -0.024643505 -0.11467517 4282008644
-0.34458742 -0.025631903 -0.10948879 4281943362
-0.34383795 -0.025247863 -0.1078605 4281876802
-0.34051615 -0.026333043 -0.10254268 4281810239
-0.33361757 -0.029487194 -0.092112392 4281876030
-0.33273962 -0.029222086 -0.090330839 4281876289
-0.33206671 -0.028844727 -0.088846698 4281744194
-0.33139834 -0.028469823 -0.087372392 4281679422
-0.33073437 -0.028097341 -0.085907869 4281548349
-0.32968694 -0.027955472 -0.083901241 4281482554
-0.32884181 -0.027701376 -0.082187034 4281481528
-0.32800362 -0.02744931 -0.080486834 4281483833
-0.32717228 -0.027199224 -0.078800477 4281810234
-0.32634765 -0.026951129 -0.077127784 4282013000
-0.32571626 -0.026592271 -0.075731874 4282803281
-0.32508892 -0.026235661 -0.074344948 4283393616
-0.3246502 -0.02576855 -0.07322669 4283458895
-0.32421362 -0.025303628 -0.072113767 4283522891
-0.32359615 -0.024953814 -0.070749491 4282669896
-0.32316455 -0.024493324 -0.069648683 4282012229
-0.32273501 -0.024034977 -0.068553127 4281747010
-0.32248822 -0.02346555 -0.067715056 4281487172
-0.3222422 -0.02289784 -0.066879645 4283652678
-0.32217693 -0.022217968 -0.06629736 4285952377
-0.32211179 -0.021539072 -0.065716036 4286750651
-0.32222667 -0.020746196 -0.065385208 4287866826
-0.32216156 -0.020068912 -0.064805016 4287932129
-0.32227632 -0.019276546 -0.064474404 4288451280
-0.32221124 -0.018600866 -0.063895285 4287848367
-0.32214627 -0.017926155 -0.063317113 4286667660
-0.32226092 -0.017134871 -0.062986955 4286864959
-0.32219598 -0.016461743 -0.062409889 4287448382
-0.32231051 -0.015670955 -0.062079959 4287194173
-0.3224251 -0.01488013 -0.061749991 4286401359
-0.3223601 -0.014209158 -0.061174273 4286476176
-0.32265425 -0.013298289 -0.061089978 4286881692
-0.32258907 -0.012628437 -0.060514744 4286879966
-0.32252401 -0.011959594 -0.05994039 4286356185
-0.3224591 -0.011291751 -0.059366953 4286283700
-0.32239425 -0.010624912 -0.058794323 4285425069
-0.32232955 -0.00995903 -0.058222611 4285361481
-0.32226497 -0.0092941476 -0.057651792 4283712585
-0.32220045 -0.0086302673 -0.057081826 4283718459
-0.32213607 -0.007967378 -0.056512754 4283195195
-0.32207182 -0.0073054573 -0.055944555 4283124808
-0.32182992 -0.0067693284 -0.055138119 4283648841
-0.32176605 -0.0061097969 -0.054572247 4283712576
-0.32152522 -0.0055766851 -0.053769846 4281678910
-0.32146174 -0.0049195113 -0.053206313 4281285177
-0.32104579 -0.0045152837 -0.052172426 4281219128
-0.32098293 -0.0038608469 -0.051611885 4281218615
-0.32074466 -0.0033339264 -0.050818309 4281087030
-0.3206822 -0.002681839 -0.050260082 4281021749
-0.32061982 -0.0020306907 -0.049702693 4281021748
-0.32073253 -0.0012527847 -0.049378123 4281023033
-0.32067016 -0.0006031543 -0.048821758 4283058748
-0.32078275 0.00017427145 -0.048497394 4285033849
-0.3208954 0.00095175259 -0.048172981 4285826742
-0.32100803 0.0017292945 -0.047848567 4286810293
-0.32112068 0.0025068817 -0.047524132 4286744499
-0.3212333 0.0032845442 -0.047199667 4286612145
-0.32134598 0.004062247 -0.046875168 4286414254
-0.32128328 0.004707667 -0.046321053 4285888938
-0.32122067 0.0053521441 -0.04576778 4285688989
-0.32115817 0.0059956578 -0.045215279 4285100439
-0.32109576 0.0066382578 -0.044663653 4285163124
-0.32085907 0.0071461643 -0.043886002 4286406515
-0.32079709 0.0077864951 -0.043336626 4286409824
-0.32056144 0.0082915751 -0.042562786 4285684320
-0.32032654 0.0087951822 -0.041791286 4285683014
-0.32043833 0.0095668212 -0.041469336 4285746500
-0.32020396 0.010067794 -0.040700626 4285753674
-0.3203156 0.010838371 -0.040379122 4286081355
-0.32008183 0.011336719 -0.039613247 4286211661
-0.32002088 0.011969827 -0.039070781 4286209871
-0.3197881 0.012465411 -0.038308591 4286211162
-0.31972754 0.013096322 -0.037768316 4286145889
-0.3198387 0.013863634 -0.037448157 4286078289
-0.31960678 0.014355384 -0.036690131 4285748543
-0.31954652 0.014983573 -0.036152266 4285289025
-0.31965744 0.015749291 -0.035832778 4285421638
-0.31959724 0.016376041 -0.035295911 4285748041
-0.3195371 0.017001903 -0.034759827 4285619023
-0.31947708 0.017626844 -0.034224551 4285094733
-0.31890687 0.017831754 -0.033045128 4285089857
-0.31901723 0.018593684 -0.032727219 4284698689
-0.31912762 0.019355688 -0.032409295 4284703811
-0.31923801 0.02011776 -0.032091331 4285355332
-0.31917846 0.020738246 -0.031559959 4285484611
-0.31911904 0.021357864 -0.031029401 4284632131
-0.3192293 0.022118935 -0.03071185 4284303942
-0.31933954 0.022880051 -0.03039428 4284830791
-0.31928009 0.023497762 -0.02986493 4285226828
-0.31939027 0.024258424 -0.029547554 4285094481
-0.31933081 0.024874715 -0.029019183 4284894026
-0.31944093 0.025634913 -0.028701995 4284564284
-0.31955105 0.026395161 -0.028384794 4283644731
-0.3196612 0.027155474 -0.028067559 4283579704
-0.31960163 0.02776934 -0.027540643 4283253560
-0.31954211 0.028382331 -0.02701446 4283254851
-0.31965211 0.029141659 -0.026697641 4284564803
-0.31959262 0.029753277 -0.026172467 4284763960
-0.31953329 0.030364025 -0.025648072 4284433205
-0.31981251 0.031271081 -0.02553919 4284306749
-0.31975299 0.0318808 -0.025015224 4284701762
-0.31986287 0.032639246 -0.024698755 4285096025
-0.31997275 0.033397779 -0.024382275 4285164406
-0.32008263 0.034156352 -0.024065772 4285295229
-0.32019252 0.034914989 -0.023749242 4285230481
-0.32030243 0.035673663 -0.023432679 4285231249
-0.32041234 0.036432419 -0.023116106 4285168013
-0.32035246 0.037038166 -0.022594186 4287526541
-0.35531768 -0.029885013 -0.13413469 4282468955
-0.35545176 -0.028959054 -0.13374838 4282340435
-0.3555859 -0.028033046 -0.13336204 4283524178
-0.35572001 -0.027106984 -0.13297568 4283595089
-0.35585415 -0.026180839 -0.13258927 4284903761
-0.35550496 -0.02551532 -0.13149509 4284970062
-0.35467699 -0.025112685 -0.129703 4285954637
-0.3517313 -0.025872368 -0.12482354 4286083157
-0.34931293 -0.026362501 -0.12072641 4283981143
-0.34739324 -0.02659373 -0.11736643 4283651149
-0.3463974 -0.026324904 -0.11535805 4282402891
-0.34518841 -0.026182486 -0.11304533 4282139457
-0.34224796 -0.027022161 -0.10823008 4282007871
-0.34086758 -0.026999557 -0.10568509 4281942845
-0.33992773 -0.026736178 -0.10378297 4281811261
-0.33711594 -0.027550315 -0.099186063 4281810238
-0.33276168 -0.029270623 -0.092381157 4281875519
-0.33188805 -0.029006584 -0.090600029 4281876026
-0.3310217 -0.028744694 -0.088833667 4281744952
-0.33016255 -0.028484933 -0.087081954 4281679674
-0.32950434 -0.028113285 -0.085622057 4281548347
-0.32846558 -0.02797164 -0.083621778 4281482573
-0.32743701 -0.027831333 -0.08164116 4281483862
-0.32660726 -0.027579499 -0.079948738 4281485414
-0.3259719 -0.027216904 -0.078536898 4281882478
-0.32534063 -0.026856603 -0.077134155 4282148697
-0.32489914 -0.02638578 -0.076003745 4283066445
-0.32445979 -0.025917191 -0.074878797 4283721551
-0.32420695 -0.02533761 -0.074019864 4283588432
-0.32395494 -0.024759861 -0.073163636 4283521098
-0.32333732 -0.024411175 -0.071793802 4282536262
-0.3230879 -0.023837557 -0.070945226 4281681995
-0.32283929 -0.023265727 -0.070099317 4281490257
-0.32277313 -0.022581259 -0.06951084 4281232773
-0.32252568 -0.022012651 -0.068669207 4283989434
-0.32245991 -0.021330718 -0.068083227 4287472588
-0.32239428 -0.020649804 -0.067498147 4288328674
-0.32250959 -0.019853706 -0.067166016 4289507298
-0.32262486 -0.019057559 -0.066833869 4289109990
-0.32255918 -0.018378839 -0.066250145 4288509370
-0.32249358 -0.017701102 -0.065667361 4287644778
-0.3222478 -0.017142573 -0.06483566 4285679965
-0.32236278 -0.01634871 -0.064504467 4286077506
-0.32229754 -0.015674036 -0.06392438 4287123790
-0.32241243 -0.014880684 -0.063593395 4286732658
-0.32252735 -0.014087296 -0.063262381 4285350510
-0.32246205 -0.013414769 -0.062683679 4285482333
-0.32257688 -0.012621884 -0.062352873 4286151275
-0.32269171 -0.011828943 -0.062022064 4286489766
-0.32262635 -0.011158598 -0.061444674 4288775592
-0.32256114 -0.010489221 -0.060868211 4288785054
-0.32231647 -0.0099441158 -0.06004782 4288637599
-0.32225165 -0.0092771659 -0.05947376 4288647298
-0.32218698 -0.0086112134 -0.058900613 4283197566
-0.32212234 -0.0079462528 -0.058328293 4282992451
-0.32205784 -0.0072822799 -0.05775689 4281685058
-0.3219935 -0.0066192755 -0.057186361 4281618755
-0.32192919 -0.0059573012 -0.056616701 4286009924
-0.32168716 -0.0054223198 -0.055807974 4286597951
-0.32162327 -0.0047627105 -0.055240646 4282531646
-0.32155955 -0.0041040685 -0.054674238 4281350971
-0.32114205 -0.0037004305 -0.053633668 4281284921
-0.32090259 -0.003171697 -0.052833896 4281218871
-0.32066384 -0.0026445752 -0.05203658 4281021751
-0.32060125 -0.0019914331 -0.051476125 4280955957
-0.32053879 -0.001339257 -0.050916471 4281021493
-0.32047641 -0.0006880557 -0.05035764 4281021239
-0.32058927 9.1161426e-05 -0.050032541 4281221178
-0.32052693 0.00074086181 -0.049474839 4281423466
-0.320815 0.0016497965 -0.049382266 4283723172
-0.32092789 0.0024291871 -0.049057104 4286612393
-0.32104078 0.0032086435 -0.048731904 4286613171
-0.32115367 0.003988157 -0.04840669 4286547633
-0.32126656 0.0047677299 -0.048081446 4286547630
-0.32137948 0.0055473698 -0.047756158 4286545835
-0.3214924 0.0063270479 -0.047430877 4286481054
-0.32125384 0.0068381564 -0.046644785 4286084248
-0.32119113 0.0074821282 -0.046090305 4286019188
-0.32112855 0.0081251711 -0.045536716 4285357683
-0.32106608 0.0087672649 -0.044983957 4285358690
-0.32082909 0.0092728278 -0.044204526 4285029217
-0.32059282 0.0097768838 -0.043427512 4285027143
-0.32053104 0.01041542 -0.042878434 4284566595
-0.32046935 0.011053009 -0.042330194 4284502857
-0.32040778 0.011689663 -0.041782714 4285358667
-0.32034627 0.012325411 -0.04123608 4285687629
-0.3202849 0.012960226 -0.040690303 4285751118
-0.32005081 0.013456251 -0.039922696 4285814875
-0.3199898 0.014088857 -0.03937912 4285553509
-0.31992894 0.014720533 -0.038836323 4285290835
-0.31986815 0.015351314 -0.038294364 4285025340
-0.31980747 0.01598119 -0.037753187 4284565307
-0.31974682 0.01661014 -0.037212797 4284697146
-0.31968635 0.017238185 -0.036673237 4285091392
-0.31945467 0.017725052 -0.035916325 4285228373
