# .PCD v0.7 - Point Cloud Data file format
VERSION 0.7
FIELDS x y z rgba
SIZE 4 4 4 4
TYPE F F F U
COUNT 1 1 1 1
WIDTH 990
HEIGHT 1
VIEWPOINT 0 0 0 1 0 0 0
POINTS 990
DATA ascii
-0.33454514 -0.01095952 -0.016523317 4282342216
-0.33399588 -0.010181355 -0.015789187 4282344013
-0.33362618 -0.0093880966 -0.015296979 4284181325
-0.3334344 -0.0085780816 -0.0150444 4284253265
-0.33324292 -0.0077692196 -0.014792225 4283200337
-0.33340505 -0.0069207498 -0.015016356 4283193158
-0.3332136 -0.0061130235 -0.014764205 4282083910
-0.33355272 -0.0052414588 -0.015226841 4282016068
-0.33371529 -0.0043895626 -0.015451651 4283522628
-0.33405596 -0.0035132405 -0.015916379 4283594309
-0.33457628 -0.002610367 -0.016623192 4284241989
-0.33491954 -0.0017278315 -0.017091485 4284252480
-0.33508417 -0.00086777733 -0.017319104 4284702016
-0.33560926 4.5545752e-05 -0.018032422 4284709952
-0.33613679 0.00096317288 -0.018749015 4284373824
-0.33612189 0.0018027258 -0.018734826 4284314941
-0.33574519 0.0025862865 -0.018233094 4283654461
-0.33554989 0.0033960619 -0.017975748 4283589955
-0.33571547 0.004263089 -0.018204734 4282737219
-0.33570063 0.0051015811 -0.018190544 4282668613
-0.33550537 0.0059096008 -0.017933227 4282083653
-0.33549049 0.0067475745 -0.017919062 4282012748
-0.33547565 0.0075856005 -0.017904881 4282610765
-0.33546081 0.0084236749 -0.017890716 4282675024
-0.33544597 0.0092618279 -0.017876534 4285295696
-0.335251 0.010066332 -0.017619614 4285559636
-0.33505633 0.010869677 -0.017363122 4283525716
-0.33486196 0.011671842 -0.017107014 4283196754
-0.33484715 0.012508297 -0.017092859 4282670418
-0.33483234 0.013344826 -0.017078707 4282537543
-0.33445936 0.014107958 -0.016581831 4281815109
-0.33426589 0.014906058 -0.016326917 4281682495
-0.33407271 0.01570298 -0.016072344 4281222462
-0.33387983 0.016498741 -0.015818199 4281155642
-0.33386508 0.017332375 -0.015804097 4280957753
-0.33367252 0.018126408 -0.015550365 4280891440
-0.33348024 0.018919302 -0.015296968 4280497453
-0.33364299 0.019792709 -0.01552218 4280365612
-0.33380598 0.020667523 -0.015747683 4280496684
-0.33396921 0.021543704 -0.015973546 4280507476
-0.33431131 0.022464365 -0.016440496 4283399012
-0.33447528 0.023344064 -0.016667405 4284517495
-0.33446047 0.024180742 -0.016653256 4285302656
-0.33444563 0.025017494 -0.016639106 4285496713
-0.33460987 0.025900038 -0.016866356 4285563789
-0.33459505 0.026737535 -0.016852176 4285631627
-0.33440116 0.027528057 -0.016596634 4285366921
-0.33420759 0.02831745 -0.016341494 4285238142
-0.3340143 0.029105714 -0.016086737 4285103991
-0.33399948 0.029941538 -0.016072586 4285166184
-0.33398467 0.030777417 -0.016058454 4283060828
-0.33396986 0.031613372 -0.016044319 4281153092
-0.33377689 0.032398731 -0.015789934 4280759599
-0.33376208 0.033234145 -0.015775809 4280366896
-0.33374727 0.034069639 -0.015761683 4281678130
-0.33373249 0.03490518 -0.01574754 4283121478
-0.33371767 0.0357408 -0.015733413 4282079072
-0.33370286 0.036576468 -0.01571927 4280703333
-0.33440202 0.037630647 -0.016667932 4280764525
-0.33420828 0.038413629 -0.016412506 4280833132
-0.33455145 0.039363526 -0.016881159 4280829803
-0.33453658 0.040202659 -0.016866958 4280901727
-0.3348808 0.041156895 -0.017337052 4281420608
-0.33522609 0.042114116 -0.017808544 4282856766
-0.33575347 0.043133695 -0.018525658 4282398517
-0.33591983 0.044037689 -0.018755967 4280760117
-0.33645049 0.045064993 -0.019477518 4280958259
-0.33680058 0.046035245 -0.0199556 4282539581
-0.33733529 0.047071334 -0.020682769 4283016601
-0.33769557 -0.019054245 -0.022122048 4282467966
-0.33749694 -0.018221695 -0.021859327 4282466615
-0.3371155 -0.017403036 -0.0213493 4280629303
-0.33673525 -0.016586861 -0.020840855 4280629039
-0.33635616 -0.015773131 -0.020334033 4280957999
-0.33597824 -0.014961862 -0.019828709 4280958776
-0.33542097 -0.014168121 -0.019080739 4281155640
-0.33504596 -0.013362308 -0.01857931 4281156917
-0.33449298 -0.012575163 -0.017837087 4281616693
-0.33412081 -0.011774773 -0.017339505 4281618498
-0.33357206 -0.010994145 -0.016602961 4282341186
-0.33320272 -0.010199094 -0.016109115 4282344007
-0.33301112 -0.0093878414 -0.015855769 4284256328
-0.33264345 -0.0085969251 -0.015364188 4284319560
-0.33262876 -0.0077688652 -0.015350201 4283194696
-0.33261406 -0.0069407797 -0.015336215 4283126657
-0.33242336 -0.0061336015 -0.015084047 4281908099
-0.33276093 -0.0052627097 -0.015546794 4281819622
-0.33292279 -0.0044114529 -0.015771722 4283486185
-0.33326194 -0.0035357843 -0.016236564 4283529709
-0.33378002 -0.0026336042 -0.016943583 4284274670
-0.3339434 -0.0017762448 -0.017170625 4284254701
-0.33410698 -0.00091752375 -0.017397981 4284732653
-0.33462897 -5.6668914e-06 -0.018110378 4284712167
-0.33479363 0.00085720915 -0.01833914 4284339431
-0.33477879 0.0016942068 -0.01832501 4284316903
-0.33476391 0.0025312549 -0.018310878 4283552231
-0.3345696 0.0033398534 -0.018053874 4283460071
-0.3347342 0.00420553 -0.018282594 4282566120
-0.33471933 0.005042783 -0.018268459 4282407897
-0.33452508 0.005849631 -0.018011486 4281511383
-0.33451024 0.0066863685 -0.017997345 4281423264
-0.33449537 0.0075231316 -0.017983217 4282149530
-0.33448052 0.0083599696 -0.017969074 4282215753
-0.33446568 0.0091968849 -0.017954947 4285488446
-0.33427176 0.010000234 -0.017698405 4285952584
-0.33407813 0.010802421 -0.017442256 4283526986
-0.33388481 0.01160346 -0.017186502 4283197008
-0.33386996 0.012438681 -0.017172404 4282669905
-0.33367693 0.013237954 -0.016917041 4282537285
-0.3334842 0.014036074 -0.016662031 4281814339
-0.33329174 0.014833034 -0.016407469 4281682236
-0.33309963 0.01562885 -0.016153298 4281221691
-0.33290777 0.016423497 -0.015899457 4281090104
-0.33289295 0.017255884 -0.015885411 4280958263
-0.33270141 0.018048815 -0.015632011 4280957234
-0.33251017 0.018840589 -0.015378992 4280563249
-0.33267191 0.019712625 -0.015603902 4280431150
-0.33283389 0.020586066 -0.01582915 4280497454
-0.33299613 0.021460926 -0.0160548 4280576351
-0.33333611 0.022380047 -0.016521115 4284188787
-0.33349913 0.023258416 -0.016747795 4285637237
-0.33348429 0.024093835 -0.016733684 4286748790
-0.33364752 0.02497429 -0.016960671 4287205777
-0.33363268 0.025810476 -0.016946547 4287272352
-0.33361784 0.026646741 -0.016932424 4287341992
-0.33342499 0.027436176 -0.016677232 4287011244
-0.33341014 0.028271927 -0.016663117 4286818198
-0.33304015 0.02901163 -0.016167991 4286946439
-0.33302534 0.029846206 -0.016153898 4287006839
-0.33301052 0.030680854 -0.016139803 4284047466
-0.33299571 0.031515554 -0.016125707 4281415757
-0.33280379 0.032299846 -0.015871735 4280956465
-0.33261213 0.033082984 -0.015618082 4280433224
-0.33259732 0.033916585 -0.015604006 4282073185
-0.3325825 0.034750264 -0.01558993 4284238424
-0.33256772 0.035583995 -0.015575851 4282797392
-0.33255294 0.036417801 -0.015561757 4280762702
-0.33306932 0.03741461 -0.016267179 4280828493
-0.33305448 0.038250428 -0.016253065 4280897106
-0.33321726 0.039142098 -0.016479516 4280960861
-0.33338025 0.040035173 -0.016706295 4281099093
-0.33354348 0.040929701 -0.016933415 4281883713
-0.33388564 0.041883692 -0.017402865 4284171075
-0.33440825 0.042899642 -0.01811688 4283513421
-0.33475307 0.043860447 -0.018589996 4280760392
-0.33527973 0.044885039 -0.019309526 4280892210
-0.33580887 0.045914415 -0.02003238 4281882172
-0.33615792 0.046886064 -0.020511357 4282425238
-0.33670267 -0.019077232 -0.022194024 4282467965
-0.33650509 -0.018245906 -0.021931689 4282467639
-0.33612573 -0.017428426 -0.021422362 4280563767
-0.3357476 -0.016613446 -0.020914659 4280563247
-0.33519 -0.015814736 -0.020163046 4280826927
-0.33481473 -0.015005227 -0.019659163 4280826936
-0.33426139 -0.014213189 -0.018913353 4280958776
-0.33388898 -0.013409112 -0.018413348 4280959284
-0.33351773 -0.01260747 -0.017914884 4281420084
-0.33314759 -0.011808206 -0.017417928 4281421633
-0.33277857 -0.011011306 -0.016922487 4282210113
-0.33241072 -0.010216808 -0.016428586 4282219591
-0.33204395 -0.0094246296 -0.015936147 4285502535
-0.33185366 -0.0086157415 -0.01568356 4285621063
-0.33183894 -0.0077882851 -0.015669601 4287650119
-0.33182424 -0.0069607552 -0.015655642 4287735175
-0.33163422 -0.0061541786 -0.015403393 4287612553
-0.33179483 -0.0053055659 -0.015627721 4287607798
-0.33213145 -0.0044332873 -0.016091311 4289519354
-0.3322928 -0.0035812971 -0.016316675 4289562367
-0.33280784 -0.0026805734 -0.01702282 4288799487
-0.33297014 -0.0018245149 -0.017249554 4288714751
-0.33313271 -0.0009670931 -0.017476631 4291486463
-0.3334735 -8.250789e-05 -0.017945934 4291683839
-0.33345869 0.00075187138 -0.017931864 4289916159
-0.33362201 0.0016134441 -0.018159986 4289768703
-0.33378559 0.0024763686 -0.018388472 4290176255
-0.33359233 0.0032838432 -0.018131819 4290162431
-0.33375588 0.0041481755 -0.01836028 4291549951
-0.33374101 0.0049841674 -0.018346185 4291679214
-0.33354777 0.0057898709 -0.018089561 4289905900
-0.33353293 0.006625351 -0.018075457 4289439404
-0.33351806 0.007460881 -0.018061372 4290147237
-0.33332515 0.0082642511 -0.017805178 4290290760
-0.33313251 0.0090664662 -0.017549364 4284048187
-0.33311769 0.009900894 -0.017535279 4283132230
-0.33274812 0.010667389 -0.017038869 4286737992
-0.3327333 0.01150067 -0.017024821 4287390800
-0.33271852 0.012334025 -0.017010756 4282931793
-0.3325268 0.013131572 -0.016756158 4282142788
-0.33233535 0.013928 -0.016501876 4281617474
-0.33232054 0.014760233 -0.016487848 4281484604
-0.33230576 0.015592546 -0.016473802 4281024826
-0.33211464 0.016386669 -0.016219988 4280958264
-0.33209985 0.017218471 -0.016205952 4280761655
-0.33208507 0.018050326 -0.016191931 4280760627
-0.33189425 0.018842146 -0.015938502 4280497714
-0.33187947 0.019673493 -0.015924491 4280431919
-0.3320407 0.020546263 -0.016149834 4280432174
-0.33220217 0.021420445 -0.016375514 4280444258
-0.33254069 0.022338856 -0.016842034 4283926647
-0.33252585 0.023173001 -0.01682796 4285570676
-0.33268806 0.024051374 -0.017054681 4287142259
-0.33267325 0.024886282 -0.017040595 4287928212
-0.33265838 0.025721211 -0.017026527 4287732646
-0.33264354 0.026556246 -0.017012442 4287668914
-0.33245173 0.027344573 -0.016757602 4287667385
-0.33243689 0.028179068 -0.016743526 4287604127
-0.33206892 0.028917836 -0.01624907 4287011981
-0.33205411 0.029751183 -0.016235014 4286614654
-0.3320393 0.030584589 -0.016220955 4284047728
-0.33202448 0.031418063 -0.016206915 4281809233
-0.33183354 0.032201253 -0.015953276 4281546546
-0.33181876 0.033034198 -0.015939228 4281222738
-0.33180395 0.033867214 -0.015925178 4281749623
-0.33161333 0.034648146 -0.015671924 4282409316
-0.33159855 0.035480633 -0.015657885 4282081863
-0.3314082 0.036259834 -0.015405015 4281613890
-0.33156896 0.037145827 -0.015629806 4282798138
-0.33172992 0.038033217 -0.01585491 4285160770
-0.33206743 0.03897753 -0.016320257 4284379221
-0.33222914 0.039868478 -0.016546387 4282804560
-0.33239108 0.040760852 -0.016772883 4282808385
-0.33273068 0.041712441 -0.017241057 4282864199
-0.33307129 0.042666994 -0.01771065 4282666846
-0.33377057 0.043743659 -0.018668361 4281808983
-0.33411437 0.04470589 -0.019142345 4281809458
-0.33463955 0.045732521 -0.01986317 4281618491
-0.33516714 0.046763998 -0.020587346 4282162580
-0.33571282 -0.019100122 -0.022265894 4282467192
-0.33533496 -0.018282006 -0.021756446 4282467643
-0.33513904 -0.017453762 -0.021495286 4280563003
-0.33476293 -0.016639952 -0.020988222 4280563244
-0.33420843 -0.01584236 -0.020237608 4280825644
-0.33365649 -0.015048394 -0.019490479 4280826928
-0.333285 -0.014243086 -0.018989608 4280958000
-0.33291462 -0.013440168 -0.018490296 4280959289
-0.3325454 -0.012639656 -0.017992457 4281418809
-0.33217728 -0.011841537 -0.017496176 4281421631
-0.33181033 -0.011045774 -0.017001418 4282208831
-0.33144441 -0.01025236 -0.016508143 4282220355
-0.33125457 -0.0094428668 -0.01625512 4285621827
-0.33106494 -0.0086345328 -0.016002448 4285750869
-0.33105025 -0.0078076543 -0.015988519 4288138838
-0.33103552 -0.0069807279 -0.015974587 4288197071
-0.33084622 -0.0061746975 -0.015722344 4288180947
-0.33083153 -0.0053482722 -0.015708422 4288199018
-0.33116618 -0.0044773556 -0.016171498 4290147687
-0.33132651 -0.0036266746 -0.01639655 4290217047
-0.33166265 -0.0027510168 -0.016861739 4289431382
-0.33199984 -0.0018726361 -0.017328294 4289368665
-0.33216143 -0.0010165086 -0.01755514 4292449626
-0.33250013 -0.00013333341 -0.018023817 4292668845
-0.33248529 0.00069982209 -0.018009782 4290666931
-0.33264765 0.0015600633 -0.018237675 4290554511
-0.33281019 0.0024216715 -0.018465897 4291069068
-0.33261794 0.0032279792 -0.018209599 4291145065
-0.33278048 0.0040909918 -0.018437782 4292793707
-0.33276561 0.0049257283 -0.018423725 4292994176
-0.33257338 0.0057302965 -0.018167458 4291059842
-0.33255854 0.0065645212 -0.018153409 4290881365
-0.33236659 0.0073673413 -0.017897513 4291650126
-0.33217499 0.0081689926 -0.017642027 4291800241
-0.33216017 0.0090021165 -0.017627999 4283794879
-0.33196887 0.0098020323 -0.017372947 4282608721
-0.33177781 0.010600773 -0.017118232 4287335746
-0.33158708 0.011398348 -0.016863948 4288178511
-0.33157226 0.012229822 -0.016849946 4283060817
-0.33155748 0.01306137 -0.01683593 4282076483
-0.33136705 0.013856669 -0.016582049 4281551168
-0.33135226 0.014687684 -0.016568057 4281418553
-0.3311621 0.015481232 -0.016314544 4281024567
-0.33132267 0.016349895 -0.016540058 4280892469
-0.33130786 0.017181111 -0.016526066 4280760884
-0.33129308 0.018012358 -0.016512075 4280694832
-0.33110297 0.018803652 -0.016258581 4280497199
-0.33126348 0.019675076 -0.016484071 4280431918
-0.33124867 0.02050652 -0.01647006 4280432173
-0.33158517 0.021422105 -0.016935999 4280444000
-0.33174643 0.022297727 -0.017162509 4283926643
-0.3319079 0.023174737 -0.017389333 4285504641
-0.33189306 0.024008978 -0.017375277 4287277191
-0.3317019 0.024798522 -0.017120406 4288192925
-0.33168709 0.025632227 -0.017106358 4287929513
-0.33149621 0.026420048 -0.016851835 4287799722
-0.3314814 0.027253246 -0.016837798 4287864235
-0.33129087 0.02803936 -0.016583694 4287931560
-0.33110061 0.028824331 -0.016329994 4287079333
-0.3310858 0.029656434 -0.016315976 4286419848
-0.33107099 0.030488616 -0.016301958 4284048495
-0.33105618 0.031320851 -0.016287936 4281940817
-0.33104137 0.032153156 -0.016273934 4281812019
-0.33102655 0.032985512 -0.016259914 4281686850
-0.33101174 0.033817921 -0.01624589 4281619284
-0.33099693 0.034650408 -0.01623187 4281492841
-0.33098209 0.035482965 -0.016217848 4281699462
-0.33061743 0.03620892 -0.015725696 4282083978
-0.33060262 0.037040312 -0.015711695 4284048012
-0.33076259 0.037926324 -0.015936539 4287723386
-0.33092281 0.038813736 -0.016161751 4286678609
-0.330908 0.039646577 -0.016147725 4283981403
-0.33106843 0.040536098 -0.016373239 4283533942
-0.33158097 0.041541975 -0.017080007 4281882224
-0.33191901 0.042494107 -0.017548319 4282017108
-0.33261311 0.043567803 -0.018503338 4282666576
-0.33313277 0.044587821 -0.019219927 4282530100
-0.33365482 0.045612641 -0.019939842 4281355066
-0.33417931 0.04664227 -0.020663088 4281637778
-0.33472592 -0.019122971 -0.022337519 4282139512
-0.33453044 -0.018294102 -0.022075929 4282137403
-0.33415526 -0.017478995 -0.021567985 4280431931
-0.33378124 -0.016666373 -0.021061633 4280431916
-0.33340839 -0.015856177 -0.020556848 4280628780
-0.33303669 -0.015048391 -0.020053566 4280629295
-0.33248869 -0.014257973 -0.019308604 4280761391
-0.33211976 -0.013455625 -0.018809162 4280761913
-0.33175206 -0.012655672 -0.01831129 4281091129
-0.33156118 -0.011841385 -0.018055907 4281091647
-0.33119512 -0.011045572 -0.017560329 4281881151
-0.33083016 -0.010252133 -0.017066201 4281961795
-0.33064073 -0.0094425902 -0.016812788 4283720003
-0.33045155 -0.0086342292 -0.016559711 4283787094
-0.33043683 -0.0078073293 -0.016545799 4291746391
-0.33024797 -0.0070006698 -0.01629314 4292010714
-0.33005941 -0.0061951838 -0.016040867 4289226974
-0.33021849 -0.0053478214 -0.016265344 4289155158
-0.33037785 -0.0044991178 -0.016490167 4287062610
-0.33053747 -0.0036490459 -0.016715355 4286991935
-0.33087209 -0.0027740679 -0.01718065 4290016830
-0.33103245 -0.0019206111 -0.017406875 4290205506
-0.33101764 -0.0010907075 -0.01739293 4287792962
-0.33152971 -0.00018399786 -0.018101573 4287586722
-0.331339 0.00062168075 -0.017846324 4287055016
-0.33150005 0.0014799156 -0.0180736 4287213439
-0.33166131 0.0023395359 -0.018301152 4288968572
-0.33164647 0.0031722814 -0.018287143 4289158483
-0.33163163 0.0040050792 -0.018273136 4291545935
-0.33161676 0.0048379507 -0.018259142 4291785067
-0.33142588 0.0056407936 -0.01800363 4288365166
-0.33141103 0.0064731315 -0.01798963 4288060484
-0.33139619 0.0073055434 -0.017975628 4289551678
-0.33120555 0.0081060641 -0.017720472 4289775556
-0.33101526 0.0089054154 -0.017465746 4287991767
-0.33082521 0.0097035998 -0.017211404 4287717464
-0.33063546 0.01050064 -0.016957417 4287926848
-0.330446 0.011296522 -0.016703842 4287981902
-0.33060586 0.012161051 -0.016929496 4282601553
-0.33059105 0.012991359 -0.016915536 4281617219
-0.33040163 0.013785523 -0.016661989 4281354304
-0.33038682 0.014615324 -0.016648037 4281287224
-0.33037204 0.015445178 -0.016634082 4280827702
-0.33035722 0.016275106 -0.016620129 4280761140
-0.33034244 0.01710506 -0.016606176 4280694835
-0.33032766 0.017935114 -0.016592205 4280694063
-0.33031285 0.018765192 -0.01657825 4280431406
-0.33029804 0.019595373 -0.016564293 4280366381
-0.33045778 0.020466832 -0.016789837 4280497453
-0.33061779 0.021339701 -0.017015725 4280572508
-0.3309533 0.022256656 -0.017482514 4283991410
-0.33093843 0.023089601 -0.017468512 4285569412
-0.33092359 0.023922594 -0.017454496 4287016078
-0.33090875 0.02475564 -0.017440494 4287802784
-0.33071864 0.025543509 -0.017185967 4288258730
-0.33052883 0.026330253 -0.016931808 4288587943
-0.33051398 0.027162202 -0.016917827 4288193189
-0.33049914 0.02799423 -0.016903823 4287932075
-0.3301352 0.028731106 -0.016410669 4287342768
-0.33012038 0.029561995 -0.016396688 4286814093
-0.33010554 0.030392932 -0.016382726 4284442734
-0.33026513 0.031273425 -0.016608102 4282072401
-0.33042496 0.032155313 -0.016833864 4282141492
-0.33041012 0.032987721 -0.016819861 4282277178
-0.33039528 0.033820182 -0.016805856 4281747777
-0.33038044 0.034652691 -0.016791867 4281029484
-0.3303656 0.035485271 -0.01677786 4282483628
-0.33000183 0.036211275 -0.016284876 4284780468
-0.32998702 0.037042689 -0.016270904 4284776644
-0.32979816 0.037819728 -0.016018027 4284837535
-0.32995737 0.038705751 -0.016242931 4284176719
-0.32994255 0.039537378 -0.016228944 4282142563
-0.32992771 0.040369049 -0.016214956 4282417568
-0.33026168 0.041315015 -0.01667982 4283323024
-0.33059663 0.042263933 -0.017146079 4283389516
-0.33146092 0.043392748 -0.018339153 4283785545
-0.33197671 0.044410069 -0.019053718 4283448118
-0.33267313 0.045493133 -0.020016354 4281288764
-0.33319449 0.046520945 -0.020738665 4281571472
-0.33392182 -0.019134443 -0.02265659 4282073207
-0.33354756 -0.018318092 -0.022147769 4282071613
-0.3333534 -0.017491659 -0.021886939 4280431421
-0.33298087 -0.016679592 -0.021380473 4280431913
-0.33243173 -0.015883673 -0.020630745 4280562473
-0.33206207 -0.01507706 -0.020128176 4280563503
-0.33169353 -0.014272865 -0.019627154 4280760879
-0.3313261 -0.013471055 -0.01912763 4280761908
-0.33095983 -0.012671643 -0.018629631 4281023796
-0.33076969 -0.011857912 -0.018374261 4281025852
-0.33040509 -0.011062682 -0.017878558 4281879868
-0.33021581 -0.010251908 -0.017624332 4281896770
-0.330201 -0.0094238482 -0.017610431 4283455554
-0.32983813 -0.0086339042 -0.017117009 4283524958
-0.32982334 -0.0078069768 -0.017103128 4292271967
-0.32980856 -0.0069799768 -0.017089244 4292536775
-0.32962015 -0.006173871 -0.016836191 4289414602
-0.32960543 -0.0053473697 -0.016822303 4289282163
-0.32976428 -0.0044986163 -0.017047582 4286606960
-0.32992339 -0.0036485207 -0.01727321 4286531398
-0.32990861 -0.0028205856 -0.017259313 4290097987
-0.32989383 -0.0019926021 -0.017245417 4290335601
-0.32987905 -0.0011645423 -0.017231505 4287055730
-0.33003831 -0.00031101133 -0.017457413 4286859609
-0.33002353 0.00051778054 -0.017443486 4286536024
-0.33018303 0.001373369 -0.017669747 4286557908
-0.33016825 0.002202943 -0.01765581 4288576992
-0.33032799 0.0030605721 -0.017882425 4288761687
-0.33031318 0.0038908797 -0.017868476 4291348553
-0.33047315 0.004750601 -0.01809538 4291583118
-0.33028352 0.0055516716 -0.017840594 4288040342
-0.33026871 0.0063821822 -0.017826643 4287536201
-0.33007935 0.0071815234 -0.017572207 4289161023
-0.33006454 0.0080115031 -0.017558284 4289384154
-0.32987547 0.0088091493 -0.01730427 4288982000
-0.32968676 0.0096056117 -0.017050661 4288897627
-0.32967195 0.01043453 -0.017036738 4288056639
-0.32948345 0.011229273 -0.016783493 4287916102
-0.32946867 0.012057662 -0.016769581 4282666056
-0.32962754 0.012921564 -0.016994985 4281485886
-0.32961273 0.01375071 -0.01698106 4281287228
-0.32942429 0.014543185 -0.016727837 4281221430
-0.32940951 0.015371824 -0.016713923 4280826932
-0.3293947 0.016200518 -0.016700007 4280695345
-0.32937992 0.017029257 -0.016686091 4280694064
-0.3293651 0.017858075 -0.016672175 4280693551
-0.32952389 0.01872682 -0.0168975 4280431407
-0.32950908 0.019556394 -0.016883573 4280300588
-0.32966805 0.020427208 -0.017109182 4280497964
-0.32982728 0.021299399 -0.017335156 4280572249
-0.33016133 0.022215651 -0.017802125 4284056685
-0.33014646 0.023047986 -0.017788149 4285634678
-0.33013162 0.023880392 -0.017774174 4286946171
-0.32994223 0.024668302 -0.017519588 4287604892
-0.3297531 0.025455056 -0.017265372 4288458159
-0.32956424 0.026240695 -0.017011568 4288917934
-0.32954943 0.027071429 -0.016997622 4288324014
-0.32953459 0.027902244 -0.01698366 4287931556
-0.32951975 0.02873311 -0.016969714 4287472796
-0.32933125 0.029515907 -0.016716344 4287009665
-0.3294901 0.03039501 -0.016941803 4284574568
-0.32947525 0.031226074 -0.016927853 4282138447
-0.32963431 0.032107275 -0.017153682 4282336051
-0.32979363 0.032989901 -0.017379859 4282601790
-0.32977876 0.03382241 -0.017365888 4281877838
-0.32976392 0.034654971 -0.017351897 4280764506
-0.32957491 0.03543485 -0.017097807 4282940271
-0.3293862 0.036213625 -0.016844103 4286619782
-0.32919779 0.036991268 -0.016590822 4285434291
-0.32883659 0.037713476 -0.01609925 4282864032
-0.32899481 0.038598102 -0.01632393 4282333808
-0.32898 0.039428484 -0.01630998 4280700537
-0.32896516 0.04025894 -0.016296029 4281564067
-0.3292971 0.04120335 -0.016760331 4284633490
-0.32963008 0.042150714 -0.017226039 4284630857
-0.33048934 0.043277383 -0.018417556 4284769351
-0.33100209 0.044292904 -0.019131256 4284431414
-0.33169439 0.045373999 -0.020092694 4281157179
-0.33221269 0.04639997 -0.020814106 4281505164
-0.33276117 -0.019168405 -0.022480352 4281876343
-0.33238953 -0.018353835 -0.02197299 4281875773
-0.33237454 -0.017516779 -0.021958966 4280496957
-0.3320041 -0.016705897 -0.02145322 4280497449
-0.33163479 -0.015897403 -0.020949021 4280431401
-0.33126661 -0.015091361 -0.020446369 4280431919
-0.33089954 -0.014287711 -0.019945219 4280433199
-0.33070898 -0.01347098 -0.019688269 4280433459
-0.33034363 -0.012671516 -0.019189447 4280761395
-0.32997939 -0.011874439 -0.018692177 4280762427
-0.32979023 -0.011062481 -0.01843713 4281420859
-0.32960141 -0.010251681 -0.018182494 4281434946
-0.3295866 -0.0094235726 -0.01816861 4283913794
-0.3293981 -0.0086145094 -0.017914388 4283983711
-0.32938328 -0.0077869045 -0.017900515 4291747936
-0.32919502 -0.0069796015 -0.017646644 4292003780
-0.32918024 -0.006152499 -0.017632777 4288822983
-0.32899228 -0.0053469208 -0.017379327 4288767095
-0.3289775 -0.0045203213 -0.017365471 4288245876
-0.32913586 -0.0036708382 -0.017591162 4288170055
-0.32894793 -0.0028669673 -0.017337738 4291738692
-0.32910627 -0.0020161048 -0.017563423 4291933048
-0.32891837 -0.0012133644 -0.017310021 4287971963
-0.32907668 -0.00036114204 -0.017535666 4287708748
-0.32906187 0.00046643874 -0.017521797 4289354825
-0.32904708 0.0012940959 -0.017507926 4289503459
-0.32903227 0.0021217794 -0.017494038 4288773363
-0.32901749 0.002949537 -0.017480165 4288694616
-0.32917598 0.0038059042 -0.01770615 4290430792
-0.32916117 0.0046344181 -0.017692249 4290621333
-0.32897305 0.0054331901 -0.017438527 4289485469
-0.32895827 0.0062611997 -0.017424634 4289364043
-0.32877046 0.0070582586 -0.017171333 4288308543
-0.32875568 0.0078857429 -0.01715745 4288134623
-0.32874086 0.0087133013 -0.017143585 4288917750
-0.32855341 0.0095080994 -0.016890688 4289028700
-0.3285386 0.010335129 -0.016876834 4287728703
-0.32852381 0.011162237 -0.016862959 4287521860
-0.32868168 0.012024139 -0.017088063 4282403397
-0.32866687 0.012851999 -0.017074194 4281221949
-0.32865205 0.013679911 -0.017060306 4281024571
-0.32863724 0.014507898 -0.017046418 4280958261
-0.32844985 0.0152987 -0.016793594 4280695347
-0.32860762 0.016164022 -0.017018659 4280629040
-0.32859284 0.016992183 -0.017004769 4280496943
-0.32857803 0.017820423 -0.01699088 4280431663
-0.32873604 0.018688496 -0.017216269 4280365871
-0.32889432 0.019557996 -0.017442027 4280366124
-0.32905281 0.020428833 -0.017668078 4280497963
-0.32903793 0.021259192 -0.017654171 4280571735
-0.32937053 0.022174709 -0.018121293 4284122219
-0.32935566 0.023006458 -0.018107345 4285701489
-0.32934079 0.023838257 -0.0180934 4287534964
-0.32897854 0.024581226 -0.017598469 4288519578
-0.3289637 0.025411885 -0.01758454 4288392369
-0.32860258 0.026151435 -0.017091151 4288325810
-0.32858777 0.026980961 -0.017077241 4288256178
-0.32874593 0.027857346 -0.017302871 4288194464
-0.32855809 0.028640162 -0.017049409 4287669906
-0.32854328 0.029469863 -0.017035499 4287206012
-0.32870138 0.030348342 -0.017261112 4284837221
-0.32885969 0.031228177 -0.017487017 4282531917
-0.32901827 0.032109454 -0.017713288 4282072626
-0.32917711 0.03299211 -0.017939907 4281619521
-0.32916221 0.033824645 -0.017925953 4281487445
-0.32914734 0.034657225 -0.017911997 4281285967
-0.32895875 0.035437156 -0.017657492 4282608453
-0.3285974 0.036162756 -0.017163619 4285176934
-0.32840967 0.036939889 -0.016910261 4284116902
-0.32804999 0.037661687 -0.016418638 4281879454
-0.32803515 0.038490806 -0.016404741 4282405257
-0.3280203 0.039319959 -0.016390847 4283715983
-0.32800549 0.040149201 -0.016376935 4283595685
-0.32816291 0.041035209 -0.016601648 4283062166
-0.32849339 0.041980181 -0.017066078 4283192391
-0.32934627 0.043103673 -0.018254288 4284245829
-0.32985517 0.044116508 -0.018965969 4284038197
-0.33054239 0.045194596 -0.01992471 4281090360
-0.3312338 0.046279397 -0.020889303 4281108615
-0.33160576 -0.019202238 -0.022304991 4281810806
-0.33141363 -0.018377641 -0.022044841 4281810235
-0.33139867 -0.017541846 -0.022030842 4280497211
-0.33120683 -0.01671903 -0.021771131 4280497453
-0.33083901 -0.015911138 -0.021266848 4280432429
-0.33047229 -0.015105641 -0.020764133 4280431920
-0.33010671 -0.014302533 -0.020262906 4280366640
-0.32991689 -0.013486389 -0.020005941 4280367665
-0.32972735 -0.012671418 -0.019749317 4280694833
-0.32936403 -0.01187429 -0.019251224 4280696630
-0.32917532 -0.011062282 -0.018995769 4281353782
-0.32898694 -0.010251458 -0.018740725 4281368890
-0.32897213 -0.0094232988 -0.018726857 4283985722
-0.32878405 -0.0086142085 -0.01847223 4284049232
-0.32894245 -0.0077668293 -0.018699121 4291669585
-0.32858142 -0.0069792271 -0.018204093 4291936497
-0.32856661 -0.0061520748 -0.018190244 4288782326
-0.32837909 -0.0053464724 -0.017936384 4288638586
-0.32836428 -0.0045198472 -0.017922545 4288507254
-0.3283495 -0.0036931457 -0.017908705 4288497783
-0.32833469 -0.0028663937 -0.017894862 4292006519
-0.32831988 -0.0020395934 -0.017881021 4292265696
-0.32813272 -0.0012373936 -0.01762761 4288119015
-0.32829025 -0.00038578812 -0.017853336 4287840371
-0.32827544 0.00044118904 -0.017839495 4289834092
-0.32826063 0.0012682445 -0.017825648 4290029183
-0.32824582 0.0020953482 -0.017811803 4288833665
-0.32823101 0.0029225266 -0.01779796 4288693842
-0.32804391 0.0037213152 -0.01754459 4290210893
-0.32820138 0.0045770379 -0.017770249 4290360963
-0.32784227 0.0053450372 -0.017277747 4289815690
-0.32782748 0.0061711897 -0.017263906 4289755973
-0.32781267 0.0069974181 -0.017250078 4288115259
-0.32762614 0.0077922097 -0.016997501 4287871190
-0.32778308 0.0086500244 -0.017222404 4288911859
-0.32759658 0.0094436873 -0.016969848 4289092954
-0.32775345 0.01030288 -0.017194744 4287662653
-0.32756698 0.011095419 -0.01694219 4287391042
-0.32789582 0.011990663 -0.017406151 4282336579
-0.32788101 0.012817923 -0.017392293 4281155641
-0.32786617 0.013645254 -0.017378448 4280958263
-0.32785138 0.014472637 -0.017364589 4280892209
-0.32766464 0.015262915 -0.017111704 4280629295
-0.32782173 0.016127605 -0.017336883 4280562987
-0.32780689 0.016955165 -0.017323039 4280431146
-0.32779208 0.017782798 -0.017309178 4280366123
-0.32812172 0.018690046 -0.017774334 4280365867
-0.32810685 0.019519063 -0.017760467 4280366125
-0.32826465 0.020389266 -0.017986653 4280497709
-0.32842264 0.021260867 -0.018213136 4280571219
-0.32875425 0.022176413 -0.018681126 4283990884
-0.32873935 0.023008211 -0.018667212 4285767800
-0.32855108 0.02379618 -0.018412158 4287735682
-0.32836312 0.024583025 -0.018157518 4288914317
-0.32817549 0.025368758 -0.01790328 4288387733
-0.32798806 0.026153335 -0.01764938 4288059541
-0.32797322 0.026982883 -0.017635489 4288188820
-0.32795835 0.027812481 -0.017621616 4288325272
-0.32794347 0.028642185 -0.017607724 4287802779
-0.3277564 0.029423913 -0.017354265 4287273089
-0.32791376 0.030301711 -0.017579939 4285034088
-0.32789889 0.031131564 -0.017566046 4282794319
-0.32822919 0.032061495 -0.018032316 4281940019
-0.32838726 0.032943483 -0.018259019 4280897853
-0.32837236 0.033775408 -0.01824509 4281231180
-0.32835749 0.034607407 -0.018231146 4281682759
-0.32834259 0.035439484 -0.018217217 4282468415
-0.32798213 0.036165107 -0.017722525 4284049738
-0.32779485 0.036942262 -0.017468756 4283195240
-0.32743603 0.037664104 -0.016976319 4281092965
-0.32724959 0.038438484 -0.016723692 4282410077
-0.32706347 0.039211746 -0.01647146 4286401891
-0.32704863 0.040039759 -0.016457602 4285495661
-0.32720509 0.040924393 -0.016682072 4281488235
-0.32736179 0.041810445 -0.016906889 4281753180
-0.32838151 0.042989187 -0.018332677 4283716184
-0.32871351 0.043940898 -0.01880151 4283513652
-0.32957056 0.045076363 -0.020000976 4281024310
-0.33025789 0.046159156 -0.020964354 4281039741
-0.33063179 -0.019224748 -0.022376273 4281548662
-0.33044067 -0.018401375 -0.022116527 4281548603
-0.33042574 -0.017566811 -0.022102565 4280562747
-0.33023492 -0.016745215 -0.02184321 4280562733
-0.33021995 -0.015911164 -0.021829259 4280367149
-0.32985416 -0.015105642 -0.0213257 4280366384
-0.3294895 -0.014302509 -0.02082363 4280431920
-0.32930014 -0.013486315 -0.020566273 4280432433
-0.32911104 -0.012671294 -0.020309236 4280694577
-0.32874861 -0.011874141 -0.019810306 4280695605
-0.32856038 -0.011062083 -0.019554442 4280894773
-0.32837245 -0.010251233 -0.019298989 4280898105
-0.32835758 -0.009423025 -0.019285154 4286607929
-0.32816997 -0.0086139115 -0.01903012 4286797133
-0.32832789 -0.0077664796 -0.019257452 4284130382
-0.32796773 -0.0069788275 -0.018761607 4283997689
-0.32795289 -0.0061516757 -0.018747775 4290686975
-0.32793808 -0.0053244233 -0.018733943 4290957439
-0.32775101 -0.0045193485 -0.018479688 4292309622
-0.3277362 -0.0036926228 -0.018465862 4292399488
-0.32772136 -0.0028658474 -0.018452058 4293451649
-0.32753462 -0.0020630462 -0.018198229 4293520883
-0.3275198 -0.0012367715 -0.018184412 4292513275
-0.32750499 -0.00041042213 -0.018170597 4292462203
-0.32749018 0.00041597933 -0.01815678 4293052530
-0.32747534 0.0012424291 -0.018142965 4293124456
-0.32746053 0.0020689573 -0.018129146 4292700775
-0.32744569 0.0028955338 -0.018115327 4292657488
-0.32725927 0.0036937813 -0.017861897 4292830286
-0.32724446 0.004519857 -0.017848089 4292859775
-0.32688731 0.0052868077 -0.017356241 4292635270
-0.32670173 0.0060816114 -0.017103966 4292459332
-0.32651645 0.0068752659 -0.016852101 4291657274
-0.3265017 0.0076990738 -0.016838316 4291537877
-0.32648692 0.008522952 -0.016824545 4285501682
-0.3263019 0.0093143601 -0.016573036 4284373593
-0.32645735 0.010170887 -0.016797002 4287072061
-0.32644257 0.01099494 -0.01678323 4287650113
-0.3267689 0.011888051 -0.017245878 4281942082
-0.32709622 0.012783914 -0.017709931 4280696119
-0.32725286 0.013646577 -0.017935602 4280630069
-0.32723802 0.014474008 -0.017921757 4280629040
-0.32705176 0.015264308 -0.017668465 4280563246
-0.32720834 0.016129052 -0.017894104 4280562730
-0.32736516 0.01699513 -0.018120019 4280365352
-0.32735029 0.017823443 -0.018106177 4280300329
-0.32750735 0.018691616 -0.018332448 4280300330
-0.32749245 0.019520661 -0.018318597 4280300333
-0.32764974 0.020390892 -0.018545225 4280366382
-0.32780722 0.021262519 -0.018772168 4280437585
-0.3281379 0.022178113 -0.019241026 4283596641
-0.32812297 0.023009939 -0.01922713 4285239931
-0.32793516 0.023797954 -0.018971667 4286752393
-0.32774764 0.02458485 -0.018716615 4287604360
-0.32738835 0.025325684 -0.018221553 4287664519
-0.32737347 0.026155205 -0.01820768 4287664774
-0.32718679 0.026938699 -0.017953785 4287926405
-0.3273437 0.027814453 -0.018179948 4288127123
-0.32698557 0.02854952 -0.017686456 4287671456
-0.32697073 0.029378038 -0.017672602 4287208069
-0.32695585 0.030206606 -0.017658746 4285165673
-0.32728419 0.031133683 -0.018124444 4282859856
-0.32744128 0.032013606 -0.018350931 4281873203
-0.3275986 0.032894935 -0.0185777 4280630842
-0.3275837 0.033726279 -0.018563798 4280900677
-0.32774124 0.034609683 -0.018790919 4281493313
-0.32772633 0.035441786 -0.018777009 4282207034
-0.3273668 0.036167454 -0.018281482 4283579959
-0.32717997 0.036944658 -0.018027304 4282796593
-0.32682207 0.037666522 -0.017534036 4280892467
-0.32646522 0.038386241 -0.017042223 4281486903
-0.32627979 0.039159007 -0.016789975 4283712823
-0.32626495 0.039986454 -0.016776143 4283721781
-0.32625011 0.040813912 -0.016762313 4282927679
-0.32640582 0.04169856 -0.016986854 4282863220
-0.32724753 0.042816788 -0.018170329 4282333806
-0.32774964 0.043825191 -0.018879132 4282268210
-0.32860163 0.044958498 -0.02007704 4280958004
-0.32910994 0.04597814 -0.020794624 4280971373
-0.32966074 -0.019247191 -0.022447426 4281480563
-0.32947066 -0.018425038 -0.022188025 4281483069
-0.32963079 -0.017579319 -0.022419577 4280562493
-0.3296158 -0.016745294 -0.022405658 4280562734
-0.32942575 -0.015924854 -0.022146303 4280366126
-0.329236 -0.015105619 -0.021887319 4280366381
-0.32904646 -0.01428759 -0.021628715 4280431149
-0.32885727 -0.013470733 -0.021370547 4280432174
-0.32866839 -0.012655073 -0.021112768 4280694062
-0.32847974 -0.011840611 -0.02085535 4280695344
-0.32811829 -0.011044623 -0.020355586 4280826416
-0.32793048 -0.010233096 -0.02009934 4280830258
-0.32791561 -0.009404256 -0.020085493 4287125042
-0.32772812 -0.0085944673 -0.01982967 4287320127
-0.32805869 -0.0077265357 -0.020300196 4282669632
-0.32787094 -0.0069173095 -0.02004399 4282553436
-0.32785603 -0.0060882173 -0.020030143 4291061341
-0.32766861 -0.0052807233 -0.019774357 4291353963
-0.32765371 -0.0044521359 -0.019760517 4292969579
-0.32763883 -0.0036234984 -0.01974668 4293127328
-0.32762393 -0.0027947845 -0.019732857 4293703588
-0.32743683 -0.0019901562 -0.019477492 4293784277
-0.32725 -0.0011867295 -0.019222468 4293507544
-0.3272351 -0.00035909776 -0.019208666 4293519054
-0.32704857 0.00044263422 -0.018954063 4293840333
-0.3270337 0.0012697635 -0.018940251 4293848786
-0.32684746 0.0020697522 -0.018686067 4293574866
-0.3266615 0.002868575 -0.01843222 4293584850
-0.3264758 0.0036662929 -0.0181788 4293441997
-0.32629037 0.0044628256 -0.017925754 4293454534
-0.32559583 0.0051699271 -0.016958511 4293240261
-0.32541177 0.0059624496 -0.016707337 4293252487
-0.32522801 0.0067538475 -0.016456524 4292706174
-0.32504448 0.0075441087 -0.016206097 4292585068
-0.32502976 0.0083649103 -0.016192395 4284572009
-0.32484654 0.0091534909 -0.015942365 4283060546
-0.32500026 0.010006718 -0.01616499 4286864698
-0.32515422 0.010861304 -0.016387958 4287712055
-0.32564706 0.011785898 -0.017086379 4281875767
-0.32648334 0.012785185 -0.018266695 4280499249
-0.3266395 0.013647896 -0.018492805 4280497968
-0.32679585 0.014511961 -0.018719194 4280497453
-0.32678097 0.015340125 -0.018705372 4280562220
-0.32693756 0.016206261 -0.018932134 4280562218
-0.32692266 0.017035177 -0.018918302 4280299817
-0.32690778 0.017864119 -0.018904466 4280234795
-0.3270646 0.018733041 -0.019131558 4280300331
-0.3270497 0.01956274 -0.019117713 4280300332
-0.3272067 0.020433711 -0.019345105 4280366125
-0.3271918 0.021264192 -0.019331232 4280370488
-0.32734904 0.022137249 -0.019558979 4283454784
-0.32733411 0.022968464 -0.01954511 4285035849
-0.32714704 0.023755968 -0.019289639 4286214222
-0.32713211 0.024586676 -0.019275781 4286940241
-0.32677373 0.02532753 -0.01877987 4287263574
-0.3265875 0.026111623 -0.018525572 4287462741
-0.3265726 0.02694062 -0.018511726 4287788373
-0.3265577 0.027769689 -0.018497895 4287989338
-0.32637179 0.028551513 -0.018244009 4287597409
-0.32635692 0.029380079 -0.018230187 4287199830
-0.32634202 0.030208673 -0.018216347 4285229386
-0.32649812 0.031086547 -0.018442515 4282923584
-0.32665446 0.031965781 -0.018669065 4281807664
-0.32681108 0.032846462 -0.018895967 4280366132
-0.3269679 0.033728503 -0.019123165 4280696634
-0.32695296 0.034559947 -0.019109296 4281293882
-0.32693803 0.035391435 -0.019095413 4281885498
-0.32675138 0.036169805 -0.01884049 4283121986
-0.326565 0.036947034 -0.018585904 4282401362
-0.32603738 0.0376148 -0.0178522 4280634451
-0.32568195 0.038334113 -0.017360341 4280696408
-0.32532766 0.039051287 -0.016869936 4281029457
-0.3254824 0.039933186 -0.017094232 4281554752
-0.32546753 0.04076007 -0.017080428 4284564290
-0.32562253 0.041644067 -0.017305078 4284170071
-0.32628947 0.04270317 -0.018248605 4280629333
-0.3267886 0.043709803 -0.018956549 4280629297
-0.32763562 0.044840991 -0.020152988 4280891953
-0.32814091 0.04585883 -0.020869642 4280902760
-0.32869264 -0.019269591 -0.022518406 4281283441
-0.32850355 -0.018448628 -0.022259338 4281285949
-0.32866269 -0.01760417 -0.022490649 4280628029
-0.3286477 -0.016771398 -0.022476766 4280628526
-0.32863271 -0.015938548 -0.022462888 4280300334
-0.32861772 -0.015105624 -0.022449005 4280300333
-0.32842869 -0.014287543 -0.022189973 4280365613
-0.32823995 -0.013470661 -0.021931391 4280365869
-0.32805151 -0.012654951 -0.021673219 4280497453
-0.32786331 -0.011840438 -0.021415386 4280497199
-0.3276754 -0.011027114 -0.021157991 4280498223
-0.32748783 -0.010214955 -0.020900965 4280499249
-0.3274729 -0.009385433 -0.020887144 4282011697
-0.32728556 -0.0085750185 -0.020630509 4282074173
-0.32761568 -0.007706346 -0.021102628 4282600509
-0.32742813 -0.0068964893 -0.020845657 4282670399
-0.32758579 -0.0060456083 -0.021074958 4283455295
-0.32739827 -0.0052368906 -0.020817989 4283522662
-0.32738334 -0.0044069896 -0.020804165 4283334761
-0.32736841 -0.0035770372 -0.020790322 4283329192
-0.32735348 -0.0027470354 -0.020776495 4283606444
-0.32716626 -0.0019411965 -0.020519922 4283658702
-0.32697931 -0.0011365314 -0.020263776 4283676880
-0.32679266 -0.00033301325 -0.020008024 4283660000
-0.32660624 0.0004693291 -0.019752631 4284007138
-0.32659137 0.0012971117 -0.019738825 4284383722
-0.32623437 0.002070548 -0.019243054 4284467691
-0.32604882 0.0028694207 -0.018988803 4284450288
-0.32569346 0.0036388196 -0.018495264 4284465649
-0.32550871 0.0044348179 -0.018242177 4284450009
-0.32481703 0.0051415241 -0.01727475 4283999958
-0.32463369 0.0059335153 -0.017023526 4283986586
-0.32428259 0.0066939215 -0.016535917 4284181649
-0.32410002 0.0074830623 -0.016285833 4284114766
-0.32391778 0.0082710925 -0.016036121 4283779394
-0.32373577 0.0090580145 -0.015786773 4283779387
-0.3238883 0.0099092722 -0.016008811 4282666553
-0.3242088 0.010795369 -0.016467554 4282466356
-0.32453024 0.011684209 -0.016927669 4280891955
-0.32587042 0.012786477 -0.018823493 4280497711
-0.32619685 0.013685196 -0.019290691 4280431406
-0.32635295 0.014549998 -0.019517915 4280431660
-0.32633805 0.015378813 -0.0195041 4280365099
-0.32666591 0.016283732 -0.019973399 4280365098
-0.32665098 0.017113937 -0.019959563 4280365098
-0.32646456 0.017904889 -0.019704029 4280300075
-0.32662112 0.018774519 -0.019931884 4280365612
-0.3264347 0.019564334 -0.019676372 4280365612
-0.32659122 0.020435357 -0.019904206 4280365868
-0.32657629 0.021265842 -0.019890366 4280367661
-0.32673305 0.022138946 -0.020118557 4281416238
-0.32671809 0.022970213 -0.020104688 4282009391
-0.32653147 0.023757743 -0.019848822 4282597935
-0.32651651 0.024588477 -0.01983498 4282862901
-0.32615903 0.025329376 -0.019338254 4282927161
-0.32597327 0.026113518 -0.019083532 4283059512
-0.32595834 0.02694256 -0.019069718 4283321400
-0.32594341 0.027771655 -0.019055905 4283454007
-0.32575795 0.028553506 -0.018801613 4283257142
-0.32557273 0.029334238 -0.018547675 4283320886
-0.32572815 0.030210765 -0.018774001 4282468917
-0.32571325 0.031039482 -0.018760178 4281546034
-0.32603961 0.031967957 -0.019227598 4281021486
-0.32619575 0.03284866 -0.019454941 4280366383
-0.32618079 0.033679444 -0.019441102 4280562992
-0.3263371 0.034562219 -0.01966873 4280893235
-0.32632214 0.03539376 -0.019654879 4281225786
-0.32613593 0.036172152 -0.019399546 4281878858
-0.32595 0.03694943 -0.019144552 4281550706
-0.32542372 0.037617214 -0.018409614 4280640372
-0.32506925 0.038336545 -0.01791691 4280697720
-0.32471582 0.039053768 -0.017425699 4280772208
-0.32453206 0.039824426 -0.01717373 4281092173
-0.32451722 0.040650085 -0.017159963 4282793034
-0.32467124 0.04153271 -0.017384363 4282727218
-0.32550439 0.042647813 -0.018566696 4280694066
-0.32583046 0.043594785 -0.019033795 4280694832
-0.32667249 0.044723842 -0.020228706 4280826160
-0.32717475 0.045739897 -0.020944448 4280836193
-0.32772741 -0.019291898 -0.022589184 4281218413
-0.32753932 -0.018472122 -0.022330547 4281220410
-0.32769746 -0.017628951 -0.022561517 4280628282
-0.3278558 -0.016784437 -0.022792859 4280628527
-0.32784081 -0.0159522 -0.022779005 4280300335
-0.32782581 -0.015119887 -0.02276515 4280300335
-0.32746449 -0.014317217 -0.022261385 4280365871
-0.32710421 -0.013516975 -0.021759111 4280365867
-0.32691705 -0.012703043 -0.021501662 4280431403
-0.32673013 -0.01189033 -0.021244578 4280431405
-0.32654351 -0.011078776 -0.020987907 4280431661
-0.32635719 -0.010268405 -0.020731645 4280432942
-0.32651365 -0.0094222343 -0.020960338 4280826926
-0.32667038 -0.0085747233 -0.021189401 4280828212
-0.32699955 -0.0077059995 -0.021662388 4282596660
-0.32698455 -0.0068756179 -0.021648571 4282667061
-0.327142 -0.0060240454 -0.021878671 4281746229
-0.32695463 -0.0052146777 -0.021620933 4281679677
-0.32711205 -0.0043617105 -0.021851011 4281158206
-0.32692471 -0.0035535081 -0.021593276 4281092430
-0.32690975 -0.0027228228 -0.021579456 4281292111
-0.32655084 -0.0019406009 -0.021078981 4281290585
-0.32653591 -0.0011110533 -0.021065162 4281359449
-0.32634944 -0.00030691922 -0.02080862 4281357151
-0.32599223 0.00047005041 -0.020310463 4281687648
-0.32597733 0.0012978569 -0.020296676 4281751905
-0.32562122 0.0020713413 -0.019800076 4281884769
-0.32543612 0.0028702377 -0.019545419 4281883746
-0.32508162 0.0036396864 -0.019051071 4281884514
-0.32489738 0.0044357348 -0.018797563 4281882977
-0.32420748 0.0051424624 -0.017828494 4281424736
-0.32402459 0.0059344778 -0.017576871 4281355346
-0.32384193 0.0067253797 -0.017325651 4281291856
-0.32365957 0.0075151441 -0.017074801 4281290554
-0.32347751 0.0083037633 -0.016824313 4283580214
-0.32296231 0.0090270126 -0.016102357 4283975474
-0.32344794 0.009943245 -0.01679703 4281286449
-0.32376799 0.010830115 -0.01725732 4280695345
-0.32425725 0.011754012 -0.017957231 4280563249
-0.32576838 0.012893836 -0.02010368 4280496939
-0.32592431 0.013758648 -0.020331735 4280430890
-0.32625175 0.014661709 -0.020802643 4280431404
-0.32640836 0.015529971 -0.021031763 4280365356
-0.32656521 0.016399628 -0.021261189 4280299563
-0.32637841 0.017192936 -0.021004083 4280365099
-0.32619187 0.017985076 -0.020747336 4280365355
-0.32617691 0.018816063 -0.020733502 4280365611
-0.32616192 0.019647127 -0.02071967 4280365356
-0.32614696 0.020478241 -0.020705836 4280365869
-0.32596073 0.021267513 -0.020449534 4280366379
-0.32594576 0.02209812 -0.02043571 4280431915
-0.3259308 0.02292878 -0.020421885 4280431660
-0.3257449 0.02371579 -0.020166012 4280365869
-0.32555926 0.02450165 -0.019910475 4280366128
-0.32537389 0.025286393 -0.019655356 4280366131
-0.32518885 0.026069999 -0.019400643 4280366384
-0.32517391 0.026898442 -0.019386858 4280301359
-0.32515898 0.027726956 -0.019373069 4280301104
-0.32497418 0.028508289 -0.019118715 4280300850
-0.3247897 0.029288495 -0.018864758 4280300849
-0.3247748 0.030115929 -0.01885099 4280365872
-0.32492945 0.03099248 -0.019077364 4280431663
-0.32508433 0.031870387 -0.019304108 4280431660
-0.32523945 0.032749731 -0.019531133 4280366125
-0.32539478 0.033630431 -0.019758541 4280431663
-0.32537982 0.034460682 -0.01974473 4280497457
-0.32553542 0.035343487 -0.019972481 4280498485
-0.3253499 0.036121365 -0.019717084 4280565309
-0.32533494 0.036951795 -0.019703271 4280630867
-0.32497978 0.037673775 -0.019207509 4280700756
-0.32462564 0.038393613 -0.018713227 4280630360
-0.32427263 0.039111316 -0.018220432 4280504148
-0.32408908 0.039882537 -0.017967748 4280497729
-0.32390577 0.040652663 -0.017715385 4280563776
-0.32405928 0.041535288 -0.017940242 4280562737
-0.32472044 0.042592537 -0.018884294 4280759857
-0.32521522 0.043597482 -0.019592647 4280760113
-0.32588342 0.044666789 -0.020546814 4280629553
-0.3263835 0.045681972 -0.021262769 4280638044
-0.32671309 0.046640333 -0.021737235 4288914015
-0.32676509 -0.019314138 -0.022659831 4281152876
-0.32657802 -0.018495571 -0.022401523 4281154361
-0.32673511 -0.017653679 -0.022632243 4280497209
-0.3268925 -0.016810423 -0.022863336 4280497455
-0.32670516 -0.015992967 -0.022604633 4280431407
-0.32686251 -0.015148315 -0.022835705 4280431152
-0.32633135 -0.014361612 -0.022088505 4280365872
-0.32597363 -0.013563053 -0.021587655 4280366379
-0.32595867 -0.012734971 -0.02157389 4280431403
-0.32611498 -0.011890185 -0.021803441 4280431404
-0.32592881 -0.01107858 -0.021546358 4280431404
-0.32574293 -0.01026816 -0.021289689 4280431661
-0.32555729 -0.0094589228 -0.021033358 4280432429
-0.32588395 -0.0085935537 -0.021505056 4280432178
-0.32621163 -0.0077254968 -0.021978203 4280760626
-0.32619667 -0.0068957228 -0.021964414 4280892467
-0.32635334 -0.0060447641 -0.0221946 4280827187
-0.32633838 -0.0052142302 -0.022180796 4280827188
-0.32632339 -0.0043836217 -0.022166993 4280958516
-0.3263084 -0.0035529609 -0.022153191 4280958778
-0.32629341 -0.0027222519 -0.022139385 4280894266
-0.32593542 -0.00193998 -0.021638075 4280894008
-0.32574937 -0.0011352409 -0.021381114 4280959544
-0.32556361 -0.00033164732 -0.021124562 4281024571
-0.32520786 0.00044479463 -0.020626282 4281024827
-0.32502294 0.0012454581 -0.020370884 4281025594
-0.32466877 0.0020178719 -0.019874899 4281156154
-0.32431567 0.0027879975 -0.019380422 4281157434
-0.32413214 0.0035840676 -0.019126905 4281156154
-0.32378063 0.0043501845 -0.018634662 4281156664
-0.32326281 0.0050848383 -0.01790593 4281024824
-0.3230809 0.0058757584 -0.017654661 4281024570
-0.32273257 0.0066351807 -0.017166873 4280896826
-0.32255143 0.0074232565 -0.01691673 4280893747
-0.32253668 0.0082417177 -0.016903115 4281350962
-0.32235578 0.0090281423 -0.01665334 4281416751
-0.32284003 0.0099444017 -0.017349275 4280629038
-0.32315913 0.010831323 -0.017810429 4280432176
-0.32364702 0.01175525 -0.018511593 4280366128
-0.32566583 0.013001663 -0.021389762 4280300074
-0.32599339 0.013904922 -0.021863056 4280234024
-0.3264941 0.014848085 -0.022582637 4280234284
-0.32647905 0.015682044 -0.022568772 4280299565
-0.3266364 0.016554533 -0.02280009 4280299564
-0.32662135 0.017389258 -0.02278623 4280364843
-0.32626179 0.018144641 -0.02228241 4280365354
-0.32607487 0.018937971 -0.022024108 4280365610
-0.32571697 0.019689396 -0.021522589 4280365612
-0.32553089 0.020479864 -0.021265483 4280365869
-0.32517463 0.021227354 -0.020766264 4280431402
-0.32515964 0.022057356 -0.020752467 4280366121
