# .PCD v0.7 - Point Cloud Data file format
VERSION 0.7
FIELDS x y z rgba
SIZE 4 4 4 4
TYPE F F F U
COUNT 1 1 1 1
WIDTH 991
HEIGHT 1
VIEWPOINT 0 0 0 1 0 0 0
POINTS 991
DATA ascii
-0.34264791 0.042357117 -0.023185119 4292646758
-0.34258512 0.043199092 -0.02328402 4283386451
-0.3428964 0.044083636 -0.023884263 4280835691
-0.34358498 0.045015045 -0.024990967 4281091699
-0.34465763 0.045998216 -0.026614239 4281153346
-0.34728575 0.047182761 -0.030327437 4280956978
-0.34780607 0.048117142 -0.03121344 4280897608
-0.34832886 0.049056057 -0.032103691 4286547792
-0.35237211 -0.016509946 -0.024733378 4284572315
-0.35191035 -0.015599581 -0.0243198 4284299319
-0.35164806 -0.014717179 -0.024163816 4280497207
-0.35138622 -0.013836131 -0.024008105 4280497202
-0.35092744 -0.012932732 -0.023597024 4280629042
-0.35066676 -0.01205507 -0.023442155 4281158450
-0.35040647 -0.011178746 -0.023287492 4288783923
-0.34995076 -0.010282239 -0.0228789 4288643899
-0.34988716 -0.0094300397 -0.022979029 4283973947
-0.34982359 -0.0085778106 -0.023079144 4283994679
-0.34956455 -0.0077060605 -0.022925163 4284387383
-0.34969643 -0.0068731173 -0.023279402 4284437052
-0.34943748 -0.0060026138 -0.023125276 4285809724
-0.349179 -0.0051334123 -0.022971449 4285826871
-0.34911549 -0.0042821937 -0.023071447 4284917559
-0.34885743 -0.0034149094 -0.022917802 4284962366
-0.34879398 -0.00256426 -0.023017734 4286097470
-0.34853637 -0.0016989122 -0.022864241 4286013251
-0.34847295 -0.0008488053 -0.022964111 4283717955
-0.34840953 1.3799104e-06 -0.023063989 4283723322
-0.34815243 0.00086420396 -0.022910593 4283737658
-0.34808904 0.0017138211 -0.023010409 4283721280
-0.34783238 0.0025747649 -0.022857238 4283461184
-0.34776905 0.0034238161 -0.022956984 4283460667
-0.34770569 0.0042729713 -0.023056746 4283400251
-0.34744951 0.0051313811 -0.022903597 4283394377
-0.34719372 0.0059885113 -0.022750771 4283457097
-0.34693834 0.0068443445 -0.022598194 4283460159
-0.34687513 0.0076917275 -0.022697749 4283194687
-0.34662017 0.0085456818 -0.022545297 4283194949
-0.34636563 0.009398343 -0.022393141 4282603333
-0.34630251 0.010244579 -0.022492541 4282604608
-0.34623939 0.011090863 -0.022591969 4284372032
-0.34617624 0.011937199 -0.022691401 4284572990
-0.34630427 0.012780436 -0.023042785 4282143806
-0.34624106 0.013627592 -0.023142315 4282142006
-0.34656096 0.014471073 -0.023747277 4282008118
-0.34649765 0.01531967 -0.023846958 4282008883
-0.34681845 0.016167274 -0.024454046 4281023283
-0.34675503 0.01701734 -0.024553901 4281024306
-0.34630769 0.017865814 -0.024146086 4280891442
-0.34624439 0.01871467 -0.0242458 4280891692
-0.34579861 0.019559275 -0.023839135 4280496940
-0.34573537 0.020406896 -0.023938721 4280496941
-0.34529111 0.021247623 -0.023533227 4280234029
-0.34503791 0.022089915 -0.023380581 4280234285
-0.34478512 0.022930963 -0.023228243 4280366381
-0.34453273 0.023770716 -0.023076128 4280367666
-0.34428072 0.024609264 -0.022924263 4281153586
-0.34421775 0.025453268 -0.023023412 4281248845
-0.34396622 0.026289944 -0.022871733 4286814031
-0.34352708 0.027117325 -0.022470141 4287076757
-0.34327662 0.027950875 -0.022319263 4288698010
-0.34302655 0.028783176 -0.022168579 4288837221
-0.34277689 0.029614234 -0.022018198 4290426975
-0.34271419 0.030454678 -0.022116929 4290608781
-0.34265149 0.031295173 -0.022215668 4283000978
-0.34258878 0.032135718 -0.022314414 4282202683
-0.34252608 0.032976344 -0.02241317 4280693810
-0.34265006 0.033830285 -0.0227615 4280497200
-0.34277424 0.034685586 -0.02311044 4280432688
-0.34271142 0.035527699 -0.023209371 4280444525
-0.34283572 0.036385145 -0.023558902 4281288310
-0.34258577 0.037212107 -0.023407256 4281417557
-0.34233618 0.038037885 -0.023255792 4281555535
-0.342087 0.0388624 -0.023104647 4281619341
-0.34202427 0.039703507 -0.023203462 4281761947
-0.34177548 0.040526211 -0.023052465 4281824166
-0.3417128 0.041366797 -0.023151202 4287606953
-0.34146443 0.042187694 -0.023000352 4289360221
-0.34140176 0.043027751 -0.023099046 4283514696
-0.34189656 0.043931063 -0.023948105 4281884265
-0.34258091 0.044860613 -0.025053361 4281222772
-0.34345821 0.045818761 -0.026419759 4280956740
-0.34664696 0.047070514 -0.030904405 4280825905
-0.34716573 0.048004679 -0.031791814 4280764997
-0.34768695 0.048943345 -0.032683473 4285825870
-0.35133585 -0.016571874 -0.024795597 4284571799
-0.35087645 -0.015662843 -0.024382632 4284299316
-0.35061535 -0.014781745 -0.024226855 4280497460
-0.3503547 -0.013902001 -0.024071373 4280497199
-0.35009447 -0.013023599 -0.023916142 4280629551
-0.34963879 -0.012123538 -0.023506215 4281156911
-0.34937975 -0.011248503 -0.023351811 4289023791
-0.34892631 -0.010353278 -0.022943739 4288906290
-0.3486684 -0.0094815921 -0.022790181 4283915058
-0.3484109 -0.0086112246 -0.022636831 4283928633
-0.34834749 -0.0077615888 -0.022736659 4284304441
-0.34828407 -0.0069118775 -0.022836514 4284371771
-0.34822068 -0.0060621118 -0.022936361 4286074939
-0.34796369 -0.0051948722 -0.022783054 4286023231
-0.34790033 -0.0043456471 -0.022882838 4284570688
-0.34783697 -0.00349637 -0.022982625 4284633926
-0.34758052 -0.002631658 -0.022829453 4285817927
-0.34751716 -0.001782925 -0.022929195 4285751120
-0.3474538 -0.0009341368 -0.023028929 4283392848
-0.3471978 -7.1940674e-05 -0.022875799 4283394637
-0.3471345 0.00077630836 -0.022975469 4283591245
-0.3470712 0.001624635 -0.023075148 4283590218
-0.34681571 0.0024843158 -0.022922177 4283392586
-0.34675243 0.0033320778 -0.023021791 4283394629
-0.34668919 0.0041799177 -0.023121413 4283196229
-0.34643418 0.0050370926 -0.022968557 4283198018
-0.34637097 0.0058843722 -0.023068096 4283394114
-0.34592536 0.0067475871 -0.022663521 4283394121
-0.34586224 0.0075936611 -0.022762939 4283064649
-0.34560847 0.0084463693 -0.022610754 4283064132
-0.34535506 0.0092978198 -0.022458758 4282614340
-0.345292 0.010142772 -0.022558045 4282604358
-0.34522897 0.010987755 -0.022657318 4284245062
-0.34516588 0.01183281 -0.022756621 4284245827
-0.34529293 0.012674659 -0.023107588 4281948483
-0.34542015 0.013517912 -0.023459043 4281944642
-0.34554756 0.014362541 -0.023811085 4281616962
-0.34567517 0.015208575 -0.024163723 4281615162
-0.34580296 0.016055997 -0.024516862 4281025338
-0.3457396 0.016904743 -0.024616599 4281024565
-0.3454853 0.017752815 -0.024462661 4280892981
-0.34523135 0.018599626 -0.024308952 4280891701
-0.34478787 0.019443134 -0.023902884 4280498229
-0.34472471 0.020289471 -0.02400234 4280496940
-0.34409365 0.021125741 -0.023345722 4280234540
-0.34403062 0.021970194 -0.023444956 4280234287
-0.34359071 0.022805367 -0.023041835 4280365871
-0.34333977 0.023643296 -0.022890244 4280366381
-0.34327692 0.024485979 -0.022989253 4280959789
-0.34321404 0.025328711 -0.023088271 4281053891
-0.34296361 0.026164198 -0.022936823 4286873549
-0.34252667 0.026990535 -0.022535753 4287274129
-0.34227741 0.027822906 -0.022385094 4289509773
-0.34202847 0.028654059 -0.022234652 4289627225
-0.34177992 0.029483942 -0.022084439 4291277652
-0.34171727 0.030323127 -0.022183042 4291461531
-0.34165466 0.031162336 -0.022281647 4283060386
-0.34159204 0.032001622 -0.022380263 4282201917
-0.3415294 0.032840986 -0.022478888 4280693298
-0.34165242 0.033693492 -0.022826796 4280497201
-0.3417756 0.034547426 -0.023175234 4280431921
-0.34171286 0.03538825 -0.023274031 4280444234
-0.34183615 0.036244273 -0.023623073 4281295694
-0.34158733 0.037070103 -0.023471652 4281416537
-0.3413389 0.037894722 -0.023320448 4280899675
-0.34109083 0.038718116 -0.023169458 4280830821
-0.34084317 0.039540298 -0.023018759 4280967783
-0.3405959 0.040361237 -0.022868292 4280968048
-0.34053332 0.041199908 -0.022966841 4287065457
-0.3402864 0.042019047 -0.022816502 4288763996
-0.34022388 0.042857166 -0.022914985 4283517270
-0.34071475 0.043758024 -0.023761652 4282081859
-0.34157991 0.044706624 -0.025115579 4281221692
-0.34226429 0.045640126 -0.026226211 4280956471
-0.34600809 0.046958286 -0.03148143 4280825651
-0.34652531 0.047892202 -0.032370236 4280764483
-0.3472403 0.048856251 -0.033528123 4285626698
-0.35030282 -0.016633622 -0.024857707 4284571539
-0.34984574 -0.015725888 -0.024445295 4284299060
-0.34978193 -0.0148713 -0.024545737 4280562996
-0.34952214 -0.013992158 -0.024390144 4280563247
-0.34906736 -0.01309059 -0.023979479 4280891439
-0.34880877 -0.012214819 -0.023824716 4280892719
-0.34835616 -0.011318072 -0.023415929 4281746735
-0.34790507 -0.010424105 -0.023008451 4281550641
-0.34764832 -0.0095537165 -0.022855086 4281490225
-0.34739202 -0.0086846193 -0.022701982 4281552185
-0.34713608 -0.0078168409 -0.022549082 4281878329
-0.34707281 -0.0069691129 -0.022648703 4281946683
-0.34700951 -0.0061213113 -0.022748353 4282339131
-0.34694621 -0.0052734544 -0.022847991 4282340416
-0.34688291 -0.0044255452 -0.022947637 4283455296
-0.34681961 -0.0035775625 -0.023047309 4283456839
-0.34675631 -0.0027295249 -0.023146974 4283588423
-0.34650108 -0.0018666775 -0.022993928 4283590481
-0.34643778 -0.0010191816 -0.023093546 4283196497
-0.34637451 -0.00017163 -0.023193151 4283198798
-0.34611979 0.00068870565 -0.023040224 4286867022
-0.34605655 0.0015357194 -0.023139767 4286869323
-0.34580222 0.0023941416 -0.022986973 4286210379
-0.34573901 0.0032406154 -0.02308647 4286225222
-0.34567583 0.004087144 -0.023185959 4286275910
-0.345422 0.0049430677 -0.023033304 4286283841
-0.34535885 0.0057890592 -0.02313273 4289816897
-0.34491551 0.0066511189 -0.022728702 4289817162
-0.34485245 0.0074958876 -0.022827983 4285751626
-0.34459984 0.0083473837 -0.02267601 4285763908
-0.34434763 0.0091976244 -0.022524245 4283794756
-0.34428462 0.01004125 -0.022623396 4283787334
-0.34422165 0.010884953 -0.022722555 4285293894
-0.34415865 0.011728732 -0.022821724 4285307971
-0.34409568 0.012572567 -0.022920882 4282865987
-0.34422165 0.013413777 -0.023271438 4282865219
-0.34434777 0.014256383 -0.023622518 4281944899
-0.34466386 0.015099009 -0.024226895 4281944634
-0.34479064 0.015945029 -0.024579575 4281418810
-0.34472737 0.016792491 -0.02467916 4281418805
-0.34428465 0.017638724 -0.024272535 4281089589
-0.34422147 0.018484956 -0.024371993 4281090102
-0.34378019 0.019327339 -0.02396645 4280694838
-0.3437171 0.020172376 -0.024065755 4280694316
-0.34308937 0.021007661 -0.023410086 4280365612
-0.34283885 0.021846917 -0.023258196 4280365359
-0.3424018 0.022680346 -0.022856371 4280234799
-0.34233901 0.02352168 -0.022955256 4280234541
-0.34227619 0.024363067 -0.023054132 4280828973
-0.34221336 0.025204532 -0.023153035 4280851151
-0.34196407 0.026038863 -0.023001721 4289231578
-0.3415294 0.02686413 -0.022601247 4289768849
-0.34128121 0.027695324 -0.022450756 4288070796
-0.34103343 0.028525308 -0.022300536 4287845976
-0.34078604 0.029354073 -0.022150574 4287606355
-0.34053898 0.030181607 -0.022000788 4287541148
-0.34047648 0.031018911 -0.022099186 4286010020
-0.34041396 0.031856261 -0.02219761 4285677120
-0.34035146 0.032693695 -0.022296026 4281020978
-0.34047326 0.033544146 -0.022643009 4280300593
-0.34059519 0.034395996 -0.022990495 4280300849
-0.34053254 0.035234902 -0.023089102 4280302404
-0.34065461 0.036088858 -0.023437219 4280704840
-0.34040728 0.036912903 -0.023286305 4280762714
-0.33997628 0.037719529 -0.022886692 4280899933
-0.33973005 0.03854055 -0.022736572 4280893535
-0.33948418 0.039360348 -0.022586694 4280703840
-0.33923867 0.040178925 -0.02243701 4280697702
-0.33917624 0.041015018 -0.022535291 4281489767
-0.3391138 0.041851167 -0.02263356 4281746268
-0.3390514 0.042687394 -0.022731839 4281091417
-0.33953837 0.043585777 -0.023576124 4280894012
-0.34058198 0.044553131 -0.025177633 4280694578
-0.34144863 0.045507144 -0.026540291 4280628531
-0.34536919 0.046846021 -0.032058485 4280694580
-0.34607875 0.047804419 -0.033212632 4280762434
-0.34698823 0.048794597 -0.034640227 4284642121
-0.349273 -0.016695157 -0.024919646 4284571028
-0.34901357 -0.015814653 -0.024763782 4284167983
-0.34875453 -0.014935489 -0.02460812 4280562735
-0.34869081 -0.014082157 -0.024708435 4280563247
-0.34823772 -0.013181138 -0.024297638 4280891183
-0.34778604 -0.012282894 -0.023888117 4280892210
-0.34752899 -0.011409741 -0.023733839 4281024050
-0.34707952 -0.010516312 -0.023326185 4281024824
-0.34682363 -0.0096464893 -0.02317274 4281353272
-0.34637627 -0.0087578213 -0.022766946 4281354555
-0.34612155 -0.007891302 -0.022614298 4281748795
-0.34586719 -0.0070260949 -0.022461876 4281750083
-0.34580401 -0.0061802706 -0.022561312 4282079555
-0.34574085 -0.0053343908 -0.022660734 4282143302
-0.34567767 -0.0044884379 -0.022760188 4283404358
-0.34561449 -0.0036424035 -0.022859633 4283391816
-0.34555131 -0.0027963468 -0.022959094 4283465544
-0.34548813 -0.0019502093 -0.023058552 4283459656
-0.34542492 -0.0011039979 -0.023158036 4283201096
-0.34536174 -0.00025773095 -0.023257509 4283198792
-0.34510815 0.00060134305 -0.023104783 4287075400
-0.34485498 0.0014591161 -0.022952331 4287066188
-0.34479186 0.0023042348 -0.02305167 4286408012
-0.34453908 0.0031601351 -0.022899317 4286422598
-0.34447598 0.0040047164 -0.022998611 4286478150
-0.34422371 0.0048587383 -0.022846496 4286480705
-0.34416068 0.0057027647 -0.022945706 4290288705
-0.34372023 0.0065629571 -0.022542942 4290275910
-0.34365728 0.00740579 -0.022642016 4285963078
-0.34321827 0.0082621006 -0.022240397 4285961298
-0.34315544 0.0091037452 -0.022339331 4283853650
-0.3429051 0.0099508129 -0.022188367 4283853136
-0.34284231 0.010791929 -0.02228724 4285369168
-0.34277949 0.011633096 -0.022386119 4285374281
-0.34271666 0.012474314 -0.022485005 4282999881
-0.34302869 0.013310118 -0.023084758 4282931018
-0.34315357 0.014150687 -0.023434894 4281947210
-0.34346703 0.014991187 -0.024037573 4281944643
-0.34359252 0.015835181 -0.024389295 4281419330
-0.3435294 0.016680667 -0.024488684 4281418810
-0.34327775 0.017525684 -0.024335513 4281090362
-0.34302649 0.018369427 -0.024182552 4281090098
-0.3425881 0.019210039 -0.023778312 4280694833
-0.34233794 0.020050619 -0.023626141 4280694319
-0.34190166 0.020886768 -0.023223748 4280366127
-0.3416526 0.021724204 -0.023072382 4280365357
-0.34140396 0.022560382 -0.022921322 4280234285
-0.34115571 0.023395319 -0.022770459 4280234541
-0.34109303 0.024234762 -0.022869142 4280759597
-0.34103033 0.025074283 -0.022967834 4280850248
-0.34078252 0.025906814 -0.022817051 4289422410
-0.3405351 0.026738103 -0.02266657 4290030938
-0.3402881 0.02756815 -0.022516329 4287844187
-0.33967412 0.028379045 -0.021870432 4287644984
-0.33961168 0.029214969 -0.021968706 4287186484
-0.33918324 0.030030491 -0.021572305 4287146308
-0.3393037 0.030876113 -0.021917641 4286267718
-0.33924133 0.031711571 -0.022015842 4286201138
-0.33917892 0.032547101 -0.02211407 4281021231
-0.3392995 0.033395484 -0.022460124 4280300589
-0.3394202 0.034245256 -0.022806693 4280300333
-0.3393577 0.035082262 -0.02290508 4280300846
-0.33929521 0.035919324 -0.02300347 4280630062
-0.33904967 0.036740992 -0.022853401 4280695605
-0.33862206 0.037545431 -0.022455702 4280826422
-0.33837759 0.038364071 -0.022306412 4280891445
-0.33831525 0.039198793 -0.022404548 4280695860
-0.33807117 0.040015623 -0.022255359 4280629049
-0.3378275 0.040831294 -0.022106467 4280498746
-0.33776528 0.041664883 -0.022204453 4280432440
-0.33770299 0.042498548 -0.022302466 4280563513
-0.33836737 0.043414343 -0.023391534 4280628783
-0.33940306 0.044378638 -0.024988454 4280563244
-0.34044847 0.045352045 -0.02660037 4280563246
-0.34492275 0.046757583 -0.03289865 4280694574
-0.3458254 0.047741171 -0.034321569 4280762171
-0.34653983 0.048707124 -0.035488568 4284243776
-0.3482464 -0.016756535 -0.024981443 4284243348
-0.34798816 -0.015877329 -0.024825795 4283906095
-0.34773034 -0.014999463 -0.024670398 4280628271
-0.34766671 -0.014147462 -0.024770577 4280629295
-0.34721589 -0.013247717 -0.02436032 4280760111
-0.34695929 -0.012373832 -0.024205683 4280762162
-0.34670305 -0.011501273 -0.024051277 4281089330
-0.34606346 -0.010586736 -0.02339022 4281091129
-0.34580874 -0.0097182048 -0.023236977 4281418553
-0.34536368 -0.0088307746 -0.022831768 4281421115
-0.34492004 -0.0079460815 -0.022427877 4282207547
-0.34485695 -0.007101615 -0.022527169 4282341699
-0.34460416 -0.0062389593 -0.022375172 4285618755
-0.3445411 -0.0053950259 -0.022474403 4285818438
-0.34447804 -0.0045510153 -0.022573642 4287665478
-0.34441498 -0.0037069791 -0.022672888 4287529800
-0.34435195 -0.002862836 -0.022772128 4284122184
-0.34428886 -0.0020186708 -0.022871386 4284199495
-0.34422579 -0.0011744245 -0.022970639 4286019399
-0.34416273 -0.0003301306 -0.023069916 4286016072
-0.34409964 0.00051423995 -0.023169205 4289501000
-0.34384763 0.0013707881 -0.023016945 4289494092
-0.34378457 0.0022146008 -0.023116166 4286342476
-0.34353298 0.0030692776 -0.022964045 4286350662
-0.34328175 0.0039226632 -0.022812204 4284250182
-0.34303096 0.0047747949 -0.022660607 4284260929
-0.34296805 0.0056168884 -0.022759613 4285636417
-0.34253046 0.0064752172 -0.022358136 4285640262
-0.34228081 0.0073235431 -0.022207268 4285898566
-0.34203151 0.0081705991 -0.022056593 4285888851
-0.34178263 0.0090163816 -0.02190624 4283853139
-0.34171996 0.0098555032 -0.022004895 4283853649
-0.34165725 0.010694675 -0.022103559 4289629521
-0.34159455 0.011533896 -0.022202244 4289624649
-0.34153184 0.012373196 -0.022300923 4283393097
-0.34184128 0.013206934 -0.022899019 4283196490
-0.34196493 0.014045475 -0.023248212 4282668362
-0.34227574 0.014883886 -0.023849191 4282602307
-0.34240001 0.015725864 -0.024199968 4281812547
-0.34233698 0.016569387 -0.024299145 4281813562
-0.34208682 0.017412525 -0.024146514 4281352506
-0.34202385 0.018255545 -0.024245633 4281352753
-0.34158769 0.019095067 -0.023841932 4280694833
-0.34133869 0.019934446 -0.023690023 4280695343
-0.3407194 0.020766454 -0.023038328 4280431663
-0.34047183 0.021602049 -0.022887489 4280431405
-0.34022468 0.022436401 -0.02273692 4280299821
-0.34016207 0.023274535 -0.022835463 4280300589
-0.34009945 0.024112722 -0.022934018 4280366125
-0.33985275 0.024944652 -0.022783568 4280368698
-0.33979017 0.025782313 -0.022882061 4281359419
-0.33936045 0.026604872 -0.022483347 4281418579
-0.3391149 0.027433116 -0.022333616 4281153622
-0.33850503 0.028242489 -0.021689663 4281349940
-0.33844274 0.02907652 -0.021787729 4281350705
-0.33783582 0.029880317 -0.021146553 4281353015
-0.33795485 0.030723263 -0.021490481 4281021752
-0.33789262 0.031556163 -0.021588417 4280956208
-0.33783039 0.032389138 -0.02168636 4280562223
-0.33794948 0.033234823 -0.022030996 4280497196
-0.33806881 0.034081891 -0.022376245 4280431404
-0.33800647 0.03491633 -0.022474347 4280431658
-0.33812585 0.035765458 -0.02282015 4280432170
-0.33788177 0.036585387 -0.022670602 4280497454
-0.33745694 0.037388254 -0.022274135 4280431407
-0.3372139 0.038205139 -0.02212536 4280431661
-0.33697125 0.03902084 -0.021976769 4280432172
-0.33672896 0.039835341 -0.02182842 4280431921
-0.33666679 0.040666997 -0.021926215 4280497458
-0.33660468 0.041498706 -0.022023996 4280497457
-0.33654255 0.042330492 -0.022121791 4280562737
-0.33720177 0.043243669 -0.023207812 4280563245
-0.33841231 0.044226229 -0.025050625 4280628779
-0.33945143 0.045197453 -0.026660342 4280628780
-0.34428319 0.046645228 -0.033476293 4280629037
-0.34537709 0.047653034 -0.035167668 4280630585
-0.34628588 0.048645061 -0.036606591 4283128126
-0.34720203 0.049645148 -0.038057186 4284453493
-0.34702954 -0.016791089 -0.024787551 4284243086
-0.34696594 -0.015939843 -0.024887657 4283906355
-0.34670931 -0.015063269 -0.02473248 4280629043
-0.34664574 -0.014212567 -0.024832521 4280629298
-0.34638956 -0.013337949 -0.024677528 4280761906
-0.34613377 -0.012464632 -0.024522765 4280762164
-0.34568682 -0.011570232 -0.024114272 4281090356
-0.34524122 -0.010678593 -0.023707023 4281091387
-0.34479702 -0.009789682 -0.023301091 4281420603
-0.34435424 -0.0089035137 -0.022896476 4281421121
-0.34391284 -0.0080200676 -0.022493085 4282274881
-0.34366113 -0.0071580783 -0.022341404 4282407486
-0.34340987 -0.0062973876 -0.02218998 4286011967
-0.34334692 -0.0054553873 -0.022289 4286080835
-0.34328401 -0.0046133362 -0.022388032 4287926852
-0.34322107 -0.0037712338 -0.022487067 4287792723
-0.34315813 -0.0029290537 -0.022586111 4284185682
-0.34309518 -0.0020868229 -0.022685163 4284266054
-0.34303224 -0.0012445363 -0.022784201 4286210886
-0.34315726 -0.00041566917 -0.023134325 4286344009
-0.34309426 0.00042740142 -0.023233477 4289626953
-0.34284338 0.0012827259 -0.023081409 4289625419
-0.3425929 0.0021367597 -0.022929616 4286353483
-0.34234276 0.0029895129 -0.022778032 4286350145
-0.34227991 0.0038308671 -0.022876969 4284124225
-0.34184375 0.004691232 -0.022475662 4284130382
-0.34178096 0.0055313725 -0.022574471 4285299278
-0.34116068 0.0063960063 -0.021925274 4285313860
-0.34109801 0.0072343135 -0.022023868 4285889604
-0.3408502 0.008079485 -0.021873718 4285888334
-0.34078759 0.0089172684 -0.02197225 4283855438
-0.34054023 0.0097606257 -0.02182232 4283853637
-0.34047765 0.010597861 -0.021920791 4289897797
-0.34041509 0.011435175 -0.022019254 4289886287
-0.34035251 0.012272567 -0.022117723 4283394127
-0.34065935 0.013104193 -0.022714172 4283196749
-0.34078178 0.013940744 -0.02306244 4282670925
-0.3412759 0.014775476 -0.023912627 4282668105
-0.34121302 0.015617017 -0.024011604 4281814856
-0.34133622 0.016458325 -0.024361979 4281813570
-0.34108722 0.017300284 -0.02420955 4281353794
-0.34083861 0.018140983 -0.024057362 4281352761
-0.34059033 0.018980417 -0.02390538 4280696377
-0.34034249 0.019818626 -0.023753691 4280695348
-0.33972648 0.020649632 -0.023102885 4280432180
-0.33948004 0.021484043 -0.022952296 4280431406
-0.33923399 0.022317236 -0.022801898 4280300334
-0.33917144 0.023154119 -0.022900319 4280300591
-0.33910891 0.023991026 -0.022998737 4280299823
-0.33886334 0.024821807 -0.022848492 4280300845
-0.33861813 0.025651379 -0.022698492 4280497965
-0.33837327 0.026479689 -0.022548683 4280497201
-0.3379471 0.027298726 -0.022151787 4280431153
-0.33752218 0.028115256 -0.02175607 4280431916
-0.33727911 0.028938679 -0.021607637 4280496684
-0.33667627 0.029740985 -0.020968376 4280497195
-0.33679408 0.030581897 -0.021311408 4280300331
-0.33673197 0.031412918 -0.021409139 4280235053
-0.33666986 0.032243989 -0.021506878 4280497453
-0.33660778 0.033075139 -0.021604611 4280497198
-0.33672565 0.033919495 -0.021948455 4280431150
-0.33666345 0.034751408 -0.022046294 4280431661
-0.33678144 0.035597835 -0.022390774 4280431661
-0.33653912 0.036415391 -0.022241974 4280431402
-0.33629712 0.037231766 -0.022093441 4280365610
-0.33587635 0.038030617 -0.021699455 4280366129
-0.3358143 0.038860921 -0.021797091 4280436019
-0.33557341 0.039673708 -0.021649269 4280433233
-0.33551142 0.040503476 -0.02174684 4280504921
-0.33527094 0.041314479 -0.021599196 4280499794
-0.33520898 0.042143736 -0.021696709 4280564815
-0.33586204 0.043053571 -0.022778092 4280564025
-0.33706155 0.044032104 -0.024612866 4280628784
-0.33809108 0.044999421 -0.026215557 4280628784
-0.34326094 0.046485614 -0.033526495 4280629039
-0.3447344 0.047540151 -0.035748158 4280630582
-0.34583572 0.048557263 -0.037458688 4282797881
-0.34675074 0.04955782 -0.038913861 4283992946
-0.34581846 -0.016825488 -0.024594638 4284046222
-0.34575495 -0.015976215 -0.024694547 4283709492
-0.34569147 -0.015126886 -0.024794443 4280629044
-0.34562799 -0.01427748 -0.024894351 4280629810
-0.34537295 -0.013404172 -0.024739573 4280958770
-0.34511837 -0.012532162 -0.024585059 4280959028
-0.34467363 -0.011639011 -0.024177086 4281418036
-0.34423032 -0.010748619 -0.023770427 4281420091
-0.34378842 -0.0098609785 -0.023365108 4281748795
-0.34334785 -0.0089760358 -0.022960998 4281881922
-0.34290868 -0.0080938116 -0.022558162 4283455298
-0.34247088 -0.0072142929 -0.022156602 4283600702
-0.34240803 -0.0063736388 -0.022255486 4287126334
-0.34215829 -0.0055154781 -0.022104535 4287066947
-0.34190896 -0.004658605 -0.021953819 4284256580
-0.3418462 -0.0038190822 -0.022052569 4284378452
-0.34178343 -0.0029795079 -0.022151323 4288772692
-0.34190705 -0.002154663 -0.022499852 4288713286
-0.34184423 -0.0013143055 -0.022598701 4286997062
-0.34196797 -0.00048741224 -0.022947857 4286939721
-0.34190509 0.00035372953 -0.023046803 4284908105
-0.3416557 0.0012071256 -0.022895293 4284907339
-0.34159288 0.0020477143 -0.022994172 4284584779
-0.34134391 0.0028992519 -0.022842832 4284578881
-0.34109533 0.0037495191 -0.022691667 4284124481
-0.34084713 0.0045985319 -0.022540828 4284119375
-0.34059933 0.0054462501 -0.022390202 4286543695
-0.3401674 0.0063009383 -0.021991206 4286556740
-0.33992073 0.0071454919 -0.021841371 4284316228
-0.33967435 0.0079888087 -0.021691751 4284316750
-0.3394284 0.0088308919 -0.021542415 4284052302
-0.33936596 0.0096661542 -0.021640653 4284060484
-0.33930349 0.010501514 -0.02173892 4287801156
-0.33924106 0.011336904 -0.021837173 4287793231
-0.33917859 0.012172366 -0.021935454 4283853135
-0.33948287 0.013001948 -0.022530258 4283721805
-0.33960405 0.013836516 -0.02287758 4282867789
-0.34009427 0.014669071 -0.023725396 4282866761
-0.34021628 0.015507643 -0.024074737 4282142793
-0.34015346 0.016347971 -0.024173589 4282142531
-0.33990595 0.017188072 -0.024021691 4281353795
-0.3396588 0.018026942 -0.023870012 4281353018
-0.339412 0.018864555 -0.023718566 4280893242
-0.33916563 0.01970092 -0.023567388 4280891956
-0.33855376 0.020530291 -0.02291856 4280497716
-0.33849123 0.021366416 -0.023016922 4280496686
-0.33824635 0.022198455 -0.022866782 4280365870
-0.33800176 0.023029257 -0.022716837 4280365871
-0.33793935 0.023864269 -0.022815052 4280365359
-0.33787692 0.024699328 -0.02291329 4280365355
-0.33745146 0.025521008 -0.022515837 4280431403
-0.33738911 0.026354907 -0.022613922 4280431660
-0.33696505 0.027172891 -0.022217508 4280365356
-0.33636242 0.027979814 -0.021576354 4280366379
-0.33630031 0.028810706 -0.021674085 4280299563
-0.335522 0.029602284 -0.020791067 4280300585
-0.33563864 0.030441197 -0.021133209 4280365865
-0.33557668 0.031270325 -0.021230735 4280366893
-0.33551466 0.03209953 -0.02132827 4280497709
-0.33545268 0.03292878 -0.021425813 4280497198
-0.33539069 0.033758111 -0.021523366 4280496430
-0.33532867 0.034587488 -0.021620924 4280497453
-0.33544526 0.035431232 -0.021964023 4280496941
-0.33520466 0.036246426 -0.021816064 4280497706
-0.33496442 0.037060469 -0.021668352 4282200873
-0.33472455 0.037873287 -0.021520859 4282604082
-0.33466265 0.038701702 -0.021618288 4282340148
-0.33442318 0.039512787 -0.021470981 4282270296
-0.33418408 0.040322661 -0.021323893 4281424482
-0.33412221 0.041150004 -0.021421215 4281159257
-0.33406037 0.041977376 -0.021518523 4282401366
-0.3345305 0.042864628 -0.022351069 4282866236
-0.33571908 0.043839134 -0.024177903 4281942578
-0.33673918 0.04480261 -0.02577362 4281611825
-0.34205207 0.046303123 -0.033313915 4280956720
-0.3437064 0.047378376 -0.03579507 4280629813
-0.34518984 0.048443846 -0.03804205 4282075960
-0.34610221 0.04944402 -0.039499622 4282810738
-0.34480363 -0.016886283 -0.024656748 4284045455
-0.34474021 -0.016038327 -0.024756517 4283709492
-0.34467679 -0.01519029 -0.024856282 4280629300
-0.34461337 -0.01434223 -0.024956066 4280630071
-0.34416941 -0.013446311 -0.024547517 4280959287
-0.34410608 -0.012599458 -0.024647161 4280959033
-0.34366363 -0.011707585 -0.024239779 4281419065
-0.34322262 -0.01081844 -0.02383372 4281420349
-0.34278291 -0.0099320551 -0.023428908 4281815869
-0.34215742 -0.0090281079 -0.022774594 4281947974
-0.34172112 -0.0081478469 -0.02237303 4283589958
-0.34147209 -0.0072890562 -0.022222124 4283733317
-0.34103784 -0.0064134328 -0.021822363 4287262022
-0.34097517 -0.0055752979 -0.021920966 4287132495
-0.34072727 -0.0047203312 -0.021770757 4283855182
-0.34084979 -0.0038988793 -0.022118209 4284050500
-0.34060198 -0.0030450884 -0.02196786 4289241412
-0.34090972 -0.0022370471 -0.022564879 4289171279
-0.34084696 -0.001397978 -0.022663595 4287065679
-0.34096977 -0.00057239574 -0.02301234 4287005762
-0.34090695 0.00026745678 -0.023111148 4284445762
-0.34065866 0.0011196397 -0.022959791 4284448579
-0.3405959 0.0019589399 -0.023058534 4284378435
-0.34034809 0.0028092668 -0.022907419 4284382012
-0.34010068 0.0036582975 -0.022756513 4284118332
-0.33985358 0.0045060851 -0.022605827 4284118339
-0.33960691 0.0053526303 -0.022455428 4286676035
-0.33917719 0.0062061595 -0.022056965 4286687562
-0.33893159 0.0070495191 -0.021907354 4284117834
-0.33868641 0.0078916242 -0.021757981 4284120395
-0.33862397 0.0087262318 -0.021856176 4284049483
-0.33837917 0.0095665194 -0.021706911 4284061507
-0.3383168 0.010400608 -0.021805048 4287589443
-0.33825439 0.011234747 -0.021903189 4287596614
-0.33819202 0.012068938 -0.022001339 4283919430
-0.33849427 0.012897124 -0.022595322 4283787338
-0.33861446 0.013730333 -0.022942193 4282868554
-0.33891809 0.014563155 -0.023539061 4282867018
-0.33885545 0.015400846 -0.023637606 4282144330
-0.33897617 0.016238127 -0.023986118 4282142786
-0.33873013 0.017076397 -0.02383475 4281354050
-0.33848447 0.017913422 -0.023683606 4281353017
-0.3382391 0.018749196 -0.023532674 4280893497
-0.33781213 0.01958162 -0.023133313 4280891957
-0.33738643 0.020411514 -0.022735152 4280497461
-0.33714291 0.021242307 -0.022585597 4280496684
-0.33708057 0.022075946 -0.022683686 4280365867
-0.33683744 0.022904966 -0.02253424 4280365866
-0.3365947 0.023732727 -0.022385098 4280366122
-0.33653244 0.024565259 -0.022483042 4280365357
-0.33629015 0.02539126 -0.022334062 4280433710
-0.33622789 0.026223248 -0.022431958 4280431934
-0.33580655 0.027039593 -0.022036759 4280373055
-0.33538654 0.027853454 -0.021642812 4280367199
-0.33514601 0.028673982 -0.021495055 4280313698
-0.33455032 0.029473888 -0.020858584 4280302706
-0.33466604 0.030311437 -0.021200271 4280383348
-0.33460411 0.03113934 -0.021297669 4280369531
-0.33454219 0.03196732 -0.021395082 4280514428
-0.3341257 0.032770868 -0.021003673 4280500289
-0.33424094 0.033610553 -0.021345269 4280496438
-0.33417907 0.034438044 -0.021442622 4280497456
-0.33411717 0.035265617 -0.021539984 4280497711
-0.33387831 0.036078509 -0.021392835 4280498272
-0.3336398 0.036890186 -0.021245878 4282665324
-0.33340165 0.037700694 -0.021099195 4283131712
-0.33351615 0.038543221 -0.021440359 4282795316
-0.33327812 0.039352592 -0.021293543 4282728248
-0.33304042 0.040160775 -0.021146974 4281680443
-0.3329787 0.040986247 -0.021244077 4281289026
-0.33309278 0.041830864 -0.021585101 4282860100
-0.33355996 0.042716444 -0.022416575 4283523905
-0.3343848 0.043647379 -0.023745665 4282346560
-0.33557531 0.044628482 -0.025584303 4281878076
-0.34084886 0.046121489 -0.033102378 4281022267
-0.34249061 0.04719292 -0.035576098 4280629559
-0.34434983 0.048305143 -0.038355276 4281812278
-0.34545365 0.049330182 -0.040085416 4282416235
-0.3437919 -0.016946919 -0.024718659 4283914383
-0.34372854 -0.01610025 -0.024818297 4283644468
-0.34366521 -0.015253526 -0.024917927 4280695092
-0.34360185 -0.014406756 -0.025017578 4280696632
-0.34316018 -0.013512126 -0.024609637 4281024824
-0.34309694 -0.012666552 -0.02470913 4281025338
-0.34265676 -0.011775934 -0.024302367 4281615930
-0.34221795 -0.010888049 -0.023896817 4281617981
-0.34178048 -0.010002894 -0.023492562 4282209342
-0.34097248 -0.0090799741 -0.02258913 4282277190
-0.34053901 -0.0082016448 -0.02218882 4283196486
-0.34029144 -0.0073447656 -0.022038402 4283199558
-0.34004423 -0.0064891949 -0.021888213 4283854662
-0.33998165 -0.0056523159 -0.021986686 4283855440
-0.33973491 -0.0047985963 -0.021836696 4283789136
-0.33985642 -0.0039784354 -0.022183666 4283931458
-0.3397938 -0.0031414032 -0.022282157 4286948418
-0.33991545 -0.0023192144 -0.022629803 4286870608
-0.34003729 -0.0014956626 -0.022977954 4285820752
-0.33997455 -0.00065712241 -0.023076624 4285824321
-0.3400965 0.00016847003 -0.023425383 4286280257
-0.3396647 0.0010323831 -0.023024207 4286281794
-0.33960202 0.0018704501 -0.023122821 4284115266
-0.33935529 0.0027195481 -0.022971857 4284121659
-0.339109 0.003567375 -0.022821179 4285494075
-0.3388631 0.0044139368 -0.022670737 4285497666
-0.3386175 0.0052592638 -0.022520494 4284841282
-0.33818999 0.0061116349 -0.022122618 4284851275
-0.33794549 0.0069538122 -0.021973167 4286935627
-0.33788311 0.007787744 -0.022071298 4286933067
-0.33763906 0.0086280992 -0.021922046 4283787083
-0.3373954 0.0094671808 -0.021773053 4283793987
-0.33733308 0.010300002 -0.021871058 4286801475
-0.33727077 0.011132899 -0.021969071 4286805317
-0.33720845 0.011965848 -0.022067092 4283657029
-0.33732724 0.01279573 -0.022412483 4283524426
-0.33744624 0.013626974 -0.022758445 4282803018
-0.33756545 0.014459557 -0.023104977 4282801482
-0.33768478 0.015293481 -0.023452008 4282144330
-0.33762226 0.016129322 -0.023550352 4282142274
-0.337378 0.016965102 -0.023399815 4281485122
-0.33713406 0.017799666 -0.023249472 4281484345
-0.33689055 0.018632965 -0.023099393 4280893497
-0.33664742 0.019465078 -0.022949569 4280826677
-0.33622444 0.020293254 -0.022552634 4280497461
-0.33598238 0.021122262 -0.022403602 4280431916
-0.33574066 0.021950072 -0.02225475 4280431403
-0.33549929 0.022776656 -0.022106161 4280431913
-0.33543712 0.023607232 -0.022203907 4283774249
-0.33537498 0.024437862 -0.022301642 4283992366
-0.33513409 0.025262071 -0.022153188 4286859054
-0.33525068 0.026099345 -0.02249716 4287143232
-0.33483148 0.026914619 -0.022102537 4287585858
-0.33441359 0.027727472 -0.021709116 4287338086
-0.3343516 0.028555876 -0.021806609 4288051818
-0.33358157 0.029345902 -0.020925894 4288119935
-0.33387318 0.030192327 -0.021511601 4287532674
-0.3336345 0.031008746 -0.021364462 4287468938
-0.33339617 0.031823996 -0.021217506 4285239179
-0.33315822 0.032638073 -0.021070823 4284828484
-0.33309644 0.033463638 -0.021167986 4281086775
-0.33303466 0.034289282 -0.02126514 4280366385
-0.33297291 0.035115 -0.021362301 4282136112
-0.33273545 0.035926167 -0.021215664 4282534765
-0.3326737 0.036751352 -0.021312784 4283126651
-0.33243662 0.037560776 -0.021166259 4283254084
-0.33255023 0.038401928 -0.02150701 4281546804
-0.33231321 0.039210193 -0.021360351 4281100593
-0.33207661 0.040017303 -0.021213965 4283582768
-0.3321898 0.040859863 -0.021554476 4284444219
-0.33212808 0.041684795 -0.021651549 4285812799
-0.33241674 0.042549025 -0.022237105 4286338627
-0.33323526 0.043477219 -0.02356248 4283003204
-0.33441678 0.044455182 -0.025395911 4281494848
-0.33651721 0.045555253 -0.028514711 4281026622
-0.34128055 0.04700831 -0.035358239 4280826168
-0.34370434 0.048191819 -0.03893828 4281484085
-0.34480503 0.049216338 -0.040671263 4281953896
-0.3427833 -0.017007351 -0.02478046 4283913870
-0.34272006 -0.016161988 -0.024879944 4283578935
-0.34265679 -0.015316578 -0.024979454 4280695351
-0.34259349 -0.014471089 -0.025078969 4280696630
-0.34234202 -0.013601602 -0.024924863 4281024566
-0.3420909 -0.012733454 -0.024771007 4281090871
-0.34184018 -0.011866583 -0.024617331 4281616696
-0.34121636 -0.010957452 -0.023959769 4281683777
-0.34078112 -0.01007355 -0.023556078 4282275905
-0.34034729 -0.0091923336 -0.023153694 4282342987
-0.33973035 -0.0082942136 -0.022503123 4283131211
-0.33948356 -0.0074379081 -0.022352589 4283132751
-0.33905375 -0.0065647066 -0.021953955 4283525711
-0.33899119 -0.0057291347 -0.02205231 4283527757
-0.33874553 -0.0048766332 -0.021902494 4283789900
-0.33886611 -0.004057758 -0.022249032 4283866951
-0.33862054 -0.0032064519 -0.022099076 4286675527
-0.338741 -0.0023861777 -0.022445777 4286673222
-0.33886161 -0.0015645531 -0.022792997 4285688134
-0.3389824 -0.0007415961 -0.023140747 4285692989
-0.33891973 9.5712749e-05 -0.023239292 4286478141
-0.33867377 0.00094541826 -0.023088418 4286478140
-0.33861113 0.001782204 -0.023186903 4284116540
-0.33836558 0.0026300936 -0.023036208 4284121913
-0.33812037 0.0034766987 -0.022885684 4285626425
-0.33787557 0.0043220655 -0.02273545 4285628993
-0.33763117 0.0051661986 -0.022585463 4284644161
-0.33720574 0.0060174162 -0.022188077 4284654664
-0.3369624 0.0068584098 -0.022038883 4287203144
-0.33671939 0.0076981317 -0.021889858 4287194694
-0.3364768 0.0085366312 -0.021741126 4283792198
-0.33641455 0.0093681347 -0.02183901 4283793481
-0.33635232 0.010199717 -0.021936884 4286672969
-0.33629006 0.011031351 -0.022034766 4286739535
-0.33622783 0.011863036 -0.022132656 4283656783
-0.33616558 0.012694796 -0.022230553 4283524431
-0.33646372 0.013521505 -0.022823134 4282803279
-0.33640137 0.014354677 -0.022921201 4282801484
-0.33651951 0.015186635 -0.023267299 4282144844
-0.3364571 0.016020553 -0.023365453 4282142274
-0.33621427 0.016854528 -0.023215437 4281484866
-0.33597177 0.017687263 -0.023065597 4281484347
-0.33572969 0.018518766 -0.022916043 4280893243
-0.33548799 0.019349063 -0.022766737 4280826676
-0.33506778 0.020175556 -0.022371002 4280432947
-0.33482713 0.021002762 -0.022222474 4280432172
-0.3345868 0.021828773 -0.022074148 4280430380
-0.33434686 0.022653591 -0.02192607 4280431920
-0.33428484 0.023482274 -0.022023609 4284118064
-0.33422282 0.024311038 -0.022121144 4284521563
-0.3341608 0.025139874 -0.022218702 4287797086
-0.33427644 0.025975784 -0.022562262 4288132240
-0.33385935 0.026790047 -0.022168148 4288584342
-0.33344355 0.02760186 -0.021775266 4288654758
-0.33338165 0.028429015 -0.02187263 4289439912
-0.33279133 0.029227749 -0.021236746 4289566617
-0.33290535 0.030063225 -0.021577997 4288912022
-0.33266777 0.030878546 -0.021431044 4288783733
-0.33243054 0.031692691 -0.021284359 4286158193
-0.33201879 0.032493688 -0.020894634 4285615687
-0.33213195 0.033329997 -0.02123487 4281218623
-0.33207026 0.034154426 -0.021331897 4280366648
-0.33200854 0.034978904 -0.021428948 4282541623
-0.33194682 0.03580343 -0.02152599 4282997575
-0.33171049 0.036612935 -0.021379471 4283203149
-0.3316488 0.037436955 -0.02147647 4283254870
-0.33158714 0.03826103 -0.021573458 4281226329
-0.33152547 0.039085183 -0.021670457 4280647563
-0.33128959 0.039891813 -0.021523982 4284123548
-0.33122796 0.040715434 -0.02162092 4285303894
-0.3313404 0.041557983 -0.021961512 4286604351
-0.331453 0.042401891 -0.022302628 4287125868
-0.33209097 0.043307826 -0.023380222 4283191165
-0.33326355 0.044282641 -0.02520844 4281363055
-0.33516786 0.045356393 -0.028065128 4281029480
-0.33710495 0.046448719 -0.030970989 4280892485
-0.34286609 0.048053406 -0.039250694 4281418036
-0.34415635 0.049102504 -0.041257165 4281755742
-0.34177786 -0.01706763 -0.024842132 4283979406
-0.34171468 -0.01622355 -0.0249415 4283644727
-0.34165147 -0.015379419 -0.025040876 4280695351
-0.34158829 -0.014535235 -0.025140259 4280696118
-0.34133792 -0.013667036 -0.024986314 4280959030
-0.34108797 -0.012800151 -0.024832677 4281025847
-0.3408384 -0.011934542 -0.024679253 4281616696
-0.34040341 -0.011048454 -0.024274155 4281684289
-0.33996975 -0.010165028 -0.023870321 4282472514
-0.3393532 -0.0092639951 -0.023217611 4282474572
-0.33892286 -0.0083866753 -0.022816975 4283065676
-0.3386769 -0.007530916 -0.022666365 4283132496
-0.33824861 -0.0066582267 -0.022267545 4283459920
-0.33800375 -0.0058056978 -0.022117738 4283592268
-0.33775926 -0.004954414 -0.021968175 4286935628
-0.33787879 -0.0041368436 -0.022314198 4286874952
-0.33763438 -0.0032867508 -0.022164496 4284642888
-0.33775383 -0.0024677897 -0.0225107 4284644165
-0.33769137 -0.0016331573 -0.022608947 4284508485
-0.3378109 -0.00081212481 -0.022955785 4284513085
-0.33793071 1.0205043e-05 -0.023303211 4284970813
-0.33750385 0.00087108975 -0.022903765 4284971579
-0.33762327 0.0016942432 -0.023250852 4284444219
-0.33737883 0.0025409115 -0.023100344 4284447545
-0.33713478 0.0033863154 -0.022950094 4284381497
-0.33689108 0.0042304671 -0.022800021 4284381249
-0.33646715 0.0050824671 -0.022402683 4283988801
-0.3362245 0.0059234807 -0.022253385 4283988296
-0.33580258 0.0067710257 -0.021857832 4284189000
-0.33574039 0.007601812 -0.021955632 4284182853
-0.33549887 0.0084391171 -0.021807062 4284120389
-0.3354367 0.0092693865 -0.021904817 4284120394
-0.33537453 0.01009971 -0.022002563 4284903754
-0.33531237 0.010930109 -0.022100316 4284970064
-0.3352502 0.011760558 -0.022198079 4283394384
-0.335188 0.012591056 -0.022295862 4283328848
-0.33548415 0.013416375 -0.02288763 4282934352
-0.33542186 0.014248285 -0.022985565 4282932300
-0.33553904 0.015078895 -0.023331212 4282144844
-0.33547673 0.015911574 -0.023429237 4282076482
-0.33523497 0.016744362 -0.023279428 4281353538
-0.33499363 0.017575948 -0.023129849 4281286971
-0.33475262 0.018406302 -0.022980466 4280958523
-0.33433387 0.019233575 -0.022584781 4280958260
-0.33409393 0.020060867 -0.022436183 4280498483
-0.33385435 0.020886937 -0.022287831 4280497964
-0.33361515 0.021711791 -0.022139722 4280299308
-0.33337629 0.022535454 -0.02199184 4280301105
-0.33313781 0.023357905 -0.021844206 4283858225
-0.33325237 0.024190448 -0.02218668 4284257122
-0.33301401 0.025011737 -0.022038892 4285703271
-0.33312845 0.025845675 -0.022381527 4285832863
-0.33289015 0.026665816 -0.022233624 4287341477
-0.33247641 0.02747665 -0.021841235 4287474354
-0.33241457 0.028302561 -0.021938469 4288327604
-0.33200222 0.029109756 -0.021547206 4288390813
-0.3319405 0.029934537 -0.021644291 4288913050
-0.33170393 0.030748751 -0.021497514 4288915314
-0.33164221 0.031573024 -0.021594558 4286158443
-0.33123198 0.032373615 -0.021204716 4285619016
-0.33134443 0.033209238 -0.021544954 4281350209
-0.33128276 0.03403306 -0.021641945 4280565306
-0.33122107 0.03485693 -0.021738926 4283593272
-0.33115938 0.035680875 -0.021835933 4284304447
-0.33109769 0.036504894 -0.021932933 4283467328
-0.331036 0.03732894 -0.022029951 4283209307
-0.33097431 0.03815306 -0.022126961 4284314211
-0.33091259 0.038977258 -0.022224002 4284583076
-0.33067718 0.03978397 -0.022077106 4282883258
-0.33061549 0.040607661 -0.022174085 4282344546
-0.33055383 0.041431379 -0.022271052 4282734399
-0.33066571 0.042274565 -0.022612184 4282942327
-0.33112615 0.043159317 -0.02344415 4281882256
-0.33211559 0.044110883 -0.025021881 4281423487
-0.33364823 0.045136869 -0.027366742 4282077046
-0.33556473 0.046223097 -0.030255353 4282465356
-0.34107429 0.047791053 -0.038215704 4281810739
-0.34311989 0.048936807 -0.041295897 4281490520
-0.34077546 -0.017127706 -0.024903631 4283979141
-0.34071237 -0.016284926 -0.025002867 4283644725
-0.34064925 -0.015442095 -0.025102105 4280695093
-0.3405861 -0.014599187 -0.025201356 4280695856
-0.34033689 -0.013732281 -0.025047664 4280959281
-0.3400881 -0.012866653 -0.024894224 4281025850
-0.3398397 -0.012002327 -0.024741041 4281616698
-0.33940691 -0.011117467 -0.024336491 4281684290
-0.33897546 -0.010235287 -0.023933183 4282471746
-0.33854538 -0.0093558067 -0.023531191 4282540108
-0.33811662 -0.0084789796 -0.023130422 4283065676
-0.33768916 -0.007604823 -0.022730898 4283066957
-0.33726308 -0.0067333267 -0.022332666 4283460686
-0.33720061 -0.0058996277 -0.022430835 4283592019
-0.3367759 -0.0050319862 -0.022033639 4287394131
-0.33689448 -0.0042156992 -0.022379234 4287332944
-0.33665118 -0.0033668377 -0.022229718 4284381008
-0.33676967 -0.0025491563 -0.02257546 4284382281
-0.33670723 -0.0017157724 -0.022673596 4284312136
-0.33682588 -0.00089605682 -0.023020009 4284316224
-0.33676341 -6.1925348e-05 -0.023118231 4284768576
-0.33651999 0.0007846884 -0.022968022 4284774718
-0.33663845 0.0016065196 -0.023314685 4284503870
-0.33639508 0.0024519905 -0.023164356 4284512832
-0.33615214 0.0032961776 -0.023014294 4284175680
-0.33590958 0.0041391393 -0.022864476 4284184129
-0.33566734 0.0049808742 -0.022714857 4283913281
-0.33542553 0.0058213375 -0.022565505 4283921214
-0.3350051 0.0066684345 -0.022169767 4283717182
-0.33494291 0.0074985991 -0.022267526 4283724354
-0.33470219 0.0083353855 -0.022118866 4284175170
-0.33446181 0.0091709308 -0.021970488 4284185664
-0.33439973 0.010000024 -0.022068104 4284703808
-0.33433762 0.010829164 -0.022165747 4284707663
-0.33427551 0.011658357 -0.022263378 4283400783
-0.33421341 0.012487627 -0.022361018 4283329365
-0.33450755 0.013311535 -0.022952 4282933845
-0.33444536 0.014142208 -0.023049805 4282932299
-0.33438313 0.014972929 -0.023147633 4282077259
-0.33449933 0.015802914 -0.023492938 4282076477
-0.33425868 0.016634556 -0.023343282 4281287997
-0.33384067 0.017464476 -0.022947045 4281286713
-0.33360106 0.018293018 -0.02279819 4280958521
-0.33336186 0.019120367 -0.022649568 4280958260
-0.33312303 0.019946499 -0.022501191 4280498484
-0.33288452 0.020771436 -0.022353038 4280497964
-0.3326464 0.021595161 -0.022205133 4280300331
-0.33240864 0.022417672 -0.02205747 4280301363
-0.3321712 0.023239 -0.021909991 4283788596
-0.33228487 0.0240702 -0.022252053 4284190561
-0.33222297 0.02489654 -0.022349354 4285310310
-0.33216107 0.025722954 -0.022446664 4285438640
-0.33192381 0.026541982 -0.022298917 4287077816
-0.33168694 0.027359832 -0.022151444 4287277234
-0.33162513 0.028185159 -0.022248628 4288063409
-0.33138868 0.02900123 -0.022101335 4288194471
-0.33115253 0.02981613 -0.021954224 4288919461
-0.33109081 0.030640373 -0.022051279 4288982151
-0.3308551 0.031453505 -0.021904357 4286157953
-0.33061972 0.032265469 -0.021757679 4285619546
-0.33055809 0.033088632 -0.021854609 4281547090
-0.33049643 0.033911869 -0.021951551 4280631363
-0.33043474 0.034735154 -0.022048496 4283918912
-0.33054656 0.035572801 -0.022389423 4284630583
-0.33048487 0.036396824 -0.022486441 4283518773
-0.33042312 0.037220914 -0.022583483 4283210892
-0.3303614 0.038045075 -0.022680536 4285106338
-0.33029968 0.038869295 -0.022777578 4285698951
-0.33006468 0.039676134 -0.022630299 4282479742
-0.33000299 0.040499847 -0.022727299 4281353551
-0.32976839 0.041304957 -0.022580141 4281419837
-0.32970673 0.042128164 -0.022677083 4281502851
-0.32999095 0.042991254 -0.02326294 4281425315
-0.33079824 0.043919172 -0.024589287 4281422465
-0.33214027 0.044919025 -0.026673801 4282470512
-0.3336778 0.045953933 -0.029037489 4283055690
-0.34005347 0.047629129 -0.038258903 4282007091
-0.34227926 0.048797339 -0.04160754 4281357901
-0.34318122 0.049800809 -0.043082025 4286548575
-0.33977616 -0.017187627 -0.024964988 4283585924
-0.33971313 -0.016346121 -0.025064092 4283250997
-0.33965006 -0.015504562 -0.0251632 4280694836
-0.339587 -0.014662955 -0.025262332 4280761647
-0.33933899 -0.013797306 -0.02510887 4281155888
-0.3390913 -0.012932954 -0.024955621 4281222458
-0.33884403 -0.012069883 -0.024802677 4281420091
-0.33841345 -0.011186274 -0.024398655 4281487938
-0.3379842 -0.010305316 -0.023995956 4282078275
-0.3375563 -0.0094270688 -0.023594474 4282145868
-0.33712971 -0.00855147 -0.023194246 4282869068
-0.33688566 -0.0076975105 -0.023043768 4282870861
-0.33646107 -0.0068265209 -0.022645338 4283591757
-0.33621809 -0.0059757708 -0.022495616 4283593812
-0.33579552 -0.005109306 -0.022098972 4284706900
-0.33591318 -0.0042943209 -0.022444142 4284638545
-0.33567095 -0.00344666 -0.022294791 4282218065
-0.33578852 -0.002630288 -0.022640122 4282211657
-0.33572617 -0.0017981709 -0.022738129 4282214985
-0.3356638 -0.00096597685 -0.022836141 4282213696
-0.33560145 -0.00013375755 -0.022934156 4283784768
-0.33535945 0.00071099488 -0.022784462 4283859262
-0.33547673 0.0015309097 -0.023130216 4285748286
-0.33523479 0.0023745028 -0.022980388 4285766721
-0.3349933 0.0032168459 -0.022830835 4287647809
-0.33493102 0.0040480853 -0.022928735 4287672897
-0.33486873 0.0048794001 -0.023026649 4288761409
-0.33444917 0.0057278946 -0.022630209 4288789052
-0.33420879 0.0065659615 -0.022481296 4289023804
-0.33414665 0.0073955366 -0.022578986 4289051201
-0.33390668 0.0082318019 -0.022430271 4287843649
-0.33366707 0.0090668062 -0.022281751 4287858239
-0.33360499 0.0098953089 -0.022379316 4283064895
-0.3333658 0.010728521 -0.022230977 4282931791
-0.33330375 0.011556484 -0.022328498 4285629775
-0.33324173 0.012384501 -0.022426009 4285761366
-0.33353391 0.01320703 -0.023016235 4282999638
-0.33347178 0.014036448 -0.023113912 4282932043
-0.33340964 0.014865912 -0.02321161 4281880139
-0.33334747 0.015695456 -0.023309303 4281879100
-0.3332853 0.016525047 -0.023407016 4281156924
-0.33286941 0.017353905 -0.023011284 4281089849
-0.3326309 0.018181311 -0.022862652 4280827449
-0.33239278 0.019007497 -0.022714226 4280761140
-0.33215502 0.019832494 -0.022566052 4280498484
-0.33191761 0.020656275 -0.022418121 4280496940
-0.33168054 0.021478849 -0.022270372 4280365867
-0.33144388 0.02230024 -0.022122897 4280366899
-0.33138204 0.023125233 -0.022220073 4282936116
-0.33132023 0.023950307 -0.022317242 4283208545
