# .PCD v0.7 - Point Cloud Data file format
VERSION 0.7
FIELDS x y z rgba
SIZE 4 4 4 4
TYPE F F F U
COUNT 1 1 1 1
WIDTH 994
HEIGHT 1
VIEWPOINT 0 0 0 1 0 0 0
POINTS 994
DATA ascii
-0.31915268 0.020718407 -0.070524186 4281154867
-0.31887066 0.021324316 -0.069711074 4281019951
-0.31895244 0.022180485 -0.069455169 4280692014
-0.31885257 0.022909828 -0.068921953 4280692010
-0.31893429 0.023765426 -0.068666212 4280758571
-0.31901601 0.024621084 -0.068410456 4281283887
-0.3189162 0.025348047 -0.067878492 4284958000
-0.31899786 0.026203129 -0.067622885 4284970808
-0.31944317 0.027318867 -0.067919284 4284568376
-0.31916121 0.027913535 -0.067111656 4284576053
-0.31906137 0.028637474 -0.066581041 4286466356
-0.31860003 0.029097274 -0.065504119 4286668345
-0.31868145 0.029949931 -0.065249242 4285882681
-0.31858239 0.030670067 -0.064721882 4285625403
-0.31884432 0.031655435 -0.064739481 4284830012
-0.3189258 0.032508299 -0.064484544 4284430647
-0.31900725 0.033361215 -0.064229615 4282398516
-0.31926981 0.034349781 -0.064246759 4281022004
-0.31953278 0.035340037 -0.06426397 4281153587
-0.3197962 0.036331963 -0.064281136 4281289018
-0.31969604 0.037049137 -0.063753098 4284244033
-0.31977764 0.037903789 -0.063497648 4289101922
-0.31949612 0.038480163 -0.062699527 4289841588
-0.31921551 0.039054736 -0.061903998 4291939000
-0.34688282 -0.023227863 -0.14521997 4285420878
-0.34745252 -0.022031751 -0.1457136 4284505422
-0.34683418 -0.021358524 -0.14423692 4284505690
-0.34574893 -0.020899354 -0.1419899 4285294426
-0.34374669 -0.020862361 -0.13823096 4285298294
-0.33753642 -0.022753932 -0.12752949 4282737782
-0.33437967 -0.023293454 -0.12188835 4282664003
-0.33235154 -0.023335796 -0.11811894 4281285440
-0.33077252 -0.023184821 -0.1150964 4281218357
-0.32921571 -0.023035895 -0.11211628 4280824116
-0.32828635 -0.022602204 -0.11017277 4280758835
-0.32756609 -0.022076355 -0.10857591 4280562482
-0.32665116 -0.021650089 -0.1066629 4280562739
-0.32554656 -0.021323226 -0.10444286 4280562739
-0.32464898 -0.020904083 -0.10256569 4280562743
-0.32356507 -0.020583961 -0.10038754 4280759608
-0.32249221 -0.020267056 -0.098231584 4280824887
-0.32181117 -0.019762974 -0.096718438 4280891191
-0.32151452 -0.019071089 -0.09583386 4280891448
-0.32140866 -0.018285209 -0.09526097 4280892217
-0.32149282 -0.017403593 -0.094997473 4280892476
-0.32119739 -0.016717231 -0.094117969 4281154877
-0.32147112 -0.01573866 -0.094162375 4281285696
-0.32136551 -0.01495663 -0.093591765 4281418050
-0.32144955 -0.014076234 -0.093328647 4281483839
-0.32134405 -0.013296158 -0.092759199 4281618749
-0.32104972 -0.012618077 -0.091885589 4281684288
-0.32075638 -0.011942229 -0.091014884 4282603075
-0.31971565 -0.011673195 -0.088941835 4283326787
-0.31961259 -0.010902021 -0.088381186 4284568643
-0.31913838 -0.01033557 -0.087224722 4285750342
-0.31903616 -0.0095679406 -0.086667351 4285096008
-0.31911913 -0.0086987251 -0.086407572 4284371026
-0.31901699 -0.0079329535 -0.085851252 4283456096
-0.31891507 -0.0071683903 -0.085295886 4282275937
-0.31881329 -0.0064050169 -0.084741421 4282207074
-0.3187117 -0.0056428788 -0.084187806 4282141783
-0.31861028 -0.0048819077 -0.083635136 4282336832
-0.31832543 -0.004228191 -0.082790874 4282729022
-0.31822464 -0.0034701549 -0.082240693 4282666043
-0.31812397 -0.0027132882 -0.081691399 4282400315
-0.3182064 -0.001849943 -0.081433378 4282138429
-0.31828883 -0.00098649273 -0.08117532 4281285948
-0.31837127 -0.00012302322 -0.080917239 4281285435
-0.31863713 0.00085053075 -0.080949366 4281285179
-0.31890345 0.0018257711 -0.080981493 4281612346
-0.31953943 0.0030268789 -0.081596643 4283645498
-0.31980738 0.0040073264 -0.08162944 4283655994
-0.31989029 0.0048754718 -0.081369966 4283654970
-0.31978786 0.0056291437 -0.080818899 4283644991
-0.31968564 0.0063816495 -0.080268748 4281953855
-0.31958359 0.0071329945 -0.079719514 4281941311
-0.31929746 0.0077672168 -0.078882143 4282281279
-0.31919602 0.008515683 -0.078335367 4282273599
-0.31891125 0.0091461772 -0.07750231 4284372287
-0.31881037 0.0098917782 -0.076957978 4284573747
-0.31852695 0.010518613 -0.076129235 4285152305
-0.31842667 0.01126137 -0.075587317 4285156397
-0.31832653 0.012002973 -0.075046271 4282926380
-0.31840861 0.012862602 -0.07478936 4282142004
-0.31830859 0.013602421 -0.074249379 4284174135
-0.31839061 0.014461471 -0.073992625 4285289520
-0.31883737 0.015563315 -0.074301586 4283843115
-0.31891954 0.016423905 -0.074044377 4283056432
-0.31918466 0.017407659 -0.074070267 4283720244
-0.31926692 0.01826909 -0.073812805 4284375865
-0.31934917 0.019130602 -0.073555313 4283520574
-0.31943142 0.019992195 -0.073297828 4282668088
-0.31951368 0.020853829 -0.073040299 4282070832
-0.31922966 0.021462457 -0.072219081 4280888622
-0.31912902 0.022195915 -0.071681 4280888874
-0.31902859 0.022928229 -0.071143813 4280758058
-0.3191106 0.023787295 -0.070887059 4281153322
-0.31901026 0.02451784 -0.07035087 4282726187
-0.31909221 0.025376363 -0.07009428 4282662448
-0.31917417 0.026234934 -0.069837674 4283843632
-0.31907389 0.026963068 -0.069302782 4283984951
-0.31915581 0.027821092 -0.069046341 4284636215
-0.31905565 0.02854746 -0.068512477 4284641082
-0.31913748 0.029404918 -0.068256207 4286006074
-0.31885579 0.029996855 -0.06744729 4286273336
-0.31893751 0.030853039 -0.0671914 4285291832
-0.31883779 0.031575438 -0.066660292 4285033017
-0.31910101 0.032565609 -0.06667956 4284238650
-0.31918278 0.033422019 -0.066423602 4283905847
-0.31944653 0.034414638 -0.066442646 4282397749
-0.31952837 0.035271879 -0.066186443 4281087544
-0.31979263 0.036267005 -0.066205308 4281421370
-0.31987455 0.037125058 -0.065948866 4281558893
-0.31977394 0.037843976 -0.065417707 4283992001
-0.31985578 0.038701456 -0.065161429 4289121731
-0.31957322 0.039278492 -0.064358048 4289776081
-0.34589356 -0.023056922 -0.14548838 4285157710
-0.34646079 -0.021861546 -0.14598206 4283910991
-0.34584582 -0.021189405 -0.14450602 4283982458
-0.34429985 -0.020941013 -0.14148435 4285168506
-0.34231538 -0.02090371 -0.13774018 4285163862
-0.33637616 -0.022689514 -0.12744167 4282466646
-0.33324066 -0.023228897 -0.12181186 4282400568
-0.33143497 -0.023174722 -0.11839534 4281153078
-0.33006996 -0.022928391 -0.11571448 4281087027
-0.32872176 -0.022685051 -0.11306657 4280758067
-0.32779375 -0.022252481 -0.11111722 4280758577
-0.32727557 -0.021630902 -0.10984704 4280561713
-0.32636032 -0.021205775 -0.10792525 4280562479
-0.32525527 -0.020880584 -0.10569484 4280561967
-0.32455349 -0.020366298 -0.10413119 4280562483
-0.32346722 -0.020048082 -0.10193939 4280758836
-0.3227776 -0.019540887 -0.10040195 4280824626
-0.32209268 -0.019037096 -0.098874986 4280824625
-0.32198563 -0.018246589 -0.098296098 4280890674
-0.32187879 -0.017457372 -0.097718187 4280890931
-0.32196337 -0.016571188 -0.097453371 4280891704
-0.32166567 -0.015882714 -0.096565232 4281088058
-0.32175013 -0.014997908 -0.096300803 4281219383
-0.32164377 -0.014213148 -0.095725991 4281284918
-0.32153761 -0.013429683 -0.095152088 4281351226
-0.32143167 -0.012647424 -0.09457916 4281482044
-0.32113612 -0.011968139 -0.09369953 4281548858
-0.32084167 -0.011291029 -0.092822887 4282269497
-0.31998432 -0.010922533 -0.091036841 4283059258
-0.31969348 -0.010251067 -0.090169728 4284108090
-0.31940368 -0.0095817242 -0.089305535 4285157946
-0.31911477 -0.0089145787 -0.088444181 4284701497
-0.31901228 -0.008146096 -0.087884381 4284108089
-0.31890997 -0.0073788282 -0.087325461 4283323194
-0.31862295 -0.0067173573 -0.086470254 4282208572
-0.31852123 -0.0059530665 -0.085913867 4282141503
-0.31841969 -0.0051899594 -0.085358404 4282076477
-0.31850255 -0.0043217922 -0.085098952 4282271544
-0.31821713 -0.0036673469 -0.08425016 4282663736
-0.3179327 -0.0030150011 -0.083404206 4282665784
-0.31801531 -0.0021495027 -0.083145559 4282399288
-0.31809792 -0.001283951 -0.082886897 4282137912
-0.31799719 -0.0005274869 -0.082336098 4281284408
-0.31826314 0.00044736441 -0.082369499 4281285173
-0.31852955 0.0014238482 -0.082402915 4281284149
-0.31898087 0.0025139148 -0.082729295 4281614128
-0.31980494 0.0038340928 -0.083645508 4283722800
-0.3200742 0.0048193485 -0.083680108 4283721522
-0.32034391 0.0058063143 -0.083714783 4283780402
-0.32024062 0.0065630372 -0.083159 4283776049
-0.32069746 0.0076683937 -0.083488442 4282071346
-0.3205938 0.0084243454 -0.08293239 4282006575
-0.3203038 0.0090612425 -0.082083404 4282399536
-0.32001477 0.0096960654 -0.081237219 4282469677
-0.31935689 0.010092389 -0.079812363 4284628526
-0.31907088 0.010722511 -0.078974105 4285032751
-0.31878585 0.011350613 -0.078138635 4286074160
-0.31850174 0.011976695 -0.077305846 4286339123
-0.31840122 0.012720233 -0.076761633 4283196980
-0.31848353 0.013582733 -0.07650388 4281947191
-0.31856585 0.014445277 -0.076246105 4285023801
-0.31864816 0.015307932 -0.075988315 4286667060
-0.3189137 0.016293105 -0.076015912 4284112689
-0.3189961 0.017156579 -0.075757876 4282074677
-0.31926215 0.018144215 -0.075785264 4283585593
-0.31934464 0.019008558 -0.075526968 4285031736
-0.31942716 0.019872978 -0.075268634 4283584312
-0.31950966 0.020737449 -0.0750103 4281417013
-0.31959218 0.021601969 -0.074751928 4281150512
-0.31930706 0.022211486 -0.073925227 4280692014
-0.319206 0.022946738 -0.073383965 4280757803
-0.31910515 0.023680907 -0.072843626 4280824620
-0.31900445 0.024413908 -0.07230413 4281484590
-0.31890392 0.025145771 -0.071765482 4285222959
-0.31898606 0.026006453 -0.071508281 4285025846
-0.31906822 0.026867207 -0.071251042 4282011445
-0.31896776 0.027596666 -0.070713647 4282012729
-0.31904984 0.028456852 -0.070456602 4284635705
-0.31894949 0.02918455 -0.069920279 4284836154
-0.31921405 0.030177437 -0.069942407 4284960570
-0.31893125 0.03077008 -0.069128074 4284959032
-0.31919563 0.03176358 -0.069149539 4283126584
-0.31927767 0.032623418 -0.068892598 4282532409
-0.31954256 0.033619393 -0.068913803 4281677882
-0.31999135 0.034754347 -0.069213942 4281153335
-0.31970686 0.035340782 -0.06839937 4281415222
-0.31978899 0.036201578 -0.068142124 4281618745
-0.31987116 0.037062436 -0.067884862 4284968506
-0.31995332 0.037923362 -0.067627579 4289630061
-0.31985232 0.038644046 -0.067093357 4290301121
-0.31975144 0.039363604 -0.066559948 4292268742
-0.34443724 -0.023092816 -0.14497055 4284238412
-0.34476537 -0.022005126 -0.1450689 4282141261
-0.34415752 -0.021335075 -0.14360103 4282215029
-0.34262836 -0.021086585 -0.14059663 4284641397
-0.34066519 -0.02104816 -0.13687383 4284629585
-0.33414263 -0.023120455 -0.1255582 4281613905
-0.33189511 -0.023262093 -0.12138504 4281546552
-0.33031225 -0.023110958 -0.11832584 4280825142
-0.32916176 -0.022768775 -0.11599106 4280759092
-0.32782033 -0.022526549 -0.11334383 4280627251
-0.32730022 -0.02190211 -0.11206341 4280627505
-0.32658204 -0.02137767 -0.11045713 4280561713
-0.3258689 -0.020856814 -0.10886205 4280561712
-0.32496288 -0.020436408 -0.10695113 4280496432
-0.32426092 -0.019922722 -0.10538051 4280496179
-0.32356378 -0.01941248 -0.10382069 4280627764
-0.32287139 -0.018905699 -0.10227152 4280693298
-0.32237649 -0.018304992 -0.10105003 4280759089
-0.32226875 -0.017511699 -0.10046682 4280758834
-0.32235372 -0.01662102 -0.10020068 4280759347
-0.32263166 -0.015630674 -0.10025091 4280759607
-0.32252371 -0.014839451 -0.099668309 4280825145
-0.32222351 -0.014150251 -0.098771855 4280890935
-0.3221162 -0.013362141 -0.098191984 4280825909
-0.32200909 -0.012575326 -0.097613081 4280825400
-0.3217108 -0.011892109 -0.096723095 4280890939
-0.32141355 -0.01121116 -0.09583611 4280891194
-0.32111731 -0.010532441 -0.094952092 4280956984
-0.32025516 -0.010165541 -0.093149588 4280956985
-0.31996265 -0.0094924262 -0.092275277 4281023034
-0.31948388 -0.0089251753 -0.091100268 4281023289
-0.3191939 -0.0082568359 -0.090233006 4281090105
-0.31909096 -0.0074862628 -0.089669853 4281221689
-0.31898826 -0.0067169331 -0.089107603 4281156666
-0.31888568 -0.0059488043 -0.088546216 4281092924
-0.31878331 -0.0051819058 -0.087985829 4281090367
-0.31868112 -0.004416192 -0.087426327 4281157437
-0.31857908 -0.0036517079 -0.086867735 4281154104
-0.31829259 -0.0029961495 -0.08601322 4281023544
-0.31837559 -0.0021263435 -0.085753299 4281087800
-0.3180899 -0.0014742705 -0.084901974 4281218872
-0.31817275 -0.0006057978 -0.08464247 4281153080
-0.31807163 0.00015268878 -0.084088422 4280956471
-0.31833851 0.0011313731 -0.084123366 4280956213
-0.31879061 0.0022236293 -0.084453464 4281022260
-0.31905878 0.0032066298 -0.084488779 4281485359
-0.31988579 0.0045336005 -0.085413933 4286279471
-0.32053062 0.0057537677 -0.086046435 4286270257
-0.32061425 0.0066300235 -0.085784592 4286073393
-0.32069784 0.0075063356 -0.085522734 4286082095
-0.32078147 0.0083827265 -0.085260853 4283249455
-0.32067737 0.0091406768 -0.084701464 4283053100
-0.3203862 0.0097785415 -0.083846673 4281348140
-0.32009608 0.010414363 -0.082994752 4281087529
-0.3198069 0.011048133 -0.082145624 4281742377
-0.31933349 0.011560192 -0.081007101 4281941806
-0.3190468 0.012189555 -0.080164738 4282468143
-0.31876108 0.012816899 -0.079325207 4282795317
-0.31865987 0.013562839 -0.078777038 4282673207
-0.31874254 0.014428938 -0.078518219 4282608185
-0.31864145 0.015173103 -0.077971168 4285091130
-0.31890783 0.016161408 -0.078000538 4286597430
-0.31899047 0.017027726 -0.077741668 4283851316
-0.31925738 0.018018538 -0.077770874 4281685049
-0.31934011 0.018885732 -0.077511743 4282536509
-0.31942284 0.019752974 -0.077252604 4283587384
-0.31969035 0.02074706 -0.077281304 4282595890
-0.31958836 0.021487689 -0.076734237 4281019185
-0.31967112 0.022355147 -0.076475032 4281019695
-0.3193849 0.022965446 -0.075642712 4280823342
-0.31928346 0.023702582 -0.075098276 4280823597
-0.31918216 0.024438571 -0.074554697 4280955695
-0.31926465 0.025303449 -0.074296266 4281419573
-0.3191635 0.026037648 -0.073753782 4284577846
-0.3190625 0.026770715 -0.073212184 4284501825
-0.3191449 0.027634377 -0.072954118 4282281025
-0.31904399 0.028365636 -0.072413541 4282273342
-0.31894329 0.029095793 -0.071873888 4284044606
-0.31902561 0.029958205 -0.071616173 4284376635
-0.31910786 0.030820701 -0.071358457 4284773947
-0.31937343 0.031818323 -0.071381822 4284830521
-0.3194558 0.032681659 -0.071123853 4283119160
-0.31972191 0.033681788 -0.071147047 4282463543
-0.3199884 0.034683611 -0.071170248 4281677367
-0.32007095 0.035548605 -0.070911773 4281152826
-0.32015345 0.036413632 -0.070653304 4281423677
-0.32005173 0.037138972 -0.070114002 4281627508
-0.31995013 0.037863158 -0.069575556 4284716216
-0.31984878 0.038586244 -0.069037996 4289907904
-0.31974757 0.03930819 -0.068501294 4290695638
-0.34206477 -0.023537893 -0.14289936 4284107073
-0.34055638 -0.023276323 -0.1399136 4282074434
-0.33974284 -0.022713771 -0.13810104 4282147936
-0.337598 -0.022763025 -0.13405755 4284236128
-0.33484098 -0.023109725 -0.12899582 4284236091
-0.3319371 -0.023545912 -0.12369849 4281546299
-0.33034828 -0.023392202 -0.12061191 4281481013
-0.32919347 -0.023047347 -0.11825673 4280824373
-0.32825512 -0.022609396 -0.11626729 4280759093
-0.32712254 -0.022271844 -0.1139577 4280692789
-0.32660425 -0.02164801 -0.11267566 4280693042
-0.32628921 -0.020930164 -0.11173391 4280627505
-0.3255758 -0.020409914 -0.11013164 4280561716
-0.32466948 -0.019990655 -0.10821189 4280496436
-0.32396728 -0.019477578 -0.10663423 4280496434
-0.32346523 -0.018870285 -0.10539094 4280693298
-0.32335556 -0.01806977 -0.10479899 4280693298
-0.3230513 -0.017369367 -0.10388612 4280758834
-0.32294229 -0.016572041 -0.10329695 4280758577
-0.32302776 -0.015675968 -0.10302922 4280758832
-0.32311323 -0.014779783 -0.10276145 4280759091
-0.32300431 -0.013985164 -0.10217375 4280824628
-0.32270169 -0.013293827 -0.10126837 4280890674
-0.32259342 -0.012502359 -0.10068341 4280824881
-0.32248533 -0.011712195 -0.10009942 4280824624
-0.32218465 -0.011026892 -0.099200606 4280824112
-0.32188505 -0.010343894 -0.098304883 4280890162
-0.32177806 -0.0095587075 -0.097725309 4280890163
-0.32071793 -0.0092979865 -0.095590025 4280955699
-0.3208023 -0.0084133456 -0.095325708 4281021747
-0.31994075 -0.0080548991 -0.09352003 4281021746
-0.32002476 -0.0071738581 -0.093256794 4281087793
-0.31992048 -0.0063989707 -0.092687279 4281218612
-0.31944102 -0.0058382731 -0.091509201 4281153081
-0.3191506 -0.0051737679 -0.09063977 4281087543
-0.31904757 -0.0044042259 -0.09007524 4281088051
-0.31894466 -0.0036359243 -0.089511625 4281152818
-0.31902817 -0.0027603998 -0.089250036 4281087537
-0.31873947 -0.0021029795 -0.088387251 4280956209
-0.3186371 -0.0013383254 -0.087826386 4281022000
-0.31853494 -0.00057485222 -0.08726649 4281152816
-0.31843299 0.00018739166 -0.086707503 4281087025
-0.31851617 0.0010596076 -0.086446904 4280955441
-0.31859937 0.0019318927 -0.086186267 4280956208
-0.31905374 0.0030301132 -0.086521171 4280956208
-0.31932327 0.0040179747 -0.086558402 4281485357
-0.32015464 0.0053532901 -0.08749444 4286735918
-0.32099164 0.0066976906 -0.08843676 4286727482
-0.32107565 0.0075784214 -0.08817362 4286597178
-0.32097074 0.0083407806 -0.087608993 4286609204
-0.32124367 0.0093400935 -0.087647259 4283588660
-0.32076141 0.0098618548 -0.086482495 4283381561
-0.32046917 0.010500692 -0.085621879 4280960057
-0.32017785 0.011137492 -0.084764108 4280628016
-0.31988755 0.011772199 -0.083909169 4280692270
-0.31941235 0.01228422 -0.082762443 4280692524
-0.31912455 0.012914531 -0.081914432 4280825131
-0.31883773 0.013542797 -0.081069142 4280890927
-0.31873611 0.014290665 -0.080517747 4282271280
-0.31881902 0.015159709 -0.080258086 4283000114
-0.31871748 0.015905762 -0.079707757 4285096243
-0.3188003 0.016774215 -0.079448275 4286531895
-0.31906772 0.017767275 -0.079478994 4283778873
-0.31915063 0.018636607 -0.079219252 4281353783
-0.31941852 0.019632155 -0.079249732 4281680950
-0.31950152 0.02050234 -0.078989729 4282139956
-0.31958452 0.021372614 -0.078729704 4281544497
-0.31948236 0.022114608 -0.07818009 4280626480
-0.3195653 0.022984263 -0.077920243 4280693039
-0.31946319 0.02372444 -0.077371657 4280955695
-0.31936133 0.02446346 -0.076823995 4281021233
-0.31925961 0.025201308 -0.076277234 4281155378
-0.3193424 0.026069114 -0.076017946 4281417527
-0.31942517 0.026936941 -0.075758651 4283134775
-0.31932348 0.02767235 -0.075213119 4283124801
-0.31922203 0.028406605 -0.074668497 4283132225
-0.31912073 0.029139727 -0.074124761 4283120958
-0.31865305 0.029604327 -0.073015049 4282340414
-0.31891862 0.030602505 -0.073039897 4282211899
-0.31918463 0.031602379 -0.073064767 4283723323
-0.31963536 0.032740407 -0.073373638 4284106809
-0.31971806 0.033607353 -0.073114611 4282003768
-0.31998545 0.034612428 -0.073139511 4281086519
-0.32006821 0.035480253 -0.072880231 4281283639
-0.3203361 0.036487877 -0.072904974 4281424186
-0.3200489 0.037075914 -0.072078258 4285232957
-0.31994697 0.03780254 -0.071536444 4289566578
-0.31966108 0.038387109 -0.070713982 4290300096
-0.33904552 -0.02427903 -0.13970889 4283056961
-0.33868799 -0.023513017 -0.13865951 4281615170
-0.33788505 -0.022952162 -0.13685997 4281614429
-0.33554831 -0.023098882 -0.13247755 4281614429
-0.33304411 -0.023341242 -0.12782188 4281612348
-0.33059373 -0.023578309 -0.1232663 4280890938
-0.32922542 -0.023327926 -0.12053845 4280890421
-0.3280786 -0.022983961 -0.11818783 4280693301
-0.32734999 -0.022450294 -0.11654301 4280693557
-0.32642469 -0.022017144 -0.11457162 4280889397
-0.32590821 -0.021393912 -0.11328799 4280889906
-0.32559434 -0.020676471 -0.11234517 4280758577
-0.32488337 -0.020157048 -0.11074077 4280758836
-0.32417729 -0.019641168 -0.10914743 4280627764
-0.32367253 -0.019030865 -0.10789227 4280628019
-0.32336611 -0.018325254 -0.10696939 4280759603
-0.32306072 -0.017622052 -0.10604959 4280824884
-0.32295135 -0.016821763 -0.10545661 4280890163
-0.32303706 -0.015922608 -0.105188 4280955441
-0.32292774 -0.015124354 -0.10459615 4280889904
-0.32301342 -0.014225818 -0.10432771 4280889651
-0.32290429 -0.013429562 -0.10373714 4280693044
-0.3227953 -0.012634587 -0.10314757 4280627506
-0.32268652 -0.011840919 -0.10255893 4280693041
-0.32257795 -0.011048543 -0.10197135 4280758576
-0.32246959 -0.010257451 -0.10138473 4280692784
-0.32197529 -0.0096777128 -0.10016432 4280627250
-0.32206044 -0.0087848417 -0.099897563 4280692787
-0.32176051 -0.0081042927 -0.098999038 4280692787
-0.32127017 -0.007532327 -0.097789839 4280758579
-0.32097289 -0.0068566664 -0.096898705 4280758834
-0.32048663 -0.0062901704 -0.095699944 4280824625
-0.32000288 -0.0057264715 -0.094507262 4280824628
-0.31989831 -0.0049506924 -0.093935251 4280824377
-0.31960562 -0.0042842664 -0.093057297 4280824631
-0.31931394 -0.0036199999 -0.092182308 4280824626
-0.31939784 -0.0027400628 -0.09191943 4280824626
-0.31929424 -0.0019697736 -0.091351904 4280824369
-0.3191908 -0.0012007542 -0.090785325 4280824625
-0.31908754 -0.00043293994 -0.090219632 4280889903
-0.31898445 0.00033362955 -0.089654922 4280955695
-0.31888154 0.0010990164 -0.089091122 4280889904
-0.31896514 0.0019756879 -0.088829219 4280758576
-0.31904876 0.002852425 -0.088567272 4280758063
-0.31950617 0.0039577675 -0.088907883 4280824367
-0.31977737 0.0049514393 -0.088947333 4280957485
-0.32061449 0.0062967362 -0.089896172 4282934573
-0.32088777 0.0072967033 -0.089936547 4283125052
-0.3211616 0.0082984548 -0.089976996 4285679420
-0.32124585 0.009182306 -0.089712948 4285816885
-0.32114038 0.0099459877 -0.089145049 4282740021
-0.32103512 0.010708448 -0.088578142 4282468158
-0.32074115 0.011348633 -0.087710358 4283911743
-0.32026014 0.011865501 -0.086545423 4284177203
-0.32015619 0.012622715 -0.085983492 4283053616
-0.31949168 0.013013113 -0.084529661 4282857003
-0.31920275 0.013644354 -0.083675809 4281348137
-0.3189148 0.014273563 -0.082824774 4280823850
-0.31881276 0.015023384 -0.082270101 4281413931
-0.31871092 0.015772002 -0.081716321 4281812268
-0.31860921 0.016519468 -0.081163406 4283260973
-0.3188771 0.017514745 -0.081195667 4284375606
-0.31896019 0.018386245 -0.080935314 4283253566
-0.31904328 0.019257784 -0.080674931 4281872438
-0.3191264 0.020129412 -0.080414534 4281742125
-0.31939492 0.021128803 -0.080446072 4281610030
-0.31947812 0.022001287 -0.080185406 4281282607
-0.3195613 0.022873856 -0.079924732 4280692783
-0.31964451 0.023746468 -0.079664029 4280890414
-0.31954202 0.024488535 -0.079112224 4281418288
-0.31943968 0.025229394 -0.078561269 4281615417
-0.31933755 0.02596915 -0.07801123 4282409017
-0.31942058 0.026839849 -0.0777511 4282467387
-0.31950361 0.027710656 -0.077490956 4283589435
-0.31940153 0.028447919 -0.076942213 4283518785
-0.31929961 0.029183984 -0.076394327 4283195969
-0.31919786 0.029918933 -0.075847365 4283121469
-0.3190963 0.030652745 -0.075301304 4282408509
-0.31917909 0.031521 -0.075041905 4282277434
-0.31944641 0.032525849 -0.075068541 4283579449
-0.31971422 0.033532444 -0.075095206 4284101943
-0.31979716 0.034402326 -0.074835323 4282135350
-0.32006547 0.035411473 -0.07486181 4281086782
-0.3201485 0.036282238 -0.074601665 4281294147
-0.32023153 0.037153058 -0.074341506 4281433208
-0.32012898 0.037882607 -0.073795572 4285373098
-0.3375431 -0.025276184 -0.13950533 4283125094
-0.337412 -0.024410719 -0.13883777 4282991426
-0.33683681 -0.023747504 -0.13741708 4281614146
-0.33604437 -0.023188321 -0.13563041 4281614397
-0.33373669 -0.023331948 -0.13128027 4281612349
-0.33126333 -0.023570625 -0.12665856 4281612341
-0.32946539 -0.023513412 -0.12318786 4280890165
-0.32831216 -0.023166975 -0.12081268 4280890419
-0.32737517 -0.022727286 -0.11880667 4280692787
-0.32644644 -0.022291411 -0.11681835 4280693554
-0.32572678 -0.021762392 -0.1151856 4280889906
-0.32541239 -0.021042399 -0.11423703 4280889908
-0.32509911 -0.020324903 -0.11329177 4280759604
-0.32438922 -0.019806195 -0.11168265 4280759094
-0.32388163 -0.019192822 -0.11041543 4280630582
-0.32357344 -0.018483929 -0.10948413 4280628799
-0.32326642 -0.017777378 -0.10855606 4280768577
-0.3231563 -0.01697354 -0.10795834 4280827727
-0.32304639 -0.016170975 -0.10736166 4280896595
-0.32293671 -0.015369748 -0.10676598 4280957760
-0.32302263 -0.014468144 -0.10649665 4280890681
-0.32291305 -0.013668933 -0.10590213 4280889906
-0.32280368 -0.012871052 -0.10530869 4280692527
-0.32269451 -0.012074436 -0.10471626 4280627250
-0.32258549 -0.011279165 -0.10412475 4280693044
-0.32247669 -0.010485158 -0.10353431 4280758578
-0.32236812 -0.0096924705 -0.10294485 4280692784
-0.32225966 -0.0089010745 -0.10235635 4280627250
-0.32234514 -0.0080043273 -0.10208847 4280692787
-0.32185033 -0.0074292058 -0.10086408 4280692785
-0.32155028 -0.0067496714 -0.099962436 4280692527
-0.32125121 -0.0060724332 -0.099063769 4280758320
-0.32095319 -0.0053974055 -0.098168194 4280758577
-0.32065618 -0.0047246027 -0.097275637 4280823857
-0.32036021 -0.004054042 -0.096386082 4280823858
-0.3200652 -0.0033856709 -0.095499538 4280824369
-0.31977123 -0.0027195162 -0.094615966 4280824367
-0.31966677 -0.0019453788 -0.094043314 4280758319
-0.31956249 -0.0011724678 -0.093471609 4280758318
-0.31945831 -0.00040082086 -0.092900813 4280823598
-0.31935439 0.00036961018 -0.092330992 4280823854
-0.31906313 0.001026409 -0.091457143 4280889647
-0.31914705 0.0019067846 -0.091194153 4280889649
-0.31923097 0.0027871798 -0.090931147 4280692529
-0.31931487 0.0036676929 -0.090668134 4280692016
-0.3195866 0.0046635834 -0.090709187 4280823856
-0.32004723 0.0057777343 -0.091055118 4280890156
-0.32069895 0.0070135542 -0.091708452 4281680428
-0.32097325 0.0080175949 -0.091750532 4281684018
-0.32124799 0.0090233823 -0.091792636 4285347890
-0.32133251 0.0099102696 -0.091527693 4285486385
-0.32141706 0.010797241 -0.091262735 4282271793
-0.32131112 0.011562278 -0.090691641 4281944372
-0.32101539 0.012203763 -0.089816615 4285612340
-0.32053164 0.012720679 -0.08864142 4286279472
-0.32042697 0.013480461 -0.08807537 4284764463
-0.31994635 0.013992552 -0.086908504 4284301874
-0.31965518 0.014625391 -0.08604636 4281944371
-0.31917852 0.015132585 -0.084889442 4280825904
-0.31907585 0.01588488 -0.0843307 4280693039
-0.3187876 0.016511565 -0.083477117 4280627502
-0.31868547 0.017260959 -0.082920931 4281353517
-0.31876874 0.018134594 -0.08265996 4281952821
-0.31885204 0.019008307 -0.082398966 4282275900
-0.31912097 0.020009195 -0.082432285 4282658614
-0.31920433 0.020883776 -0.08217103 4281871917
-0.31928769 0.021758433 -0.081909753 4280692270
-0.31955722 0.022762686 -0.081942648 4280758063
-0.31945446 0.023507949 -0.081387125 4280823854
-0.31972414 0.024513794 -0.081419542 4281283630
-0.31962124 0.025257736 -0.080864429 4282598703
-0.31951851 0.026000511 -0.080310211 4283260983
-0.31941593 0.026742117 -0.079756878 4286734136
-0.31949922 0.027615778 -0.079495877 4286670138
-0.31958249 0.028489536 -0.079234876 4285555770
-0.31948 0.029228665 -0.078682855 4285555776
-0.31956321 0.030101817 -0.078422032 4283392321
-0.31946081 0.0308391 -0.077871136 4283254333
-0.31935859 0.03157524 -0.077321067 4283064125
-0.31944171 0.032447141 -0.077060603 4282990394
-0.31952479 0.033319134 -0.076800123 4281610809
-0.31997943 0.03446864 -0.077117547 4281218103
-0.3200627 0.03534222 -0.076856598 4281742134
-0.32014596 0.036215842 -0.076595619 4281949758
-0.32022923 0.037089556 -0.076334625 4285890884
-0.32012635 0.037821591 -0.075785287 4289109885
-0.33591959 -0.025403835 -0.13863742 4282469734
-0.33579046 -0.024541419 -0.13797311 4282400834
-0.3352218 -0.023880212 -0.13656005 4281548610
-0.33443817 -0.023322558 -0.1347831 4281547837
-0.33236882 -0.023365455 -0.13082124 4280956989
-0.3297075 -0.023700602 -0.12586106 4280956725
-0.32834098 -0.023448745 -0.1231097 4280628021
-0.32719576 -0.023103198 -0.12073917 4280628019
-0.32646832 -0.022567634 -0.11908104 4280758323
-0.325746 -0.022035804 -0.11743454 4280759346
-0.32522947 -0.021410314 -0.11613888 4280955442
-0.32471561 -0.020788038 -0.11484998 4281027380
-0.32440352 -0.020070922 -0.11390367 4285020468
-0.32409257 -0.019356219 -0.11296066 4285623350
-0.32378265 -0.018643938 -0.11202088 4287384374
-0.32347384 -0.017934086 -0.11108436 4287785279
-0.32316613 -0.017226608 -0.11015111 4288177985
-0.32305577 -0.016421096 -0.10955043 4288310095
-0.32294568 -0.015616883 -0.10895083 4283850067
-0.32283574 -0.014814013 -0.10835224 4282071873
-0.32272601 -0.014012463 -0.10775463 4282135609
-0.32281208 -0.013109149 -0.10748482 4282201138
-0.3227025 -0.01230959 -0.10688847 4281806895
-0.32259309 -0.011511368 -0.10629312 4281612082
-0.32248387 -0.010714479 -0.10569875 4281677364
-0.32256973 -0.0098132342 -0.10542955 4281742386
-0.32246065 -0.0090183197 -0.10483644 4281152048
-0.32235178 -0.0082246941 -0.10424434 4280758322
-0.32263231 -0.0072170123 -0.10429838 4280692787
-0.32232875 -0.0065332181 -0.10338458 4280627249
-0.32202628 -0.0058516799 -0.10247394 4280627247
-0.32191816 -0.005063259 -0.10188575 4280627248
-0.32161722 -0.0043858397 -0.10097998 4280692785
-0.32131726 -0.0037106974 -0.10007726 4280758065
-0.32082677 -0.0031481429 -0.098862112 4280758065
-0.32052946 -0.0024778575 -0.097966827 4280758320
-0.32023317 -0.0018097658 -0.097074576 4280758063
-0.31993791 -0.0011439155 -0.096185304 4280692526
-0.32002249 -0.00025631161 -0.09592019 4280692781
-0.31972808 0.00040593566 -0.095034339 4280626733
-0.32000196 0.0014055724 -0.095079526 4280692526
-0.31951898 0.0019508019 -0.09388721 4280955695
-0.31960329 0.0028356903 -0.093622908 4281023793
-0.31949899 0.0036055883 -0.093050979 4281478705
-0.31958324 0.0044898624 -0.092786863 4281413169
-0.31985629 0.0054907468 -0.092829853 4280889137
-0.32012981 0.0064933994 -0.09287294 4280890156
-0.32078394 0.0077352803 -0.093533136 4281086252
-0.32105923 0.0087434025 -0.093576893 4281088813
-0.32133496 0.0097532896 -0.093620747 4282593325
-0.32141978 0.01064326 -0.093354911 4282859310
-0.32150456 0.011533286 -0.093089059 4281413934
-0.32139814 0.012300356 -0.092514455 4281219629
-0.32110128 0.01294282 -0.091633402 4282987821
-0.32080537 0.013583157 -0.090755254 4283584302
-0.32051051 0.01422142 -0.089880086 4283063342
-0.32021663 0.014857573 -0.089007847 4282795577
-0.31973571 0.015367185 -0.087836646 4282277437
-0.31944442 0.015998881 -0.086971514 4281881143
-0.31915408 0.016628541 -0.086109221 4282530612
-0.31905112 0.017381566 -0.085548051 4282728240
-0.31894833 0.01813342 -0.08498776 4282662701
-0.31903192 0.01901078 -0.0847257 4282733363
-0.31892926 0.019760769 -0.084166594 4282405945
-0.31919912 0.02076569 -0.08420153 4282200885
-0.31928274 0.021643264 -0.083939403 4281675310
-0.31936637 0.022520915 -0.083677247 4280758318
-0.31963688 0.023529222 -0.083711788 4280955694
-0.31953365 0.024276374 -0.083152905 4281217070
-0.3196173 0.025154239 -0.082890689 4281479981
-0.31970093 0.026032131 -0.082628466 4282399021
-0.31959778 0.026776806 -0.082070917 4282865455
-0.31949478 0.027520295 -0.081514299 4286201648
-0.31957832 0.028396951 -0.081252448 4286341685
-0.3198486 0.029408965 -0.081284709 4285424181
-0.31993219 0.030286491 -0.081022605 4285489980
-0.32001582 0.0311641 -0.080760472 4283451964
-0.31991249 0.031904258 -0.080204844 4283253558
-0.31999609 0.032781255 -0.079942875 4283054645
-0.32026672 0.033797316 -0.079973936 4282987829
-0.32016322 0.034535483 -0.079418905 4281611573
-0.32024682 0.035412699 -0.079156891 4281022019
-0.3201434 0.036148999 -0.078602903 4281689161
-0.32022694 0.037025612 -0.078341074 4282091132
-0.31993717 0.037618201 -0.077497773 4286490021
-0.33408952 -0.025628643 -0.13740085 4282466398
-0.33418071 -0.024671096 -0.13711488 4282400830
-0.33361861 -0.02401196 -0.13570938 4281547838
-0.33284369 -0.023455756 -0.13394207 4281547833
-0.33079624 -0.02349725 -0.13000219 4280956473
-0.32836995 -0.02373258 -0.12542322 4280956725
-0.3272205 -0.02338431 -0.12303188 4280628277
-0.32608324 -0.023039654 -0.12066597 4280628021
-0.32556301 -0.022408262 -0.1193549 4280759093
-0.32504553 -0.021780146 -0.11805078 4280759604
-0.32453081 -0.021155296 -0.1167535 4281026612
-0.32421818 -0.020435667 -0.11580136 4281028203
-0.3241058 -0.019619847 -0.1151901 4285172851
-0.32379478 -0.01890463 -0.11424316 4285956713
-0.32348487 -0.018191848 -0.11329955 4287782757
-0.32337362 -0.017381366 -0.11269305 4288246339
-0.32306528 -0.016672937 -0.11175456 4288695865
-0.32295471 -0.015865766 -0.11115094 4288832823
-0.3230412 -0.014957889 -0.11087978 4284039222
-0.32293075 -0.014152726 -0.11027744 4282134065
-0.32282057 -0.013348889 -0.10967613 4282266416
-0.32271051 -0.012546408 -0.10907578 4282332211
-0.32260069 -0.011745219 -0.10847651 4281938484
-0.32249108 -0.010945369 -0.10787825 4281677874
-0.32257724 -0.010041019 -0.10760815 4281812529
-0.32246771 -0.0092431838 -0.10701109 4281876280
-0.32255378 -0.008339474 -0.1067412 4281283902
-0.32263988 -0.0074356855 -0.10647126 4280758837
-0.32272598 -0.0065318155 -0.10620131 4280693037
-0.32242122 -0.0058467612 -0.1052811 4280627501
-0.32231218 -0.0050542704 -0.10468747 4280627501
-0.32220331 -0.0042630741 -0.10409491 4280627503
-0.32170671 -0.0036948207 -0.10286003 4280692785
-0.32140556 -0.0030184847 -0.10195097 4280758064
-0.32110545 -0.0023444062 -0.10104506 4280757808
-0.32080641 -0.0016725733 -0.10014218 4280758063
-0.32050833 -0.0010029789 -0.099242382 4280757806
-0.32040218 -0.0002229313 -0.098660402 4280692782
-0.32029626 0.00055587239 -0.098079421 4280692781
-0.32019046 0.0013333857 -0.097499371 4280561710
-0.32008484 0.0021096668 -0.096920304 4280627249
-0.32036015 0.003115122 -0.096967235 4280956983
-0.32025445 0.0038900138 -0.096388564 4281092186
-0.32033923 0.0047802692 -0.096122675 4281881945
-0.32004356 0.0054360563 -0.095234148 4281807181
-0.3203184 0.0064429133 -0.095279492 4280894540
-0.32059368 0.0074515222 -0.095324866 4280890428
-0.32125235 0.0087022968 -0.095994748 4280698172
-0.32133737 0.0095952181 -0.095728077 4280692283
-0.32161453 0.010610222 -0.09577392 4280758587
-0.32150751 0.011381272 -0.095194638 4280758322
-0.32178479 0.01239792 -0.095240019 4280627250
-0.32167765 0.013167594 -0.094661117 4280627503
-0.32137901 0.01381137 -0.093772635 4280758574
-0.3210814 0.014453007 -0.092887148 4280824622
-0.3209753 0.015217842 -0.092312664 4281025326
-0.32048917 0.015729971 -0.091125101 4281089588
-0.32019454 0.016365306 -0.090248547 4282600503
-0.31990099 0.016998585 -0.089374952 4283392052
-0.31960839 0.017629784 -0.08850424 4285090098
-0.3195045 0.018385842 -0.087938227 4286206767
-0.31940079 0.019140698 -0.087373115 4285223469
-0.3194848 0.020022549 -0.08710973 4284236849
-0.31938121 0.020775529 -0.086545773 4282860599
-0.31946513 0.021656765 -0.086282596 4281087027
-0.31954908 0.02253809 -0.086019367 4281020718
-0.31963307 0.023419475 -0.085756123 4280956974
-0.31990486 0.024432817 -0.085792542 4281550127
-0.31980097 0.025182456 -0.085229591 4283054383
-0.32007298 0.026197419 -0.08526551 4282728495
-0.31996894 0.026945706 -0.084702976 4281284399
-0.31986508 0.027692787 -0.084141351 4281283888
-0.319949 0.028573858 -0.083878197 4281154608
-0.31984523 0.029319059 -0.083317667 4281152565
-0.32011688 0.030336179 -0.083351851 4283326773
-0.32001296 0.031080037 -0.082791738 4283454267
-0.32009685 0.031960655 -0.082528725 4282730556
-0.32018074 0.032841329 -0.08226569 4282661174
-0.32026464 0.033722062 -0.082002647 4281742644
-0.32034853 0.034602862 -0.081739582 4281545780
-0.32024461 0.035342898 -0.081181206 4282070324
-0.32032844 0.036223099 -0.08091832 4282279748
-0.32022461 0.036961276 -0.080361061 4285958989
-0.31993386 0.037555929 -0.079511538 4288850311
-0.33292466 -0.025558513 -0.13729446 4281810781
-0.3325828 -0.024799827 -0.13626303 4281744702
-0.33245772 -0.023944875 -0.13560638 4281220158
-0.33168843 -0.023389898 -0.13384266 4281218873
-0.32965511 -0.023431852 -0.12991081 4280825401
-0.32745162 -0.023570277 -0.12569492 4280825397
-0.32630807 -0.023223136 -0.1233043 4280759349
-0.32537901 -0.022782719 -0.12128552 4280759093
-0.32486066 -0.022151975 -0.11997282 4280955701
-0.32434502 -0.021524498 -0.11866707 4280959540
-0.32403186 -0.020802336 -0.11770909 4286467124
-0.32371983 -0.020082612 -0.1167545 4287267438
-0.3234089 -0.019365378 -0.11580318 4288651129
-0.32329732 -0.018551087 -0.11519246 4288898158
-0.32318595 -0.017738163 -0.1145827 4284177004
-0.32287708 -0.017027294 -0.1136385 4282924611
-0.32276633 -0.016217683 -0.11303169 4282399288
-0.32265586 -0.015409425 -0.11242594 4282270004
-0.32254556 -0.014602483 -0.11182124 4283445042
-0.3226321 -0.013693698 -0.11154984 4283980079
-0.3225219 -0.01288883 -0.11094634 4286269742
-0.32260838 -0.011980698 -0.11067513 4287323699
-0.32249832 -0.011177871 -0.11007293 4286925621
-0.3223885 -0.010376365 -0.10947173 4286667058
-0.32247484 -0.0094695827 -0.10920095 4286079024
-0.3225612 -0.0085627548 -0.10893013 4285484602
-0.32264757 -0.0076558441 -0.10865928 4283449153
-0.32273391 -0.0067488714 -0.10838844 4281676598
-0.32282028 -0.0058418191 -0.10811756 4281545003
-0.32271028 -0.0050452217 -0.10751839 4281412908
-0.32240474 -0.0043608444 -0.1065935 4281019693
-0.3224909 -0.003455932 -0.10632326 4280627759
-0.32199141 -0.0028872497 -0.10507728 4280692785
-0.32188269 -0.0020970632 -0.10448378 4280823344
-0.3215802 -0.0014210354 -0.10356884 4280757295
-0.32108563 -0.00086033222 -0.10233632 4280692271
-0.32097831 -7.5744909e-05 -0.10174818 4280692526
-0.3208712 0.00070757105 -0.10116108 4280627246
-0.32076427 0.0014896183 -0.10057496 4280823853
-0.32065749 0.0022703959 -0.099989787 4281349422
-0.32055095 0.0030499303 -0.099405639 4281614642
-0.32044461 0.0038281854 -0.098822467 4282990396
-0.32052976 0.0047222339 -0.098555468 4283262322
-0.32042348 0.0054985387 -0.097973436 4285821040
-0.32050857 0.0063919593 -0.097706623 4285553760
-0.32078519 0.0074048699 -0.097754337 4284699999
-0.32087034 0.0082992176 -0.097487248 4284504136
-0.3211475 0.0093147531 -0.097534738 4284503368
-0.32142514 0.010332086 -0.097582281 4284239687
-0.32151046 0.011228184 -0.097314671 4283512391
-0.32159582 0.012124364 -0.097047038 4283320631
-0.32168114 0.013020601 -0.096779391 4282922549
-0.32157382 0.013791767 -0.096197754 4282726449
-0.32146665 0.014561664 -0.095617071 4281217584
-0.32116783 0.015204259 -0.09472537 4280824111
-0.32125291 0.016097734 -0.094458558 4280954670
-0.32095498 0.016736757 -0.093570359 4280955438
-0.32065806 0.017373696 -0.092685178 4282003758
-0.32036215 0.018008513 -0.09180297 4282664493
-0.32025692 0.018769396 -0.091230325 4283778349
-0.32015181 0.019528998 -0.090658605 4284828462
-0.31985778 0.020158254 -0.089782752 4284238638
-0.31994218 0.021044636 -0.089518055 4283515182
-0.31983766 0.021800611 -0.088949203 4282793775
-0.31973332 0.022555418 -0.088381305 4281479982
-0.3198176 0.023440491 -0.088116996 4281284652
-0.31990191 0.024325658 -0.087852642 4281089327
-0.32017508 0.025344128 -0.08789099 4281487413
-0.32007048 0.026096204 -0.087323911 4282932535
-0.32034382 0.027116293 -0.087361753 4282730556
-0.3202391 0.027867014 -0.086795084 4281362749
-0.32032344 0.028752537 -0.086530626 4281284929
-0.32059699 0.029775094 -0.086567752 4281164352
-0.32049209 0.030523773 -0.086001672 4281152573
-0.32057643 0.031409487 -0.085737176 4283260220
-0.32066077 0.032295302 -0.085472628 4283388472
-0.32074514 0.033181153 -0.085208096 4282726712
-0.32101908 0.034207836 -0.085243978 4282594357
-0.32091388 0.03495311 -0.084678911 4281611573
-0.32099822 0.035839174 -0.084414311 4281283911
-0.32089308 0.036582544 -0.083850324 4282148942
-0.32041055 0.037038989 -0.082691699 4282617725
-0.3203063 0.037779037 -0.08213108 4287146395
-0.33197942 -0.025390776 -0.13756196 4281679698
-0.33185479 -0.02453451 -0.13690358 4281679164
-0.33130103 -0.023878023 -0.1355038 4281153852
-0.33053732 -0.023324223 -0.1337437 4281153079
-0.32914686 -0.023071332 -0.13090514 4280824887
-0.32694641 -0.023213401 -0.12667567 4280825396
-0.3258045 -0.022867799 -0.12427766 4280759859
-0.32507935 -0.022331081 -0.12260113 4280759091
-0.32435936 -0.021798082 -0.12093644 4281020979
-0.32404503 -0.0210729 -0.1199711 4281025597
-0.32353199 -0.020448716 -0.11866647 4287459390
-0.32322052 -0.019728931 -0.11770932 4288385621
-0.32310879 -0.018912224 -0.11709534 4289289050
-0.32299724 -0.018096851 -0.11648236 4289417023
-0.32288593 -0.017282845 -0.11587048 4283381560
-0.3227748 -0.016470179 -0.11525965 4281674041
-0.32266387 -0.0156589 -0.11464982 4281029177
-0.32255313 -0.014848941 -0.11404107 4280763506
-0.32244262 -0.014040336 -0.11343339 4283394952
-0.32233229 -0.013233078 -0.1128267 4284382860
-0.32222214 -0.012427133 -0.11222108 4287202190
-0.32230878 -0.011517379 -0.11194941 4288710026
-0.32239538 -0.010607537 -0.11167774 4288314763
-0.32248199 -0.0096976133 -0.11140604 4288052872
-0.3225686 -0.008787632 -0.11113431 4287267463
-0.32265523 -0.0078775752 -0.11086255 4286670698
-0.32274187 -0.0069674593 -0.11059079 4284178004
-0.3228285 -0.0060572564 -0.11031901 4282011225
-0.32291517 -0.005146977 -0.11004718 4281874014
-0.32280469 -0.0043481444 -0.10944434 4281676105
-0.32269439 -0.0035506382 -0.10884246 4281214768
-0.32258433 -0.0027544587 -0.10824165 4280626222
-0.32247445 -0.0019595688 -0.10764188 4280758060
-0.32216904 -0.0012796951 -0.10671584 4280888619
-0.32205981 -0.00048801501 -0.10611891 4280822056
-0.32175595 0.00018768371 -0.10519789 4280625449
-0.32145309 0.00086111046 -0.10428004 4280626988
-0.32134497 0.0016477336 -0.10368771 4280627244
-0.32123709 0.0024330919 -0.10309641 4280889647
-0.32112932 0.0032171221 -0.10250603 4281809458
-0.3210218 0.0039999085 -0.10191672 4282208063
-0.32091448 0.0047814241 -0.10132837 4284370500
-0.32080728 0.0055616405 -0.10074099 4284775013
-0.32089278 0.0064596762 -0.10047282 4288903269
-0.32078579 0.007237928 -0.099886678 4288840296
-0.32106376 0.0082559464 -0.099936455 4288045672
-0.32114926 0.0091542033 -0.099668227 4288052312
-0.32123479 0.010052511 -0.099399976 4288238424
-0.32132033 0.010950903 -0.099131711 4288246605
-0.32140583 0.011849357 -0.098863445 4286663500
-0.32149136 0.012747883 -0.098595127 4286540611
-0.32157689 0.013646496 -0.098326795 4285942850
-0.32146937 0.014419172 -0.097742327 4285810244
-0.32155484 0.015317127 -0.097474203 4282138179
-0.32125479 0.015960699 -0.096576288 4280890166
-0.32134014 0.016857268 -0.096308559 4280823345
-0.32104105 0.01749726 -0.095414199 4280757551
-0.32093441 0.018263647 -0.094834574 4280757806
-0.32063678 0.018899756 -0.093944959 4280758062
-0.32034013 0.019533705 -0.09305831 4280693549
-0.3202346 0.020295328 -0.092483133 4280693805
-0.32012925 0.021055717 -0.09190888 4280759598
-0.32002407 0.021814907 -0.09133561 4280890927
-0.31991914 0.022572866 -0.090763316 4282070576
-0.31981429 0.023329599 -0.090191901 4283778351
-0.31989884 0.024217736 -0.089926697 4283257901
-0.32017297 0.02523957 -0.089967027 4282005295
-0.3204475 0.026263203 -0.090007327 4281876021
-0.32034224 0.027017729 -0.089436062 4281294134
-0.32061693 0.028043007 -0.089475878 4281483836
-0.32070166 0.028933037 -0.089210108 4282281532
-0.32078639 0.029823117 -0.088944331 4282404673
-0.32068086 0.030574914 -0.088373862 4284114241
-0.32076553 0.031464368 -0.088108271 4284044093
-0.32123137 0.032633889 -0.088451579 4282932797
-0.32131618 0.033525027 -0.088185489 4282859576
-0.32140103 0.03441621 -0.087919384 4282135607
-0.3212949 0.03516509 -0.087349176 4281941045
-0.32099852 0.035770085 -0.086477108 4282726709
-0.32089299 0.036516052 -0.08590956 4282935883
-0.32078767 0.037260804 -0.085342899 4286354262
-0.32068253 0.03800441 -0.084777229 4288130449
-0.33103591 -0.025223315 -0.13782908 4281417551
-0.33069807 -0.024466528 -0.13679858 4281416507
-0.33036152 -0.023712449 -0.13577183 4281088059
-0.32981384 -0.023060463 -0.13438027 4281087287
-0.3288478 -0.022610931 -0.1322656 4280955703
-0.3266463 -0.022757728 -0.12801513 4280956211
-0.32550395 -0.022413909 -0.1256057 4280825651
-0.32477853 -0.02187779 -0.12392145 4280824883
-0.32405829 -0.021345429 -0.12224908 4281086259
-0.32374394 -0.020619709 -0.12127979 4281088832
-0.32343072 -0.01989649 -0.12031383 4286478657
-0.3231186 -0.019175742 -0.11935125 4287261519
-0.32300663 -0.018357301 -0.11873419 4284301393
-0.32287052 -0.015807915 -0.11722958 4281556534
-0.32275909 -0.014994284 -0.11661594 4286082361
-0.32264787 -0.014182038 -0.11600331 4287660935
-0.32253686 -0.013371124 -0.11539176 4288452517
-0.32242602 -0.012561535 -0.1147813 4288782251
-0.32231539 -0.011753332 -0.11417182 4289634734
-0.32240227 -0.010840323 -0.11389922 4290027949
-0.32229179 -0.010034185 -0.11329103 4289894572
-0.32218152 -0.0092293378 -0.11268389 4289762730
-0.32226825 -0.0083177313 -0.11241172 4289238185
-0.322355 -0.0074060406 -0.1121395 4288708993
-0.32263911 -0.0063843443 -0.11220128 4287265117
-0.32272595 -0.0054716938 -0.11192878 4285816681
-0.32301062 -0.0044472623 -0.11199041 4284366453
-0.32289964 -0.0036461905 -0.11138374 4282795096
-0.32278889 -0.002846454 -0.11077813 4283120178
-0.3226783 -0.0020480505 -0.11017352 4283641902
-0.32256797 -0.0012509794 -0.10956994 4282661417
-0.32245779 -0.00045517631 -0.10896743 4281347111
-0.32234779 0.00033925282 -0.10836591 4281148964
-0.32204208 0.0010165354 -0.10743703 4280558630
-0.32173741 0.0016915047 -0.10651131 4280560682
-0.32162857 0.0024808608 -0.1059145 4280626987
-0.32151991 0.0032689385 -0.10531864 4280758832
-0.32121724 0.0039378866 -0.10439979 4281285173
-0.32130319 0.0048412117 -0.10413009 4281615947
-0.3211951 0.0056253932 -0.10353725 4283389773
-0.32108724 0.0064083254 -0.10294547 4283918679
-0.32117304 0.0073102834 -0.10267618 4288379737
-0.3212589 0.0082123131 -0.10240684 4288377969
-0.32115111 0.008992536 -0.10181651 4287197297
-0.32123688 0.0098939594 -0.10154738 4287261293
-0.32132265 0.010795406 -0.10127822 4287188845
-0.32121485 0.011572953 -0.10068923 4287262806
-0.3213006 0.012473783 -0.10042025 4287063380
-0.32138631 0.013374678 -0.10015128 4287000919
-0.32147205 0.01427568 -0.099882267 4286605656
-0.32155779 0.015176704 -0.099613242 4286536552
-0.32144997 0.015950173 -0.099026121 4283717229
-0.32134232 0.016722377 -0.098440021 4282795591
-0.32142794 0.017622093 -0.098171376 4281873208
-0.32112762 0.018262995 -0.09727072 4281478962
-0.32102054 0.019031432 -0.096687548 4281020206
-0.32072169 0.019668432 -0.095791698 4280758062
-0.32061529 0.02043383 -0.095211253 4280758318
-0.32031789 0.021066926 -0.094320148 4280693037
-0.32002154 0.021697925 -0.093432121 4280824108
-0.32010648 0.022590457 -0.093165629 4280889904
-0.31981099 0.023217952 -0.092281021 4282077750
-0.31989577 0.024109103 -0.092014953 4283921974
-0.31998059 0.025000326 -0.091748856 4283257398
-0.32025567 0.026026351 -0.091790825 4282003253
-0.32053125 0.027054189 -0.091832861 4281873201
-0.32061619 0.027947158 -0.091566265 4281283889
-0.32089233 0.02897766 -0.091608122 4281416241
-0.32097739 0.029871523 -0.091341235 4282335282
-0.32106245 0.030765463 -0.091074325 4282404925
-0.32153121 0.031939693 -0.09142454 4284374845
-0.32142434 0.032694295 -0.090848505 4284438594
-0.32150951 0.033589218 -0.090581298 4282930242
-0.32159466 0.034484196 -0.090314083 4282727244
-0.32167983 0.035379257 -0.090046838 4281945421
-0.32176501 0.03627437 -0.089779601 4281747296
-0.3214663 0.036880635 -0.088898942 4283002980
-0.32116863 0.037484925 -0.088021263 4283602816
-0.32087195 0.038087193 -0.087146543 4287999119
-0.33009401 -0.025056146 -0.13809572 4281351769
-0.3297582 -0.024300314 -0.13706571 4281350972
-0.32942361 -0.023547158 -0.13603942 4281022524
-0.328879 -0.022896163 -0.13464835 4281021749
-0.32812747 -0.022348279 -0.13289933 4281021749
-0.32613888 -0.022399113 -0.12900074 4281021752
-0.32520226 -0.021958381 -0.12693852 4280825656
-0.32447657 -0.0214229 -0.1252465 4280824886
-0.3237561 -0.020891124 -0.12356654 4281152566
-0.32344171 -0.020164885 -0.1225931 4281153592
-0.32312843 -0.019441133 -0.12162319 4286074936
-0.32281628 -0.018719848 -0.1206566 4286796862
-0.32285491 -0.01432497 -0.11859594 4288451188
-0.32274321 -0.013510375 -0.11797945 4290750896
-0.32263166 -0.012697136 -0.117364 4290817224
-0.32252035 -0.011885266 -0.11674964 4290817475
-0.32240924 -0.011074761 -0.11613636 4290746816
-0.32229832 -0.010265588 -0.11552407 4290749095
-0.3221876 -0.009457767 -0.11491286 4290682008
-0.32227463 -0.0085429735 -0.11463977 4290615708
-0.32216406 -0.0077372007 -0.11402984 4290222496
-0.32225102 -0.0068230792 -0.11375692 4289956751
-0.32233799 -0.005908838 -0.113484 4289036928
-0.32242498 -0.0049945507 -0.11321104 4288046210
