# .PCD v0.7 - Point Cloud Data file format
VERSION 0.7
FIELDS x y z rgba
SIZE 4 4 4 4
TYPE F F F U
COUNT 1 1 1 1
WIDTH 997
HEIGHT 1
VIEWPOINT 0 0 0 1 0 0 0
POINTS 997
DATA ascii
-0.35481426 0.019406395 -0.032311406 4291063951
-0.35447168 0.020260146 -0.032373473 4290683985
-0.35432532 0.021045916 -0.032676242 4287054671
-0.35398337 0.021897824 -0.032738026 4286731581
-0.35364196 0.022748435 -0.032799669 4282203453
-0.35330105 0.023597764 -0.032861289 4282136115
-0.35276666 0.024509622 -0.032682531 4280890931
-0.35223392 0.02541868 -0.032504391 4280889900
-0.35170287 0.02632495 -0.032326825 4280758060
-0.35117346 0.027228439 -0.032149822 4280758570
-0.35045481 0.028189633 -0.031735566 4280496426
-0.3501195 0.029027138 -0.031797543 4280496170
-0.34959498 0.029922409 -0.03162225 4280495914
-0.34907207 0.030814916 -0.031447522 4280496427
-0.34873912 0.031647302 -0.03150956 4280496427
-0.34840667 0.03247847 -0.031571534 4280496426
-0.3480747 0.033308383 -0.031633381 4280561450
-0.34774327 0.034137081 -0.03169518 4280561451
-0.34759933 0.034909781 -0.031992946 4280430123
-0.34745541 0.035682537 -0.032290708 4280430378
-0.3471247 0.036508918 -0.032352045 4280431402
-0.34698084 0.03728117 -0.032649618 4280434001
-0.34665069 0.038105808 -0.032710612 4282660689
-0.34632105 0.038929209 -0.032771584 4282669414
-0.34580669 0.039802287 -0.032596543 4285435750
-0.34566325 0.040572394 -0.032893293 4285434266
-0.34515071 0.041441694 -0.032718383 4285822618
-0.34482342 0.042259581 -0.032779168 4285817998
-0.34468028 0.043028079 -0.033075295 4286286734
-0.34490502 0.043701202 -0.033843774 4286265172
-0.34531531 0.044329047 -0.0348523 4281810260
-0.34609947 0.044865627 -0.036344685 4281813330
-0.34916255 0.044837713 -0.040780455 4280693074
-0.35191652 0.044905942 -0.044829857 4280693037
-0.35314491 0.045364462 -0.046916977 4280890669
-0.35418746 0.045876343 -0.048768803 4280891961
-0.35524008 0.046393212 -0.050638612 4281744698
-0.35569486 0.047057945 -0.051736128 4281748803
-0.35574648 0.047819916 -0.0523111 4284044356
-0.3557981 0.048583183 -0.052887052 4284116319
-0.35605279 0.049301963 -0.053729042 4288511327
-0.3546423 0.016735787 -0.031917151 4288642229
-0.35449585 0.017521964 -0.032220118 4283605682
-0.35415354 0.018377127 -0.032282226 4283452306
-0.3542029 0.019094547 -0.032826118 4282015371
-0.35386077 0.019948559 -0.032887802 4281941830
-0.3535192 0.020801304 -0.03294941 4281152837
-0.35317808 0.021652736 -0.033010907 4281152561
-0.35264349 0.022568259 -0.032831822 4280693553
-0.35211053 0.023481008 -0.032653261 4280693291
-0.35157922 0.02439091 -0.032475289 4280496683
-0.35104954 0.025298038 -0.032297909 4280495658
-0.35052156 0.02620241 -0.032121133 4280495914
-0.349805 0.027165219 -0.031707264 4280496170
-0.34909174 0.028123645 -0.031295359 4280496426
-0.34875849 0.028958615 -0.031357497 4280495914
-0.34823769 0.029851222 -0.031183494 4280495914
-0.34790587 0.030683031 -0.031245625 4280495403
-0.34738758 0.031571001 -0.031072231 4280365355
-0.34724379 0.032342963 -0.031369705 4280364330
-0.34691343 0.033171114 -0.031431612 4280627242
-0.34676972 0.033942573 -0.031728894 4280698667
-0.34662598 0.034714103 -0.032026205 4282134059
-0.34648225 0.035485674 -0.03232355 4282135082
-0.34615275 0.036310967 -0.032384787 4280693546
-0.34600911 0.037082065 -0.032681935 4280703571
-0.34568021 0.037905585 -0.032742895 4280825683
-0.34535179 0.038727909 -0.032803763 4280838761
-0.34483969 0.039599966 -0.03262898 4286354281
-0.34451264 0.040419187 -0.032689821 4286352030
-0.34418613 0.041237224 -0.032750607 4286216350
-0.34367734 0.042102922 -0.032576494 4286229139
-0.3433522 0.042917896 -0.032637287 4288384147
-0.34357417 0.043588776 -0.033402752 4288375382
-0.34398007 0.044214457 -0.034407206 4281023574
-0.34494147 0.044701807 -0.036132313 4281031764
-0.34817183 0.0446239 -0.040800888 4280627540
-0.35090965 0.044689514 -0.044844154 4280627245
-0.35213044 0.04514613 -0.046928067 4280497453
-0.3531664 0.045656145 -0.048777029 4280432442
-0.35421234 0.046171136 -0.050643876 4281482554
-0.3550666 0.046738975 -0.052265383 4281485635
-0.35531968 0.047453519 -0.053105008 4283519811
-0.35557359 0.048170444 -0.053947344 4283654237
-0.35582829 0.04888976 -0.054792468 4285823326
-0.35608384 0.049611464 -0.055640392 4285897389
-0.35398173 0.01570864 -0.03188825 4288830068
-0.35383537 0.01649419 -0.032190993 4288046932
-0.35368901 0.017279811 -0.032493763 4282400849
-0.35334754 0.018134473 -0.032555643 4282267447
-0.35320127 0.018919596 -0.032858226 4281087542
-0.35286042 0.019772423 -0.032919783 4281021743
-0.35252011 0.020623975 -0.032981303 4280561967
-0.35198691 0.021540374 -0.032802362 4280561965
-0.35145539 0.022453953 -0.032624006 4280561965
-0.35092551 0.023364734 -0.032446261 4280562217
-0.35039729 0.024272723 -0.032269079 4280430121
-0.34987065 0.025177957 -0.032092452 4280430118
-0.34915614 0.026142405 -0.031678978 4280495655
-0.34863353 0.027041303 -0.03150405 4280496173
-0.34792462 0.027997795 -0.03109361 4280495661
-0.34759304 0.02883097 -0.031155782 4280495913
-0.34726197 0.029662885 -0.031217918 4280495913
-0.3469314 0.030493582 -0.031280007 4280495405
-0.34641534 0.031380523 -0.031106813 4280366894
-0.34627172 0.032151297 -0.031403869 4280364879
-0.34612811 0.032922152 -0.031700939 4280643408
-0.34598446 0.033693045 -0.031998042 4280699516
-0.34584084 0.034463994 -0.032295149 4282282873
-0.34569716 0.035235003 -0.032592297 4282200626
-0.34518379 0.036113594 -0.032417499 4280693298
-0.34522495 0.036830403 -0.032950278 4280704098
-0.34471262 0.037705958 -0.032775074 4280694626
-0.34438545 0.038527206 -0.032835882 4280707956
-0.34405872 0.039347213 -0.032896586 4286414708
-0.34354976 0.040216397 -0.032722104 4286417544
-0.34322444 0.041033342 -0.032782797 4286220680
-0.34271792 0.041898064 -0.032608945 4286230453
-0.34221289 0.042760186 -0.032435622 4288526005
-0.34225136 0.043477029 -0.032964464 4288507230
-0.34283489 0.044053223 -0.034200773 4280956254
-0.34378874 0.044538714 -0.035920963 4280966495
-0.34661841 0.044554461 -0.040085424 4280627295
-0.34990588 0.04447373 -0.044858459 4280627243
-0.35111913 0.044928428 -0.046939194 4280431147
-0.35234594 0.045388274 -0.049043238 4280432443
-0.35338706 0.0459016 -0.050909888 4281481788
-0.35423729 0.046467904 -0.052531201 4281485630
-0.35509437 0.047038879 -0.054165669 4283518526
-0.35534829 0.047756325 -0.055011153 4283588435
-0.35560304 0.048476145 -0.055859439 4285556564
-0.35585853 0.0491984 -0.056710459 4285633909
-0.35434809 0.012107621 -0.031672116 4285900465
-0.35400558 0.01296742 -0.031734593 4285357982
-0.3538591 0.013753436 -0.032037534 4282678168
-0.35351726 0.014611369 -0.032099765 4282534512
-0.35317594 0.015468023 -0.032161936 4281681771
-0.35283509 0.016323354 -0.032223996 4281546822
-0.35268894 0.017107755 -0.032526314 4280824387
-0.35254276 0.017892204 -0.032828651 4280758826
-0.35239655 0.018676724 -0.033131022 4280692778
-0.35205659 0.019529102 -0.033192378 4280693036
-0.35152411 0.020447183 -0.033013117 4280496172
-0.35099328 0.021362456 -0.032834463 4280495917
-0.35046411 0.02227491 -0.032656394 4280365357
-0.34974602 0.023248998 -0.032240301 4280364585
-0.34922081 0.024155086 -0.032063875 4280364329
-0.34850833 0.025121128 -0.031650804 4280365094
-0.34798706 0.026020892 -0.03147601 4280364582
-0.34746745 0.026917934 -0.031301823 4280365101
-0.34694937 0.027812256 -0.031128144 4280561453
-0.34661907 0.028644279 -0.031190282 4280631593
-0.34610346 0.02953398 -0.031017229 4282528041
-0.34577453 0.030362871 -0.03107935 4282612013
-0.34544608 0.031190572 -0.03114135 4284037678
-0.34530267 0.031960197 -0.031437982 4284181331
-0.34515923 0.032729868 -0.031734634 4287133268
-0.34501579 0.033499621 -0.032031298 4287062145
-0.34487233 0.034269389 -0.032327984 4285888639
-0.34472886 0.035039246 -0.03262471 4285739826
-0.34440142 0.035863012 -0.032685604 4280431154
-0.34444192 0.036579091 -0.03321819 4280441699
-0.3439312 0.037454411 -0.033042792 4281022307
-0.34360483 0.038275208 -0.033103343 4281038453
-0.34309652 0.039146006 -0.032928552 4285562485
-0.34277153 0.039963759 -0.032989115 4285562247
-0.34226567 0.040830061 -0.032814942 4285827719
-0.34176132 0.041693803 -0.032641325 4285831863
-0.34125853 0.042554937 -0.032468244 4288068023
-0.34111625 0.043318279 -0.03276246 4288038238
-0.34169495 0.043892678 -0.033995342 4280693854
-0.34264129 0.044376351 -0.035710633 4280703584
-0.34601173 0.044246249 -0.040596444 4280692832
-0.34871307 0.044307202 -0.044621386 4280692781
-0.35011098 0.0447114 -0.046950288 4280496683
-0.35133016 0.045169342 -0.04905105 4280501051
-0.35236469 0.045680787 -0.050914798 4281481788
-0.35360941 0.046149135 -0.053060126 4281483326
-0.35466594 0.046670884 -0.054963097 4283059774
-0.35491931 0.047388356 -0.055810582 4283130194
-0.35517353 0.048108179 -0.056660872 4284638547
-0.35583681 0.048737362 -0.058054693 4284707951
-0.35402951 0.0102222 -0.031580776 4289357427
-0.35407886 0.010933896 -0.032124873 4288642641
-0.35354075 0.011869328 -0.031946253 4284827213
-0.35319912 0.012728654 -0.032008559 4284236859
-0.35285807 0.013586682 -0.032070782 4281023546
-0.35251749 0.014443421 -0.032132883 4280956469
-0.35217744 0.015298867 -0.032194965 4280628276
-0.35183796 0.016153025 -0.032256961 4280627759
-0.35169199 0.016936209 -0.032558829 4280561710
-0.35154599 0.017719453 -0.032860741 4280562221
-0.35140002 0.018502755 -0.033162661 4280627244
-0.35106128 0.019353984 -0.033223886 4280627499
-0.35053119 0.020270912 -0.033044897 4280495659
-0.35000274 0.02118504 -0.032866504 4280495657
-0.34947589 0.022096388 -0.032688688 4280364841
-0.34876117 0.023069406 -0.032273207 4280364584
-0.34823826 0.023974381 -0.032097012 4280364584
-0.34752917 0.024939381 -0.031684551 4280365355
-0.34701025 0.025838034 -0.031510051 4280368173
-0.34649286 0.026734015 -0.031336069 4280366143
-0.34597707 0.027627248 -0.031162646 4280575812
-0.34546292 0.028517788 -0.030989829 4280632453
-0.34513468 0.02934682 -0.0310519 4282738309
-0.34480694 0.030174598 -0.031113897 4282811270
-0.34447974 0.031001166 -0.031175854 4284452740
-0.34433651 0.031769652 -0.03147205 4284575816
-0.34419328 0.032538157 -0.031768266 4287782473
-0.34405002 0.033306729 -0.032064512 4287717722
-0.34390676 0.034075368 -0.032360788 4286266713
-0.3437635 0.034844033 -0.032657072 4286067501
-0.34343725 0.035666745 -0.032717884 4280430125
-0.34347695 0.036381587 -0.03324971 4280441692
-0.34296843 0.037255879 -0.033074535 4281022556
-0.34264326 0.0380756 -0.033135027 4281038673
-0.34213722 0.038945407 -0.032960489 4285484369
-0.34181342 0.039762046 -0.033020958 4285496449
-0.34112969 0.040677164 -0.032613091 4285748609
-0.34062821 0.041539162 -0.032440186 4285765735
-0.34030703 0.042350274 -0.032500852 4287994983
-0.33998629 0.043160237 -0.032561414 4287971666
-0.34056017 0.043732841 -0.03379089 4280701010
-0.34149909 0.044214677 -0.035501305 4280703552
-0.34391665 0.044321906 -0.039155487 4280692288
-0.34733537 0.04418996 -0.044135213 4280692781
-0.34891286 0.04454365 -0.046707381 4280495917
-0.35012242 0.04499957 -0.048801798 4280501308
-0.35114864 0.045509022 -0.050659884 4281482301
-0.35298148 0.045830332 -0.053589098 4281483066
-0.35403493 0.046350569 -0.055494681 4282993466
-0.35448965 0.047019724 -0.056611385 4283064662
-0.35494652 0.047692247 -0.057733595 4284505943
-0.35561007 0.048321117 -0.059133191 4284575844
-0.35586703 0.049047355 -0.05999459 4287855204
-0.35538304 0.0062145246 -0.032572381 4286226095
-0.35444626 0.0073175365 -0.031908683 4285423770
-0.35390675 0.0082599521 -0.031730067 4283398288
-0.35356432 0.0091232751 -0.031792596 4283256428
-0.3530274 0.010060734 -0.031614631 4282402659
-0.35307589 0.010771226 -0.032157928 4282203966
-0.35254019 0.011705435 -0.03197962 4281414459
-0.35219988 0.012563595 -0.032041792 4281152553
-0.35186008 0.013420411 -0.032103922 4280496425
-0.35152084 0.014275962 -0.032165978 4280496682
-0.35118204 0.015130225 -0.032227911 4280496426
-0.35084385 0.015983215 -0.032289818 4280496683
-0.35069805 0.016765198 -0.032591265 4280364843
-0.35055229 0.017547239 -0.032892715 4280364845
-0.35040647 0.018329319 -0.033194195 4280299565
-0.35006908 0.019179359 -0.03325535 4280299307
-0.34954134 0.020095184 -0.033076644 4280364587
-0.34901518 0.021008167 -0.032898512 4280364328
-0.34849069 0.02191839 -0.03272092 4280233768
-0.34796783 0.022825839 -0.032543961 4280233000
-0.34725878 0.023794195 -0.032130156 4280299304
-0.34673983 0.024695322 -0.031954795 4280629036
-0.34603634 0.02565575 -0.031543981 4285808941
-0.34533614 0.026611753 -0.031135092 4285819713
-0.34500778 0.027442805 -0.031197125 4285427526
-0.3444958 0.028332286 -0.031024486 4285427087
-0.34416881 0.029160181 -0.031086514 4284443279
-0.3438423 0.029986868 -0.031148415 4284435599
-0.34351629 0.030812329 -0.031210251 4283405965
-0.34337327 0.031579643 -0.031506028 4283385671
-0.34323022 0.032347023 -0.031801838 4283849287
-0.34308717 0.03311443 -0.032097653 4283779414
-0.34294409 0.033881903 -0.032393496 4280891221
-0.34298334 0.034594748 -0.032924637 4280888876
-0.34247598 0.035471022 -0.032750115 4280299309
-0.34251481 0.036184657 -0.033281155 4280307035
-0.34200859 0.037057929 -0.033106238 4281481307
-0.34168464 0.037876584 -0.033166647 4281481293
-0.34118074 0.038745373 -0.032992333 4280961101
-0.34067845 0.039611541 -0.03281863 4280958336
-0.34017763 0.040475149 -0.032645438 4281749632
-0.3398568 0.04128705 -0.03270594 4281752927
-0.33935833 0.042146247 -0.032533363 4283603295
-0.33903882 0.042955104 -0.032593876 4283581521
-0.33978748 0.043478753 -0.03405609 4280636241
-0.34054196 0.044006437 -0.035529558 4280627773
-0.34221223 0.044301763 -0.038212888 4280364605
-0.34615505 0.044024952 -0.043901246 4280365614
-0.34733787 0.04447367 -0.045960315 4280364845
-0.34834102 0.044975724 -0.047787186 4280367421
-0.34915954 0.045530688 -0.049374159 4281416765
-0.35155877 0.045705631 -0.053063273 4281483834
-0.35280189 0.046175361 -0.055226054 4282731322
-0.35325244 0.046842489 -0.056339432 4282733654
-0.3537052 0.04751296 -0.057458263 4284440151
-0.35436302 0.048139732 -0.058853589 4284508515
-0.35502517 0.048770696 -0.060258098 4285953123
-0.35548636 0.049452119 -0.06139674 4286025632
-0.35506272 0.0043189987 -0.032480575 4290669165
-0.35471776 0.0051893485 -0.032542735 4289166925
-0.35398003 0.006216059 -0.032120969 4284631627
-0.35344121 0.0071601928 -0.031942051 4283973444
-0.35270935 0.0081783161 -0.031523425 4281548866
-0.35236865 0.0090396795 -0.031585991 4281415479
-0.35202846 0.0098997736 -0.031648446 4280825141
-0.35188225 0.010683849 -0.031950716 4280758830
-0.35154274 0.01154207 -0.032012887 4280627757
-0.35120371 0.012398981 -0.032075007 4280627755
-0.35086516 0.013254633 -0.032137003 4280431148
-0.3505272 0.014109012 -0.032198966 4280431917
-0.35038143 0.014890915 -0.032500397 4280502318
-0.34985277 0.015813895 -0.032322634 4280498741
-0.34989837 0.016524833 -0.03286327 4280379701
-0.3495616 0.017375525 -0.032924648 4280364595
-0.34941602 0.018156428 -0.033225682 4280232754
-0.3492704 0.018937368 -0.033526745 4280233769
-0.34874427 0.019852867 -0.033347778 4280364073
-0.34821981 0.020765554 -0.033169411 4280364325
-0.34769693 0.021675481 -0.032991584 4280233254
-0.34698793 0.022647241 -0.032576405 4280232743
-0.34646896 0.023550838 -0.032400228 4280299048
-0.34576556 0.024514599 -0.031988092 4280695604
-0.34525052 0.0254119 -0.031813588 4286609975
-0.34455264 0.026367769 -0.031404417 4286608225
-0.34422505 0.027198384 -0.031466193 4286147937
-0.34371468 0.028087581 -0.031293347 4286083172
-0.34357145 0.028855924 -0.031589542 4284628835
-0.34306282 0.029741326 -0.031416804 4284564545
-0.34273762 0.030566376 -0.031478431 4283261252
-0.34241292 0.031390212 -0.031539969 4283253396
-0.34227008 0.03215643 -0.031835344 4283452308
-0.34212723 0.032922696 -0.032130741 4283385396
-0.34198433 0.033689 -0.032426171 4280365108
-0.34202275 0.034400634 -0.032956559 4280364584
-0.34151763 0.03527588 -0.032782275 4280299049
-0.34137484 0.036041792 -0.033077538 4280306753
-0.34105161 0.036860567 -0.033137918 4281555265
-0.34054908 0.037730213 -0.032963794 4281545027
-0.34004807 0.038597245 -0.03279024 4280504131
-0.33954862 0.039461698 -0.032617263 4280497756
-0.33922845 0.040273715 -0.032677736 4281353564
-0.33873135 0.041133761 -0.032505378 4281358131
-0.33841249 0.041942775 -0.03256584 4283119923
-0.33809415 0.042750601 -0.032626249 4283122732
-0.33848307 0.04336784 -0.033618368 4280627756
-0.33923021 0.043893516 -0.035085704 4280626734
-0.34052351 0.044281773 -0.037279047 4280364334
-0.34441873 0.044005957 -0.042924672 4280365610
-0.34558639 0.044452462 -0.044968683 4280364586
-0.34676698 0.044903986 -0.047035363 4280367154
-0.34796065 0.04536058 -0.049125042 4281417266
-0.34994903 0.045629971 -0.052279517 4281483838
-0.35117802 0.046097398 -0.054429166 4282664766
-0.35162276 0.046761684 -0.055536125 4282733389
-0.35226956 0.047381919 -0.056916188 4284441677
-0.353122 0.047959216 -0.058575373 4284508517
-0.35418463 0.048494436 -0.060521193 4285687910
-0.3544392 0.049221061 -0.06138495 4285761647
-0.35603023 0.00042502698 -0.032994241 4287538354
-0.35568312 0.0013017319 -0.033056166 4286280615
-0.35513821 0.0022593855 -0.032874569 4283924117
-0.35439771 0.0032953611 -0.032450996 4283715686
-0.35385695 0.0042462051 -0.03227108 4283253849
-0.35351375 0.0051145633 -0.032333285 4282860592
-0.35278058 0.0061390451 -0.031913083 4281479727
-0.35224488 0.0070810877 -0.031734921 4281348652
-0.35171089 0.0080202101 -0.031557363 4280955180
-0.35137147 0.0088803852 -0.031619828 4280890155
-0.35103261 0.0097392555 -0.031682227 4280824363
-0.35107929 0.010447285 -0.032223925 4280890666
-0.35054833 0.011379159 -0.032046098 4281153066
-0.35021058 0.012234891 -0.032108128 4281615916
-0.34987333 0.013089367 -0.032170054 4283971116
-0.34953663 0.013942554 -0.032231897 4283648557
-0.34939104 0.014723247 -0.032532886 4282142254
-0.34905496 0.015574574 -0.032594468 4282665527
-0.34909987 0.016284801 -0.033134926 4286741815
-0.34876397 0.01713505 -0.033196092 4285950516
-0.34861848 0.017915357 -0.033496913 4280429107
-0.34847295 0.018695725 -0.033797774 4280364585
-0.34794846 0.019610899 -0.033618558 4280233001
-0.34742555 0.020523302 -0.033439886 4280232741
-0.34671664 0.021498496 -0.033023361 4280233253
-0.34619769 0.022404497 -0.032846417 4280233255
-0.34568036 0.023307785 -0.032669984 4280233256
-0.34497929 0.024271404 -0.032257557 4280432949
-0.34446579 0.025168413 -0.032082759 4282810168
-0.34377021 0.026124131 -0.031673346 4282794597
-0.34344348 0.026954314 -0.031734891 4282740325
-0.34311727 0.027783273 -0.031796414 4283007838
-0.34279153 0.028611023 -0.031857807 4287183197
-0.34228447 0.02949613 -0.031684835 4287126070
-0.3419601 0.030320754 -0.03174622 4286667833
-0.34163624 0.031144178 -0.031807557 4286550431
-0.34131283 0.031966381 -0.031868819 4284172444
-0.34135067 0.032675531 -0.032397948 4284037169
-0.34102747 0.033496685 -0.032458793 4280168241
-0.34088477 0.034261897 -0.032753821 4280167464
-0.34056213 0.035081338 -0.032814361 4280298793
-0.34041953 0.035846092 -0.033109196 4280300606
-0.33991838 0.036716577 -0.032935306 4281490494
-0.33959717 0.037532426 -0.032995634 4281483074
-0.33909836 0.03839846 -0.032822371 4280766530
-0.33860105 0.039261922 -0.032649599 4280758104
-0.33828211 0.040072884 -0.032710027 4280435800
-0.33796358 0.040882673 -0.032770339 4280431918
-0.33764556 0.04169127 -0.0328306 4280758062
-0.3371523 0.042546693 -0.032658573 4280759080
-0.33753845 0.043162536 -0.033649299 4280364840
-0.33810344 0.043733995 -0.03487939 4280364588
-0.33867186 0.044309005 -0.036116987 4280167724
-0.34288323 0.04393898 -0.042202879 4280168490
-0.343665 0.044479426 -0.043738272 4280299050
-0.34520522 0.044832781 -0.046289485 4280300337
-0.34581491 0.045430548 -0.047604308 4281613873
-0.34815836 0.045602962 -0.051242754 4281679935
-0.34937131 0.046068031 -0.053376239 4282337087
-0.34980953 0.046729051 -0.054475356 4282339404
-0.35044733 0.047346216 -0.055845346 4284703820
-0.35148746 0.047873635 -0.057760529 4284771172
-0.35233665 0.048453018 -0.059423227 4285294182
-0.35359836 0.048944212 -0.061647441 4285362280
-0.35405594 0.049626209 -0.062789619 4286681448
-0.35492617 0.050220132 -0.064493641 4286754480
-0.35590798 -0.0015631365 -0.033146158 4290870906
-0.35516328 -0.00051496422 -0.032720551 4289168988
-0.35461962 0.00044473945 -0.032539584 4285945176
-0.3540777 0.0014014409 -0.032359246 4284500303
-0.35353741 0.0023551902 -0.032179479 4281352775
-0.35299888 0.0033060005 -0.032000318 4281152571
-0.35285202 0.0040934365 -0.032303918 4280759607
-0.3523154 0.0050400961 -0.032124896 4280759084
-0.35178041 0.0059838253 -0.031946421 4280627757
-0.35124713 0.0069246632 -0.031768546 4280627502
-0.35071552 0.0078625856 -0.031591281 4280759342
-0.35037735 0.008721563 -0.031653602 4280759343
-0.35003978 0.0095792254 -0.031715896 4280825903
-0.35008559 0.010286056 -0.032256808 4280892208
-0.34955698 0.011216757 -0.032079265 4281290033
-0.34922051 0.012071296 -0.032141175 4281816373
-0.34907493 0.012851908 -0.032442149 4284772404
-0.34892935 0.013632591 -0.032743152 4284435506
-0.34878373 0.014413299 -0.033044163 4282531122
-0.3484481 0.015264906 -0.033105377 4283190578
-0.34849247 0.015974928 -0.033646274 4287921714
-0.34815705 0.01682541 -0.033707056 4287002163
-0.34801152 0.017605767 -0.034007933 4280430131
-0.34767666 0.018454438 -0.034068402 4280430126
-0.34715381 0.019369302 -0.033888966 4280233261
-0.34663254 0.020281374 -0.033710063 4280232488
-0.34611288 0.021190671 -0.033531707 4280233511
-0.34559485 0.022097191 -0.033354007 4280233511
-0.34507838 0.023000957 -0.033176828 4280233512
-0.34437868 0.023965325 -0.032763261 4280366129
-0.34386608 0.024862844 -0.032587714 4282268465
-0.34317189 0.025819281 -0.032177161 4282268987
-0.34284559 0.026649727 -0.032238364 4282224701
-0.34251982 0.027478945 -0.032299507 4282550894
-0.34219447 0.028306933 -0.032360557 4287528560
-0.34168833 0.029192552 -0.032186832 4287520140
-0.34136438 0.030017437 -0.032247879 4287125389
-0.34086064 0.030898485 -0.032074783 4287077805
-0.34071797 0.031663582 -0.032369766 4284241066
-0.34057525 0.032428715 -0.032664783 4284102211
-0.34007344 0.033304907 -0.03249133 4280168258
-0.33993092 0.034068987 -0.032785945 4280167468
-0.33943087 0.034941453 -0.032612637 4280298796
-0.33928856 0.03570449 -0.032906827 4280365357
-0.33879024 0.036573209 -0.032733675 4281480493
-0.33847061 0.037387341 -0.032794062 4281483567
-0.33797467 0.038251638 -0.032621514 4280758575
-0.33765635 0.039062724 -0.032681894 4280757808
-0.33733857 0.039872624 -0.032742206 4280299568
-0.33702123 0.040681362 -0.032802481 4280299563
-0.33670437 0.041488927 -0.032862637 4280430123
-0.33621326 0.042343363 -0.032690872 4280430632
-0.33642152 0.043005481 -0.033447374 4280298792
-0.33680597 0.043622449 -0.034439947 4280299052
-0.3373687 0.044195376 -0.03567249 4280168236
-0.34044862 0.044111729 -0.040269997 4280168491
-0.34158099 0.04455366 -0.042275794 4280299051
-0.34235585 0.045095321 -0.043807954 4280300076
-0.34257996 0.045782216 -0.044604987 4281612588
-0.34261933 0.04651773 -0.045155328 4281679927
-0.34321654 0.047116704 -0.046457358 4282270263
-0.34363022 0.047765166 -0.047515135 4282273865
-0.34385812 0.048461922 -0.048324388 4284769609
-0.34947211 0.04788227 -0.056419481 4284836967
-0.35070521 0.048365425 -0.058605 4285294698
-0.35135108 0.048993122 -0.059999697 4285295967
-0.35301098 0.04939482 -0.062775671 4286018143
-0.35428482 0.049894847 -0.065033972 4286098053
-0.35593376 -0.0043489044 -0.032991979 4287531951
-0.3555862 -0.0034672315 -0.033053949 4285039769
-0.35484228 -0.0024146037 -0.032628547 4284635769
-0.35449669 -0.0015371513 -0.032690678 4284043617
-0.35375768 -0.0004923516 -0.03226753 4283385913
-0.35341397 0.00038093526 -0.032329746 4282004789
-0.3528752 0.0013354962 -0.032150216 4281677101
-0.35233811 0.0022871143 -0.031971224 4280889901
-0.35180265 0.0032357948 -0.031792831 4280890413
-0.35146236 0.004101533 -0.031855207 4280824620
-0.35131595 0.0048865643 -0.03215792 4280890923
-0.35078335 0.0058290954 -0.031979717 4281087532
-0.35025248 0.0067687016 -0.031802129 4281875503
-0.34991464 0.0076284944 -0.031864308 4284431407
-0.3495774 0.0084870039 -0.031926453 4284108080
-0.34924066 0.0093442276 -0.031988483 4283318576
-0.34928578 0.010050313 -0.032529261 4282996530
-0.34875882 0.010980672 -0.032351434 4281553971
-0.34842321 0.011834762 -0.032413132 4282605367
-0.34827772 0.012614802 -0.032713905 4287199798
-0.34813219 0.013394889 -0.033014696 4286529587
-0.34798667 0.014175016 -0.033315524 4282531379
-0.34765187 0.015026167 -0.03337647 4282934321
-0.34769559 0.015735451 -0.033917211 4285822769
-0.347361 0.016585503 -0.033977736 4285089331
-0.34721556 0.017365266 -0.034278404 4280430387
-0.3468816 0.01821349 -0.034338687 4280430639
-0.34636033 0.019128043 -0.034158938 4280299054
-0.34584069 0.02003981 -0.033979826 4280299048
-0.34532264 0.020948799 -0.033801254 4280233512
-0.34480616 0.021855015 -0.033623252 4280232743
-0.34429133 0.022758484 -0.033445876 4280299048
-0.34377804 0.023659218 -0.03326901 4280299568
-0.34308296 0.024619898 -0.032856222 4280692528
-0.34257349 0.025514405 -0.032681018 4281091635
-0.34224764 0.026345098 -0.03274186 4287664951
-0.34192228 0.027174579 -0.032802667 4287523184
-0.34141612 0.028062558 -0.032628115 4285958515
-0.34091154 0.02894791 -0.032454148 4285889944
-0.34040847 0.029830566 -0.032280739 4283258521
-0.3399069 0.030710597 -0.03210786 4283407279
-0.33958554 0.031531293 -0.032168835 4285814444
-0.33944315 0.03229472 -0.032463193 4285613637
-0.33894417 0.033169139 -0.032290503 4280364868
-0.33862424 0.033986259 -0.032351233 4280364332
-0.33830473 0.03480218 -0.032411877 4280233260
-0.33798572 0.035616919 -0.032472476 4280233514
-0.33766723 0.036430497 -0.032533016 4280364842
-0.33734915 0.037242863 -0.03259344 4280365100
-0.33685601 0.038105477 -0.03242163 4280233004
-0.33653924 0.038914837 -0.032482047 4280233770
-0.33622298 0.039723046 -0.032542415 4280233258
-0.33590719 0.040530078 -0.032602709 4280234027
-0.33576596 0.041287132 -0.032894637 4281151019
-0.33527699 0.042140633 -0.032723092 4281158184
-0.33530957 0.04284909 -0.033246394 4281937192
-0.33569062 0.043464337 -0.034236293 4281941292
-0.33607334 0.044082437 -0.035230715 4280364844
-0.33734033 0.044469897 -0.03741334 4280365099
-0.33916196 0.044721272 -0.040346924 4280364587
-0.33937854 0.045399632 -0.04112938 4280365355
-0.34013999 0.045941275 -0.042647634 4281219371
-0.34090737 0.046487201 -0.044177718 4281218870
-0.34131241 0.047129087 -0.04522194 4281811254
-0.34135067 0.047864623 -0.04577193 4281813832
-0.34157336 0.048556663 -0.046572804 4284048457
-0.34328577 0.048894506 -0.049398463 4284246632
-0.34810743 0.048509859 -0.056461204 4285294698
-0.3493298 0.048995461 -0.058641713 4285360734
-0.3523733 0.049071357 -0.063312925 4285295709
-0.35303149 0.049708225 -0.064738065 4285300093
-0.35506567 -0.0052827364 -0.032717828 4287456096
-0.35471931 -0.0044017374 -0.032779936 4285094748
-0.35417593 -0.003435279 -0.032598753 4282009940
-0.35363421 -0.0024718286 -0.032418132 4281611848
-0.35329035 -0.0015964111 -0.032480314 4280890941
-0.35275131 -0.000638025 -0.032300331 4280759088
-0.35221398 0.00031736423 -0.03212098 4280496943
-0.35167834 0.0012698079 -0.031942233 4280562222
-0.35114437 0.002219297 -0.031763997 4280694062
-0.35061204 0.0031658814 -0.031586401 4280760110
-0.35046583 0.0039496566 -0.031888627 4280826159
-0.35012734 0.0048128697 -0.03195085 4280959025
-0.34978941 0.005674785 -0.032012984 4281225265
-0.34926084 0.0066132043 -0.031835623 4282337841
-0.34911504 0.0073947585 -0.032136999 4285620275
-0.34877861 0.0082527921 -0.032198887 4285292347
-0.34844273 0.0091095371 -0.032260697 4283983162
-0.34848717 0.0098149301 -0.032801285 4283522103
-0.3481515 0.010670594 -0.032862678 4281616695
-0.34781632 0.011524932 -0.032924015 4282801460
-0.34767079 0.012304987 -0.033224814 4287851572
-0.34752527 0.013085112 -0.033525642 4286988597
-0.3471908 0.013937072 -0.033586446 4282537013
-0.34704536 0.014716682 -0.033887077 4282999350
-0.3468999 0.015496364 -0.034187734 4285285429
-0.3465662 0.016345941 -0.034248065 4284693553
-0.34623298 0.017194256 -0.034308337 4280431665
-0.34590024 0.018041342 -0.034368478 4280430897
-0.34556806 0.01888714 -0.034428608 4280299824
-0.34505001 0.019798599 -0.03424919 4280299304
-0.34453359 0.020707261 -0.034070406 4280233512
-0.34401873 0.021613188 -0.033892158 4280232489
-0.34350544 0.022516355 -0.033714484 4280298282
-0.34299377 0.023416791 -0.033537425 4280299562
-0.34248361 0.024314499 -0.033360895 4280364843
-0.34197503 0.02520949 -0.033184938 4280895287
-0.34146804 0.026101796 -0.033009559 4288647230
-0.34096259 0.026991423 -0.032834694 4288439199
-0.34045866 0.027878355 -0.032660417 4285697691
-0.33977693 0.028821552 -0.032252632 4285497432
-0.33927676 0.029702408 -0.032079984 4282726743
-0.33877805 0.030580657 -0.031907845 4282882631
-0.33845824 0.031399615 -0.031968854 4286002758
-0.33813888 0.03221738 -0.032029759 4285810734
-0.33781999 0.033033941 -0.032090612 4280364078
-0.33750162 0.033849332 -0.032151401 4280364331
-0.33718368 0.034663536 -0.032212086 4280233259
-0.33686623 0.035476539 -0.032272719 4280233258
-0.33654925 0.036288377 -0.032333314 4280167466
-0.33623275 0.037099045 -0.032393772 4280167722
-0.33574232 0.037959926 -0.032222677 4280168234
-0.33542711 0.038767595 -0.032283153 4280168241
-0.33528602 0.039524011 -0.032574829 4280241457
-0.33497137 0.04033 -0.032635063 4280234072
-0.33483034 0.041085958 -0.032926567 4281288280
-0.33434346 0.04193848 -0.032755248 4281290299
-0.33437529 0.04264576 -0.033277813 4282203963
-0.33458024 0.043306913 -0.0340336 4282203982
-0.33478582 0.043970127 -0.034791674 4280442191
-0.33569032 0.044449259 -0.036492594 4280365368
-0.33642665 0.04497933 -0.037971091 4280364088
-0.33752427 0.045420945 -0.039941519 4280365355
-0.33845398 0.045913622 -0.041689962 4281152811
-0.33903041 0.046502843 -0.042964183 4281153074
-0.33924758 0.047186758 -0.043753877 4281744434
-0.33928397 0.047917809 -0.044299345 4281748035
-0.33932045 0.04865006 -0.044845738 4283980356
-0.33990312 0.049251683 -0.046137825 4284115293
-0.34178108 0.049549591 -0.049202275 4285294431
-0.345402 0.049450994 -0.054659814 4285360480
-0.35013199 0.049119432 -0.061653096 4285163104
-0.35279819 0.049290758 -0.065835141 4285166692
-0.35469618 0.049653266 -0.068973504 4288840036
-0.35673574 -0.011008121 -0.033110708 4286156450
-0.35618567 -0.010025281 -0.032927658 4285493399
-0.35563737 -0.0090455469 -0.032745279 4285033324
-0.35528976 -0.0081596663 -0.032807443 4284437062
-0.35474417 -0.0071851192 -0.032625712 4283648832
-0.35439807 -0.0063026883 -0.03268788 4283452473
-0.35405251 -0.0054216422 -0.032749977 4283252533
-0.35370752 -0.0045419284 -0.032812022 4282334256
-0.35316652 -0.0035767565 -0.032631066 4281086767
-0.35262725 -0.0026145682 -0.032450706 4280955182
-0.3522847 -0.0017403855 -0.032512799 4280758317
-0.35174808 -0.00078328553 -0.032333117 4280759340
-0.35121319 0.00017086904 -0.032154027 4280825645
-0.3506799 0.0011220698 -0.031975489 4281743663
-0.35014832 0.0020703233 -0.031797554 4283580463
-0.34961841 0.0030156593 -0.031620242 4283584302
-0.34928107 0.0038782414 -0.031682521 4283780655
-0.34894431 0.0047394941 -0.031744793 4284118323
-0.34879848 0.0055209571 -0.032046169 4284964403
-0.34846228 0.0063803797 -0.032108117 4284636465
-0.34812665 0.0072385068 -0.032169987 4283724852
-0.34779152 0.008095352 -0.032231819 4284186942
-0.347646 0.0088751959 -0.032532573 4286213181
-0.34768978 0.0095798811 -0.033072941 4285222201
-0.34735495 0.010435062 -0.033134133 4281680696
-0.34702063 0.011288973 -0.033195194 4281947187
-0.34687516 0.012068446 -0.03349581 4283066163
-0.34672973 0.012847977 -0.033796422 4282795317
-0.34658426 0.013627544 -0.034097075 4281751093
-0.3462508 0.014478498 -0.034157462 4281747767
-0.34591782 0.015328188 -0.034217793 4282136886
-0.34577256 0.016106715 -0.034518026 4281941041
-0.34525338 0.017023794 -0.034338173 4280825393
-0.34492192 0.017869689 -0.034398276 4280825137
-0.34440526 0.018781984 -0.034219064 4280562224
-0.34389019 0.019691519 -0.034040436 4280562472
-0.34337673 0.020598264 -0.033862442 4280364584
-0.34286481 0.021502273 -0.033684939 4280298538
-0.34253746 0.022339109 -0.033745252 4280101418
-0.34202802 0.023238456 -0.033568393 4280102441
-0.34133849 0.024197923 -0.033155948 4280233514
-0.34065217 0.025153046 -0.032745425 4280432952
-0.34014872 0.026042718 -0.032571271 4282814271
-0.33964682 0.026929731 -0.032397691 4282734760
-0.33914641 0.027814064 -0.032224618 4282092194
-0.33864751 0.02869576 -0.032052118 4282006604
-0.33797303 0.029632881 -0.031647667 4280496203
-0.33747783 0.03050857 -0.031476773 4280565556
-0.33715993 0.031325117 -0.031537913 4281085748
-0.33701822 0.032084521 -0.03183078 4281085994
-0.33652556 0.032954659 -0.031660058 4280363818
-0.33638406 0.033713005 -0.031952515 4280364587
-0.33606768 0.034525469 -0.032013237 4280298795
-0.33575174 0.03533677 -0.032073922 4280299306
-0.33543631 0.036146909 -0.032134544 4280167466
-0.3351213 0.036955871 -0.032195073 4280168490
-0.3348068 0.037763651 -0.032255556 4280692522
-0.33449274 0.038570277 -0.03231591 4280702002
-0.33435181 0.039325576 -0.032607194 4281487666
-0.33421087 0.040080924 -0.032898497 4281479262
-0.33389747 0.040885333 -0.032958429 4280437086
-0.33358458 0.04168861 -0.033018287 4280432190
-0.33344379 0.042442974 -0.033309218 4281352510
-0.333303 0.043197412 -0.03360017 4281350483
-0.33350599 0.043858498 -0.034355313 4281099348
-0.3337096 0.044521615 -0.035112798 4281098043
-0.33495635 0.044910096 -0.037284832 4280757818
-0.33551416 0.045488078 -0.038528077 4280758059
-0.33660606 0.045932144 -0.040500071 4280628523
-0.33699551 0.046563875 -0.041521367 4280628529
-0.33720818 0.047243707 -0.042303983 4281613105
-0.3370643 0.048014849 -0.042601366 4281615938
-0.33727738 0.048698086 -0.043386914 4283390019
-0.33731201 0.049427047 -0.043929644 4283524187
-0.33824569 0.049941409 -0.045706324 4285097821
-0.33792055 0.050760858 -0.045758285 4285164897
-0.34949833 0.048798013 -0.062186953 4285490785
-0.35236043 0.048918821 -0.066655301 4285492063
-0.35446328 0.049231522 -0.070088655 4286216031
-0.35513824 0.049878705 -0.071557947 4286289055
-0.35661346 -0.013015817 -0.033263639 4288508295
-0.35606319 -0.01202909 -0.033080224 4284902507
-0.35571438 -0.01113884 -0.03314222 4282403938
-0.35536617 -0.010249943 -0.033204202 4281418587
-0.35481954 -0.0092705907 -0.033021539 4280630341
-0.35427469 -0.0082943086 -0.032839473 4280562229
-0.35392895 -0.0074110543 -0.032901466 4280496946
-0.35338679 -0.0064399317 -0.032720089 4280628015
-0.35304254 -0.0055601266 -0.032782063 4280759086
-0.35269883 -0.0046816953 -0.032844018 4280693293
-0.35216027 -0.0037177904 -0.032663327 4280562220
-0.35162345 -0.0027568995 -0.032483272 4280628011
-0.35128221 -0.0018839593 -0.03254525 4280693805
-0.350748 -0.00092811493 -0.032365847 4280828463
-0.35021544 2.478528e-05 -0.032186981 4280963121
-0.34968454 0.00097475253 -0.03200873 4282338615
-0.34915534 0.0019217753 -0.031831093 4284901175
-0.34862775 0.0028658905 -0.031653982 4284898357
-0.34829172 0.0037272393 -0.031716198 4284898612
-0.34795621 0.0045873141 -0.031778343 4285304882
-0.3478106 0.0053675678 -0.032079272 4286411317
-0.34747571 0.006225795 -0.03214116 4285553979
-0.34714133 0.0070827384 -0.032202937 4282934843
-0.34680745 0.0079383794 -0.032264676 4283794746
-0.34666213 0.0087170443 -0.032564998 4286928956
-0.34670502 0.0094205188 -0.033104565 4285811264
-0.34637147 0.010274525 -0.033165675 4281683006
-0.34603843 0.011127224 -0.033226691 4281683769
-0.3458932 0.011905504 -0.033526845 4281687609
-0.34574795 0.012683847 -0.03382704 4281680954
-0.34560266 0.013462212 -0.03412725 4281485883
-0.34527043 0.014312021 -0.034187499 4281418555
-0.3449387 0.015160554 -0.034247756 4281220154
-0.34479362 0.015937872 -0.034547564 4281220147
-0.34427673 0.016853828 -0.034367964 4280956978
-0.34394655 0.017698552 -0.034427989 4280891184
-0.3432478 0.018677311 -0.034010563 4280628784
-0.34273568 0.019584902 -0.033832714 4280628269
-0.34222519 0.02048973 -0.033655457 4280364588
-0.3417162 0.021391854 -0.033478726 4280364328
-0.34120882 0.022291226 -0.033302594 4280036904
-0.34070295 0.023187907 -0.033127028 4280036904
-0.34001857 0.024144581 -0.032716896 4280234024
-0.33933735 0.025096916 -0.032308668 4280299821
-0.33883741 0.025983995 -0.032135725 4281680174
-0.33833897 0.026868397 -0.031963363 4281684288
-0.33784211 0.027750153 -0.031791557 4281417023
-0.3373467 0.028629303 -0.03162026 4281348144
-0.33685279 0.029505825 -0.031449519 4280102190
-0.33636037 0.030379716 -0.031279352 4280102440
-0.33604401 0.03119454 -0.031340539 4280167464
-0.3359026 0.031952232 -0.031632762 4280167464
-0.33558682 0.032765333 -0.031693693 4280364584
-0.33544552 0.033522565 -0.031985741 4280364588
-0.3351303 0.034333974 -0.032046411 4280299308
-0.33481553 0.035144232 -0.032106992 4280299307
-0.33450127 0.03595328 -0.03216752 4280167723
-0.33418742 0.036761209 -0.032227952 4280168493
-0.33370191 0.037619378 -0.032057803 4280833325
-0.33338937 0.038424309 -0.032118235 4280834867
-0.3332487 0.039177917 -0.032408886 4281676595
-0.33310807 0.039931592 -0.032699566 4281675830
-0.33279619 0.040734336 -0.032759544 4280304950
-0.33248478 0.041535914 -0.032819454 4280300156
-0.33217379 0.04233636 -0.032879289 4281166460
-0.33203343 0.04308854 -0.033169392 4281154186
-0.33223385 0.043747485 -0.03392164 4281220747
-0.33226395 0.044454727 -0.034444042 4281230918
-0.33332452 0.044887513 -0.036368966 4280832836
-0.3335284 0.045554355 -0.037131891 4280823857
-0.33512825 0.045858979 -0.039801091 4280561968
-0.33533674 0.046533529 -0.04057632 4280562995
-0.33536965 0.04725511 -0.041112736 4281612339
-0.33522651 0.048022132 -0.041408546 4281615682
-0.33490762 0.048832875 -0.041463133 4283256643
-0.33494017 0.04955636 -0.042000279 4283392856
-0.33585566 0.050067384 -0.043754362 4285031769
-0.33535805 0.050922662 -0.043563638 4285164897
-0.3486667 0.048523195 -0.062447377 4285557090
-0.35111165 0.048734516 -0.066355534 4285557088
-0.35402247 0.048855811 -0.070920631 4285622368
-0.35469651 0.049502283 -0.072393991 4285630836
-0.35614106 -0.014131986 -0.033478703 4287063208
-0.35579166 -0.013238735 -0.033540525 4284500060
-0.35544279 -0.012346826 -0.033602249 4282596404
-0.35509446 -0.011456304 -0.033663873 4281414448
-0.35454789 -0.010474287 -0.033480357 4280889901
-0.35400295 -0.0094953375 -0.033297408 4280561707
-0.35345981 -0.0085194269 -0.03311507 4280495913
-0.35291839 -0.0075465813 -0.032933354 4280496169
-0.35237861 -0.0065767705 -0.032752216 4280627240
-0.3520357 -0.0056982497 -0.032814134 4280759849
-0.3516933 -0.004821036 -0.03287594 4281808939
-0.35115719 -0.0038584108 -0.032695565 4283320363
-0.35062274 -0.0028987962 -0.032515746 4283126314
-0.35028282 -0.0020270972 -0.032577664 4282795308
-0.34975097 -0.0010725009 -0.03239847 4283392304
-0.34922078 -0.00012084216 -0.032219894 4284310324
-0.3486923 0.00082786696 -0.03204193 4284768827
-0.34816542 0.0017736627 -0.031864498 4285628474
-0.34764016 0.0027165601 -0.031687662 4285035320
-0.34749454 0.0034967342 -0.03198858 4283717430
-0.34715989 0.0043563182 -0.032050516 4284184882
-0.34682575 0.0052146404 -0.032112353 4285298742
-0.34649214 0.0060716611 -0.032174151 4284634943
-0.34634683 0.0068502217 -0.032474447 4282668350
-0.34601381 0.0077054142 -0.032535955 4282934073
-0.34568125 0.0085593369 -0.032597333 4283650619
-0.34534928 0.0094119841 -0.032658707 4283585346
-0.34539101 0.010114443 -0.033197135 4283257920
-0.34505922 0.010965972 -0.03325808 4283261243
-0.34491417 0.01174307 -0.033557814 4283000123
-0.34476912 0.012520213 -0.033857569 4282806076
-0.34462404 0.013297404 -0.034157339 4282075196
-0.34429306 0.014146013 -0.034217551 4281943868
-0.34396258 0.014993391 -0.034277651 4281417019
-0.34381768 0.015769562 -0.034577031 4281351987
-0.34330314 0.016684324 -0.034397755 4281088307
-0.34297416 0.017527927 -0.034457635 4281022768
-0.34227872 0.01850557 -0.034040835 4280694576
-0.34176889 0.01941205 -0.033863284 4280628526
-0.34126061 0.0203158 -0.033686239 4280495661
-0.34057283 0.021281905 -0.033273511 4280430631
-0.34006834 0.022179408 -0.033098143 4280168231
-0.33938596 0.023137646 -0.03268839 4280167464
-0.33888516 0.024028962 -0.032514632 4280168488
-0.33820808 0.024979416 -0.03210783 4280167722
-0.33771098 0.025864646 -0.031935636 4280495402
-0.33721539 0.026747258 -0.031763986 4280497192
-0.3367213 0.027627191 -0.031592917 4280494888
-0.3362287 0.028504563 -0.031422336 4280495401
-0.33573759 0.029379293 -0.03125231 4280233001
-0.33542192 0.030194208 -0.031313516 4280233254
-0.33510673 0.031007944 -0.031374637 4280232742
-0.33479202 0.031820524 -0.031435668 4280234024
-0.33465087 0.032576572 -0.031727295 4281151272
-0.33433673 0.033387437 -0.031788081 4281157420
-0.33402303 0.034197152 -0.031848758 4280364844
-0.33388209 0.034952227 -0.032139994 4280364331
-0.333397 0.035813041 -0.031969976 4280364587
-0.3330847 0.036619253 -0.032030463 4280373293
-0.33277285 0.0374243 -0.032090891 4281949229
-0.33246148 0.038228177 -0.032151248 4281942835
-0.33215055 0.039030917 -0.032211531 4280626483
-0.33201018 0.039782904 -0.032501575 4280633902
-0.33169982 0.040583987 -0.032561604 4285416494
-0.33138987 0.041383889 -0.032621544 4285426311
-0.33108041 0.042182688 -0.032681413 4280971655
-0.33094031 0.042933188 -0.032970887 4280970389
-0.33080021 0.04368376 -0.033260386 4282333589
-0.33099833 0.044342179 -0.03401117 4282400840
-0.33170739 0.044865128 -0.035461433 4283258950
-0.33225027 0.045437772 -0.036687955 4283249458
-0.33383548 0.045740571 -0.039345719 4280496177
-0.3340413 0.046412926 -0.040117875 4280431923
-0.33389869 0.047177002 -0.040412586 4281415475
-0.33375606 0.047941145 -0.040707324 4281483330
-0.33378765 0.048661705 -0.041242275 4282993987
-0.33312342 0.049555425 -0.040817134 4283065431
-0.3333281 0.05023386 -0.041591637 4284704088
-0.33283851 0.051081724 -0.041405853 4284836193
-0.34039146 0.050017118 -0.0523776 4285229666
-0.35148266 0.048172977 -0.06829983 4285295456
-0.35337439 0.048527151 -0.071466662 4285031776
-0.35446206 0.049077798 -0.073521502 4285035370
-0.35566863 -0.015248185 -0.033693794 4291603112
-0.35551971 -0.014450327 -0.034001544 4284308128
-0.35517076 -0.013556784 -0.034062982 4281021783
-0.35482237 -0.012664613 -0.03412433 4280758833
-0.35447448 -0.011773792 -0.034185555 4280561967
-0.35392886 -0.010791259 -0.03400125 4280496174
-0.35318765 -0.0097197257 -0.033572897 4280496171
-0.35264617 -0.0087442277 -0.033390295 4280498472
-0.35210642 -0.0077717714 -0.033208281 4280497965
-0.35156837 -0.0068023461 -0.033026926 4280629040
-0.35103202 -0.0058359164 -0.032846101 4280762928
-0.35049731 -0.0048724823 -0.032665916 4282728495
-0.3501572 -0.0039986386 -0.032727718 4284963375
-0.34943298 -0.0029545885 -0.03230726 4284577840
-0.34909475 -0.0020848629 -0.032369226 4284050226
-0.348566 -0.0011323926 -0.032190837 4284772148
-0.34822923 -0.0002660605 -0.0322528 4286016054
-0.34770307 0.00068141689 -0.03207504 4286014777
-0.3473677 0.0015444331 -0.032136951 4286021177
-0.34684414 0.0024869675 -0.031959862 4285169466
-0.3465102 0.0033466355 -0.032021765 4283193147
-0.34636477 0.0041256752 -0.032322265 4283655484
-0.34603149 0.004983535 -0.032383911 4284768830
-0.34569874 0.0058400794 -0.032445468 4284110403
-0.34536645 0.0066953748 -0.032506905 4282536513
-0.34503469 0.0075493609 -0.032568343 4282537786
-0.34470341 0.0084021026 -0.032629676 4282406459
-0.34437266 0.0092535736 -0.032690901 4282735422
-0.34441355 0.0099548278 -0.033228617 4283917631
-0.34426859 0.010731286 -0.033528127 4283852356
-0.34393811 0.011581112 -0.033588719 4283393090
-0.34379327 0.012357061 -0.033888031 4283203390
-0.3436484 0.013133081 -0.034187373 4282273342
-0.34331867 0.013980532 -0.034247514 4282140994
-0.34317389 0.014756043 -0.034546658 4281484608
-0.34284475 0.015601696 -0.03460652 4281417784
-0.34251612 0.016446106 -0.034666248 4281089336
-0.34200475 0.017357778 -0.0344873 4281023029
-0.34131262 0.018334344 -0.034071103 4280694580
-0.34080499 0.019239716 -0.033893757 4280694322
-0.34011826 0.020208295 -0.033480566 4280495921
-0.33943468 0.021172432 -0.033069301 4280496427
-0.33893308 0.022068087 -0.032894664 4280233259
-0.33825481 0.02302439 -0.032486342 4280232747
-0.33757967 0.023976374 -0.032079939 4280168235
-0.33708391 0.024862427 -0.031907946 4280167464
-0.3365896 0.025745852 -0.031736486 4280233001
-0.33609682 0.026626635 -0.031565573 4280233514
-0.33560556 0.027504792 -0.031395212 4280298794
-0.33511573 0.02838036 -0.031225365 4280298795
-0.33480078 0.029195393 -0.031286538 4280299309
-0.33448625 0.030009231 -0.031347632 4280299582
-0.33417225 0.030821914 -0.031408671 4280245568
-0.33385864 0.031633414 -0.031469613 4280300411
-0.3337177 0.032388341 -0.031760808 4281364602
-0.33340469 0.033198152 -0.031821512 4281355603
-0.33326384 0.033952624 -0.032112535 4280365650
-0.3329514 0.034760758 -0.032172978 4280364331
-0.33246845 0.035620611 -0.032003168 4280431149
-0.33215728 0.036425769 -0.032063585 4280440413
-0.33184657 0.037229754 -0.032123923 4282139741
-0.33153632 0.038032606 -0.032184198 4282138496
-0.33122653 0.038834326 -0.032244399 4280439424
-0.33108634 0.039585195 -0.032534033 4280438661
-0.33077708 0.040385235 -0.032593962 4286406533
-0.3304683 0.041184142 -0.03265385 4286411849
-0.33015996 0.041981876 -0.032713652 4280957769
-0.32985207 0.042778492 -0.032773353 4280972142
-0.32988015 0.043480773 -0.03329182 4282605424
-0.33007649 0.044137936 -0.034041524 4282660926
-0.33027348 0.044797119 -0.03479353 4283784252
-0.33064035 0.045412913 -0.03578043 4283839284
-0.33272311 0.045577131 -0.039130647 4280495667
-0.33292675 0.046247717 -0.039900731 4280366388
-0.3329576 0.046965275 -0.040433846 4281349940
-0.33264208 0.047772489 -0.040488891 4281417533
-0.33249974 0.048534945 -0.040783003 4282927166
-0.3320125 0.049383383 -0.040598862 4282999890
-0.33169842 0.050187081 -0.040653717 4284637523
-0.33070108 0.05115553 -0.039757393 4284770397
-0.34525508 0.048394401 -0.060525618 4285162845
-0.3510426 0.047799084 -0.069124185 4285229922
-0.35293221 0.048150472 -0.072300605 4284901474
-0.35381061 0.048747499 -0.074070357 4284902750
-0.35469642 0.04934958 -0.075855069 4286412382
-0.35504726 -0.015566573 -0.034216635 4291405218
-0.35469869 -0.01467217 -0.034277909 4284241303
-0.35435066 -0.013779134 -0.034339096 4280955475
-0.35420188 -0.012982411 -0.034646444 4280693039
-0.3536562 -0.011997173 -0.034461226 4280561967
-0.35311225 -0.011015006 -0.034276605 4280823855
-0.35257003 -0.010035936 -0.034092627 4281090859
-0.35183379 -0.0089687062 -0.033665147 4281552936
-0.35129574 -0.0079966243 -0.033482872 4282077232
-0.35056537 -0.0069383308 -0.033058565 4282994231
-0.35003141 -0.0059731896 -0.032878052 4283909428
-0.34949917 -0.0050110444 -0.032698125 4283514929
-0.34896851 -0.0040518744 -0.032518752 4282931762
-0.34843954 -0.0030956457 -0.032339979 4283465779
-0.3481026 -0.0022271911 -0.032401845 4284184629
-0.34757617 -0.001275964 -0.032223728 4284377655
-0.34724072 -0.00041085112 -0.032285575 4284639543
-0.34690571 0.00045298508 -0.032347325 4284309304
-0.3463828 0.0013972061 -0.032169942 4283657785
-0.34586155 0.0023385158 -0.031993095 4283327803
-0.34571621 0.0031169057 -0.032293383 4282799421
-0.34538367 0.0039748498 -0.032355007 4282996801
-0.34523845 0.0047527365 -0.032655079 4283456066
-0.34490645 0.0056088376 -0.032716375 4284045381
-0.34438908 0.0065409616 -0.032539375 4285618242
-0.34405854 0.007393775 -0.032600652 4285163578
-0.34372854 0.0082453145 -0.032661919 4283653435
-0.34339905 0.0090956101 -0.032723103 4283592764
-0.34343907 0.009795703 -0.033259995 4283328830
-0.34329432 0.010570968 -0.033559065 4283653959
-0.3429651 0.011419591 -0.033619624 4284833605
-0.34282044 0.012194373 -0.033918504 4284379710
-0.34267578 0.012969201 -0.034217402 4282274367
-0.34253109 0.0137441 -0.034516335 4282208068
-0.34238639 0.014519047 -0.034815278 4281812802
-0.34205806 0.015364253 -0.034874868 4281746234
