# .PCD v0.7 - Point Cloud Data file format
VERSION 0.7
FIELDS x y z rgba
SIZE 4 4 4 4
TYPE F F F U
COUNT 1 1 1 1
WIDTH 998
HEIGHT 1
VIEWPOINT 0 0 0 1 0 0 0
POINTS 998
DATA ascii
-0.37459463 0.018350821 -0.07723245 4293248067
-0.37432903 0.019291434 -0.076874256 4293836867
-0.37406394 0.020230405 -0.07651674 4293902918
-0.37379929 0.021167766 -0.076159835 4293180742
-0.37378168 0.022154434 -0.076141745 4292972356
-0.37376407 0.023141155 -0.076123685 4289424707
-0.3739934 0.024180729 -0.07644435 4288630597
-0.37422311 0.02522227 -0.076765567 4287774790
-0.37445331 0.026265798 -0.077087402 4287578438
-0.37493256 0.027367121 -0.077750951 4287446342
-0.37566361 0.028529665 -0.078759938 4287381061
-0.37639868 0.029698614 -0.079774469 4287315268
-0.37713781 0.030874114 -0.080794573 4287252552
-0.37864625 0.032239184 -0.082870103 4285415754
-0.37939775 0.033431623 -0.083907261 4284693575
-0.38015339 0.034630787 -0.084950186 4286464070
-0.38091326 0.0358367 -0.085998923 4287318094
-0.38167739 0.037049457 -0.087053545 4286148434
-0.3821831 0.038201448 -0.087753668 4285500259
-0.38295439 0.039426647 -0.088818111 4285299309
-0.38399559 0.040729143 -0.090253003 4285098353
-0.38531277 0.042113479 -0.092066593 4284900724
-0.38718531 0.043658692 -0.094642162 4284769393
-0.38853279 0.04507304 -0.096497491 4284244847
-0.39044857 0.046656158 -0.09913262 4283851868
-0.39154691 0.048022162 -0.10064611 4284443979
-0.39237148 0.049317963 -0.10178409 4285040737
-0.39320084 0.050621387 -0.10292865 4285439351
-0.39403507 0.051932517 -0.10407995 4285833330
-0.39544904 0.053422432 -0.10602684 4285833068
-0.39658642 0.054839592 -0.10759416 4285832300
-0.39861292 0.056536298 -0.11038169 4286158701
-0.39918324 0.057798829 -0.11117104 4286616171
-0.40035018 0.059251972 -0.11277913 4286483559
-0.40152642 0.060716826 -0.11440009 4286217837
-0.40150693 0.061808527 -0.11438008 4286419577
-0.40299532 0.063387476 -0.11642943 4287341442
-0.40511224 0.065182932 -0.11934152 4287800732
-0.39440325 -0.028671663 -0.10587739 4287188309
-0.39324769 -0.027640423 -0.10429327 4285806931
-0.39266384 -0.026602514 -0.10349615 4285873474
-0.3923634 -0.025560228 -0.10308918 4286725699
-0.39150295 -0.024538441 -0.10191119 4286735443
-0.39092579 -0.023512231 -0.10112327 4286867539
-0.38979682 -0.022512231 -0.099575534 4286870614
-0.38867643 -0.021519771 -0.098039612 4286928470
-0.38727409 -0.019515645 -0.096121915 4286137184
-0.38644272 -0.018527975 -0.094983809 4286135368
-0.38561609 -0.017545808 -0.093852147 4285807690
-0.3853294 -0.016535988 -0.093463853 4285812363
-0.38477582 -0.015545483 -0.092708148 4286815371
-0.38422436 -0.014558669 -0.091955282 4286819803
-0.38341016 -0.013594714 -0.090840615 4289241563
-0.38286382 -0.01261601 -0.090094768 4289241225
-0.38231954 -0.011640869 -0.089351691 4283795849
-0.38151592 -0.010691132 -0.088251561 4283774131
-0.38123697 -0.0097012259 -0.087873846 4281096883
-0.38069874 -0.0087367138 -0.087139055 4281084255
-0.38042134 -0.0077512208 -0.086763442 4281155679
-0.38014448 -0.0067674606 -0.086388543 4281163077
-0.37986809 -0.0057854927 -0.086014301 4287580229
-0.37959221 -0.0048052203 -0.085640751 4287797929
-0.3793169 -0.0038267255 -0.085267939 4282418093
-0.3792989 -0.0028209912 -0.085249536 4282196799
-0.37902406 -0.0018450815 -0.084877372 4282589244
-0.37874973 -0.00087088213 -0.084505901 4282594864
-0.37847593 0.0001016177 -0.084135167 4286525488
-0.37794766 0.0010399811 -0.083413959 4286659654
-0.37742141 0.0019749624 -0.082695432 4286921543
-0.37664449 0.0028726731 -0.08163169 4286922569
-0.37612298 0.0038001807 -0.080919705 4286921289
-0.37535316 0.0046889577 -0.079865657 4286922311
-0.37483636 0.0056090918 -0.079160124 4286987335
-0.37407357 0.0064890645 -0.07811565 4286988101
-0.37380844 0.0074395896 -0.077756703 4286987077
-0.37379077 0.0084270472 -0.077738635 4286988612
-0.37377313 0.0094145657 -0.077720553 4287316292
-0.37400287 0.010442576 -0.078043304 4287320130
-0.37423301 0.011472541 -0.07836663 4289288002
-0.37446359 0.012504469 -0.078690507 4289506115
-0.37444589 0.013494981 -0.078672387 4292322116
-0.37467685 0.01452981 -0.078996845 4292722754
-0.37441045 0.015476224 -0.078636132 4293179714
-0.37439275 0.016466949 -0.07861799 4293247810
-0.37387908 0.017364107 -0.077916637 4293180483
-0.37361413 0.018305585 -0.077557839 4293182274
-0.37334967 0.019245451 -0.07719972 4293769281
-0.37308562 0.020183671 -0.076842241 4293901893
-0.373068 0.021170275 -0.076824181 4292971845
-0.37305033 0.022157 -0.076806135 4292769863
-0.37303269 0.023143752 -0.076788068 4288630344
-0.37326136 0.024183385 -0.077109359 4287709762
-0.37373757 0.025278842 -0.077771775 4287577153
-0.37396744 0.026323399 -0.07809484 4287512644
-0.37444624 0.027425919 -0.07876084 4287445829
-0.37517661 0.028589681 -0.079773538 4287381062
-0.37616265 0.029818479 -0.081138544 4287251783
-0.37715593 0.031056343 -0.082513601 4287188569
-0.37841231 0.032364823 -0.084251277 4284762721
-0.37916449 0.033559855 -0.085294239 4283776334
-0.37992087 0.034761634 -0.086342983 4286201926
-0.38068148 0.035970218 -0.08739759 4287318093
-0.38144636 0.037185639 -0.088458121 4286145873
-0.38195258 0.038340081 -0.089162216 4285564513
-0.38298902 0.039637242 -0.090597063 4285365354
-0.38376689 0.040873572 -0.091675602 4285229934
-0.38535434 0.042333629 -0.093869969 4284966256
-0.38668802 0.043736264 -0.095714577 4284769128
-0.38803443 0.045152403 -0.097576819 4284112738
-0.38967094 0.046659835 -0.099839009 4283589214
-0.39048687 0.047946669 -0.10097028 4284841051
-0.39158848 0.049321763 -0.10249533 4286093667
-0.39241552 0.050625257 -0.10364201 4285768044
-0.39324746 0.051936429 -0.1047954 4285440108
-0.39523312 0.053598143 -0.10753914 4285636203
-0.39637184 0.055018824 -0.10911558 4285897084
-0.39840081 0.056720171 -0.11191916 4286420376
-0.39897186 0.057985637 -0.11271322 4287206798
-0.40043864 0.059535887 -0.11474203 4287339643
-0.40161878 0.061006326 -0.11637572 4287534203
-0.40159917 0.062101331 -0.11635569 4287538043
-0.4030925 0.063686594 -0.11842121 4287406210
-0.40583459 0.065692186 -0.12220839 4287866267
-0.39361864 -0.028671432 -0.10659025 4287254866
-0.39246607 -0.02764013 -0.10500339 4286003281
-0.3918837 -0.026602158 -0.10420493 4286069569
-0.3918649 -0.025551533 -0.10418572 4286199874
-0.39072576 -0.024537992 -0.10261729 4286267728
-0.39015007 -0.023511751 -0.10182802 4287128912
-0.38874856 -0.022522824 -0.09989661 4287063633
-0.38790658 -0.021519199 -0.098739028 4286271313
-0.38706943 -0.020521238 -0.097588062 4286265949
-0.38650784 -0.019514982 -0.096818075 4285873500
-0.38567862 -0.018527253 -0.095678017 4285807431
-0.38485414 -0.017545056 -0.094544403 4284628809
-0.3845681 -0.016535174 -0.094155498 4284781718
-0.38401595 -0.015544641 -0.093398489 4289374614
-0.38346586 -0.014557766 -0.092644364 4289377508
-0.38291788 -0.013574501 -0.091893077 4286357732
-0.3823719 -0.012594857 -0.091144577 4286357885
-0.3815659 -0.01163985 -0.090036355 4285826173
-0.38076439 -0.010690085 -0.08893431 4285810354
-0.38022649 -0.0097228382 -0.088196903 4281357490
-0.37969059 -0.0087591205 -0.087462187 4281357141
-0.37915668 -0.0077989101 -0.086730212 4280955477
-0.37888142 -0.006816898 -0.086356044 4280960306
-0.37860674 -0.0058366358 -0.085982591 4281613874
-0.37833253 -0.0048580961 -0.085609771 4281629622
-0.37805879 -0.0038813008 -0.085237652 4288450490
-0.37804082 -0.0028773916 -0.085219301 4288636735
-0.37802282 -0.0018734196 -0.085200965 4280950587
-0.37800482 -0.00086935796 -0.085182615 4280689196
-0.37773171 0.00010317018 -0.08481127 4281347884
-0.37720478 0.0010415607 -0.08408884 4281543494
-0.37667987 0.0019766001 -0.083369121 4285479495
-0.37590495 0.0028743665 -0.082303539 4285742154
-0.37513429 0.0037672434 -0.081243813 4286593354
-0.37461695 0.0046907328 -0.080534488 4286660167
-0.3738533 0.0055747479 -0.079484403 4286921799
-0.37284747 0.0064172996 -0.078099184 4286925893
-0.37233844 0.0073286612 -0.07740131 4287839045
-0.3723208 0.0083134724 -0.077383317 4287906883
-0.37230316 0.0092983739 -0.077365316 4287380547
-0.37228554 0.010283335 -0.077347301 4287317569
-0.3727591 0.011350662 -0.078009017 4287710785
-0.37298769 0.0123797 -0.078331724 4287715652
-0.37321669 0.013410672 -0.078655042 4288582468
-0.37344611 0.014443602 -0.078978948 4288714561
-0.37342837 0.0154334 -0.078960843 4292063809
-0.37316355 0.016377391 -0.078600824 4292525634
-0.37314582 0.017366441 -0.078582756 4293311298
-0.37263536 0.018260466 -0.077882729 4293443393
-0.37261766 0.019247869 -0.077864692 4293178689
-0.3723543 0.02018615 -0.077506609 4293104964
-0.37233663 0.021172812 -0.077488586 4289689413
-0.37231892 0.022159537 -0.077470556 4288893512
-0.37230128 0.023146348 -0.077452511 4287905353
-0.37252921 0.024186045 -0.077774443 4287709249
-0.37300408 0.025281565 -0.078438088 4287642687
-0.37348065 0.026381128 -0.079104155 4287643459
-0.37395898 0.027484791 -0.079772651 4287380292
-0.37493873 0.028707242 -0.081135176 4287317319
-0.37592563 0.029938752 -0.082507707 4286007880
-0.37691984 0.0311794 -0.083890356 4285618271
-0.37817743 0.032490898 -0.085637629 4284502376
-0.37893033 0.03368856 -0.08668641 4284038993
-0.37968746 0.034892999 -0.08774101 4286201926
-0.38044882 0.036104236 -0.088801533 4287252301
-0.38121441 0.037322339 -0.089868024 4286210385
-0.38198435 0.038547393 -0.090940498 4285695072
-0.38275862 0.039779447 -0.092018992 4285562729
-0.38353729 0.041018546 -0.093103632 4285426540
-0.38512644 0.042482235 -0.095310315 4284769646
-0.3864615 0.043888304 -0.097165316 4284243811
-0.3878094 0.045307919 -0.099038124 4284307803
-0.38889322 0.046663508 -0.10054549 4284314464
-0.38970688 0.047950387 -0.10167882 4285110116
-0.39080542 0.049325556 -0.10320663 4285833317
-0.39163017 0.050629098 -0.10435541 4285767782
-0.39245978 0.051940344 -0.10551092 4285635944
-0.39472786 0.053688236 -0.10865816 4285504106
-0.39615634 0.055198759 -0.11064298 4285370246
-0.39848313 0.056995306 -0.11387171 4285630389
-0.39905605 0.058265142 -0.11467205 4286092711
-0.4005276 0.059821513 -0.11671677 4286489483
-0.40201399 0.061393585 -0.11878211 4287406471
-0.40320995 0.062883534 -0.12044536 4287406461
-0.40441564 0.064385645 -0.12212207 4287536772
-0.40687662 0.066309288 -0.12553714 4287931547
-0.39283395 -0.028671172 -0.10730316 4287255404
-0.39168441 -0.027639838 -0.10571356 4286070378
-0.39110351 -0.026601836 -0.10491376 4286069318
-0.39080453 -0.025559453 -0.10450546 4286133062
-0.38994852 -0.024537574 -0.10332344 4286200134
-0.38937429 -0.023511272 -0.10253284 4287118662
-0.38797644 -0.022522315 -0.10059808 4287128643
-0.38713667 -0.021518629 -0.099438511 4286199619
-0.3863017 -0.020520607 -0.098285563 4286198081
-0.3857415 -0.01951432 -0.097514294 4285807426
-0.38518348 -0.018511754 -0.09674599 4285742426
-0.38435957 -0.017528642 -0.095608272 4284448095
-0.38380677 -0.016534394 -0.094847187 4284653264
-0.38325599 -0.015543799 -0.094088912 4289707216
-0.38270733 -0.014556896 -0.093333513 4289705424
-0.38216075 -0.01357357 -0.092580952 4285965264
-0.38161615 -0.012593898 -0.091831185 4285964742
-0.38081226 -0.011638831 -0.090721056 4286076614
-0.37975335 -0.010710831 -0.089256682 4286073052
-0.37947625 -0.0097217327 -0.088878483 4281365724
-0.37868425 -0.0087815179 -0.087784797 4281358793
-0.37815264 -0.0078220945 -0.087052912 4280963017
-0.37787861 -0.0068409047 -0.086678833 4280959343
-0.37734991 -0.0058875955 -0.085951 4280769644
-0.37707737 -0.0049107471 -0.085578978 4280776631
-0.37680531 -0.0039356714 -0.085207596 4289315769
-0.3767873 -0.0029335509 -0.08518932 4289557437
-0.37676933 -0.0019313981 -0.085171022 4280692669
-0.37675136 -0.0009291544 -0.085152745 4280426283
-0.37673336 7.3180767e-05 -0.085134447 4280623398
-0.37620878 0.0010108263 -0.084412143 4280625197
-0.37593827 0.0019782374 -0.084042847 4285211949
-0.37516534 0.002876027 -0.082975462 4285545021
-0.37439668 0.0037689593 -0.081913911 4286527806
-0.37363225 0.0046571051 -0.080858171 4286594885
-0.37287197 0.005540499 -0.079808168 4286922053
-0.37162572 0.006345761 -0.0780828 4286926676
-0.3711198 0.0072556697 -0.077386275 4287911253
-0.37110218 0.0082387617 -0.077368334 4288038505
-0.37108454 0.0092219133 -0.077350385 4287385964
-0.3710669 0.010205156 -0.077332444 4287317586
-0.37202728 0.011352723 -0.078673847 4287315536
-0.37250122 0.012424017 -0.079339169 4287317573
-0.37272996 0.013456026 -0.079663709 4287712835
-0.37295911 0.014489963 -0.07998883 4287792195
-0.37294132 0.01548072 -0.079970747 4291787331
-0.37267667 0.016425589 -0.079609521 4292391742
-0.3724125 0.017368775 -0.079248928 4293310269
-0.37214884 0.018310368 -0.07888896 4293508673
-0.37188563 0.019250287 -0.078529701 4292973890
-0.3718679 0.020237816 -0.078511678 4292904006
-0.37160516 0.021175317 -0.078153051 4288762695
-0.37158746 0.022162102 -0.078135043 4287775047
-0.37181476 0.023200873 -0.078457594 4287708232
-0.37204242 0.024241589 -0.078780718 4287709252
-0.37251681 0.025338238 -0.079446852 4287642435
-0.37324053 0.026494145 -0.080459617 4287643461
-0.37371925 0.027600057 -0.081131816 4287381830
-0.37444955 0.028767612 -0.082153864 4287318363
-0.37568772 0.030059474 -0.083881974 4285617507
-0.37668282 0.03130291 -0.085272238 4284964715
-0.37794164 0.032617446 -0.087029226 4284372846
-0.37869525 0.033817746 -0.088083841 4284105296
-0.37945312 0.035024822 -0.089144349 4286135875
-0.38021517 0.036238756 -0.090210795 4287186251
-0.38098156 0.037459578 -0.091283254 4286274639
-0.38175222 0.038687352 -0.092361748 4285760094
-0.38252729 0.039922159 -0.093446344 4285630310
-0.38330671 0.041164059 -0.094537102 4285493353
-0.38489756 0.042631425 -0.096756175 4284636523
-0.38623405 0.044040933 -0.098621666 4283979615
-0.3870346 0.045311552 -0.099741943 4284378453
-0.38811544 0.046667185 -0.10125201 4284781407
-0.3889268 0.047954135 -0.10238741 4285244264
-0.38974291 0.049248613 -0.1035294 4285701994
-0.39084476 0.050632965 -0.10506888 4285701741
-0.39167202 0.051944256 -0.1062265 4285766506
-0.39450973 0.053864986 -0.11018024 4285500006
-0.3956489 0.055291023 -0.11177179 4285035636
-0.39826962 0.057181038 -0.11542399 4285104009
-0.39884317 0.058453832 -0.11622898 4285176711
-0.40061703 0.060108826 -0.1187035 4285768579
-0.40180492 0.06159056 -0.12036309 4287275137
-0.40300244 0.063084394 -0.12203615 4287406206
-0.40513656 0.064892389 -0.12501201 4287667587
-0.40793139 0.066934012 -0.12890704 4288062105
-0.3911837 -0.027633233 -0.10681592 4286398318
-0.39032325 -0.026601482 -0.10562264 4286397767
-0.39002499 -0.025559068 -0.10521369 4286001479
-0.38889396 -0.024546377 -0.10364283 4286002756
-0.38832232 -0.02352101 -0.10285242 4285871172
-0.38720426 -0.022521809 -0.10129964 4285873216
-0.38636667 -0.021518059 -0.10013808 4285936448
-0.38553387 -0.020520009 -0.098983154 4285937980
-0.38497511 -0.019513661 -0.098210581 4286790717
-0.38441849 -0.018511033 -0.097440973 4286864222
-0.38359672 -0.017527893 -0.096301332 4287792994
-0.38331154 -0.016516952 -0.095910415 4287871192
-0.38276118 -0.015525422 -0.09514948 4290232280
-0.38221291 -0.014537563 -0.094391368 4290228941
-0.38166669 -0.013553321 -0.093636125 4288914381
-0.38086033 -0.012592908 -0.092517853 4288902096
-0.3800585 -0.011637813 -0.091405846 4282929104
-0.37900236 -0.010709787 -0.089938939 4282940386
-0.37846819 -0.0097433105 -0.089200392 4282808546
-0.37767971 -0.0088038445 -0.088106848 4282807514
-0.37715045 -0.0078452341 -0.087375097 4281750490
-0.37687749 -0.0068649007 -0.087001063 4281751415
-0.37635118 -0.0059123612 -0.086273365 4287193460
-0.37582675 -0.0049632397 -0.085548304 4287348407
-0.37580878 -0.0039621023 -0.085530065 4291284921
-0.37579077 -0.0029608719 -0.085511811 4291410900
-0.3757728 -0.0019595819 -0.085493565 4284429525
-0.3757548 -0.00095819851 -0.085475303 4284162091
-0.3757368 4.324409e-05 -0.085457064 4280360485
-0.37546647 0.0010124027 -0.085086532 4280229672
-0.37519655 0.0019798714 -0.084716655 4281082152
-0.37442568 0.0028777188 -0.083647415 4281148731
-0.37365901 0.0037707058 -0.082584068 4282464316
-0.37289655 0.0046588769 -0.081526518 4282529348
-0.37213823 0.005542296 -0.080474734 4286397765
-0.3708953 0.0063476097 -0.078746371 4286661463
-0.37039068 0.0072575747 -0.078048646 4287387992
-0.37037301 0.008240696 -0.078030743 4287451762
-0.37035534 0.0092238784 -0.078012817 4289484405
-0.37033769 0.010207151 -0.077994891 4289750614
-0.37129539 0.011354783 -0.079338737 4289150803
-0.37176797 0.012426144 -0.080005288 4289087301
-0.37199602 0.013458178 -0.080330454 4287512131
-0.37222448 0.01449218 -0.080656193 4287319620
-0.37245333 0.015528158 -0.080982536 4288505412
-0.37218887 0.016473841 -0.080620073 4288704060
-0.37192488 0.017417934 -0.080258273 4290882107
-0.37166137 0.018360334 -0.079897135 4291271745
-0.3711535 0.019252734 -0.079194792 4289693506
-0.37113577 0.020240294 -0.079176791 4289485126
-0.37111801 0.021227939 -0.07915879 4287971399
-0.37110028 0.022215676 -0.07914079 4287643463
-0.37108251 0.023203474 -0.079122789 4287642695
-0.3715547 0.024297206 -0.079788931 4287643461
-0.37202859 0.025395012 -0.080457479 4287511108
-0.37275159 0.026552187 -0.081473961 4287513670
-0.37322983 0.027659277 -0.082148671 4286334279
-0.37420955 0.028885819 -0.083523728 4285879650
-0.37519643 0.030121479 -0.084908865 4284964205
-0.37644488 0.031426877 -0.08665935 4284571760
-0.37770489 0.03274449 -0.088426001 4284438897
-0.37845922 0.033947408 -0.089486517 4284302160
-0.37921777 0.035157163 -0.090552978 4285742657
-0.37998059 0.036373775 -0.091625407 4286530890
-0.38074774 0.037597302 -0.092703871 4286208846
-0.38151917 0.038827833 -0.093788445 4286021724
-0.38229498 0.040065438 -0.094879158 4285696869
-0.38307521 0.041310128 -0.095976047 4285427303
-0.38466769 0.042781152 -0.098207623 4284503145
-0.38546145 0.044044483 -0.099323481 4283787613
-0.38625973 0.04531518 -0.1004458 4284583250
-0.3873376 0.046670858 -0.1019586 4285307999
-0.38842374 0.048037142 -0.10348313 4285440107
-0.38923913 0.049333144 -0.10462942 4285636462
-0.39034006 0.050719231 -0.10617469 4285766770
-0.39116663 0.052032091 -0.10733669 4285960812
-0.39400214 0.053955637 -0.11130529 4286149988
-0.39543122 0.055472024 -0.1133092 4286475109
-0.39775911 0.057276227 -0.11656887 4286221927
-0.39862943 0.058643255 -0.11779225 4285898350
-0.40010467 0.060207859 -0.11986095 4286160252
-0.40159491 0.061788358 -0.12195056 4286881661
-0.40310025 0.06338498 -0.12406138 4287012734
-0.40743402 0.065916926 -0.13012426 4287733123
-0.40804601 0.067251585 -0.13098706 4288127126
-0.38926429 -0.026608452 -0.10594109 4286463323
-0.38896725 -0.025566975 -0.10553224 4286002521
-0.38811731 -0.024545962 -0.10434844 4286002496
-0.38727224 -0.023530733 -0.10317143 4285608511
-0.38643202 -0.02252127 -0.10200123 4285609274
-0.38559663 -0.021517491 -0.10083769 4285871675
-0.38476598 -0.02051938 -0.099680789 4285938518
-0.38420868 -0.019513002 -0.098906904 4286988632
-0.38365346 -0.018510344 -0.098136023 4287062406
-0.38283381 -0.017527143 -0.09699443 4288389513
-0.38254932 -0.016516171 -0.096602879 4288462309
-0.38200039 -0.015524582 -0.095840655 4290297061
-0.38145351 -0.014536694 -0.095081292 4290294510
-0.3809087 -0.013552391 -0.094324775 4289439470
-0.38010442 -0.012591951 -0.093204588 4289424050
-0.37930471 -0.011636797 -0.092090674 4282352050
-0.37825134 -0.010708712 -0.09062124 4282352877
-0.37746197 -0.0097648483 -0.089521758 4283077869
-0.37693208 -0.0088027148 -0.088786051 4283070954
-0.3764042 -0.0078440458 -0.08805307 4281886698
-0.37587819 -0.006888824 -0.087322742 4281883558
-0.37535417 -0.0059370571 -0.08659517 4288387236
-0.37483206 -0.0049887286 -0.085870244 4288597490
-0.37481406 -0.0039884504 -0.085852042 4291682036
-0.37479606 -0.0029881122 -0.08583384 4291742200
-0.37477806 -0.0019877104 -0.085815616 4285105912
-0.37501177 -0.00095671439 -0.086150333 4284883508
-0.37499374 4.479121e-05 -0.086132109 4280294445
-0.37472403 0.0010140094 -0.085760996 4280163880
-0.37445483 0.0019815068 -0.085390508 4280294951
-0.37393576 0.0029133195 -0.084669776 4280295724
-0.37316972 0.0038070849 -0.083602659 4281738797
-0.37240785 0.0046960227 -0.082541354 4281807665
-0.37165016 0.0055801729 -0.081485875 4286263090
-0.3704083 0.0063861068 -0.079751424 4286594636
-0.37014708 0.0073343264 -0.079392061 4287251279
-0.37012935 0.008319254 -0.079374149 4287320663
-0.37011164 0.0093043055 -0.079356208 4290005592
-0.37033734 0.010329601 -0.079679653 4290276197
-0.37129763 0.011480834 -0.081033282 4289619814
-0.37201798 0.012597946 -0.08205048 4289482080
-0.37224704 0.013633958 -0.082378693 4287447903
-0.37247655 0.014671927 -0.082707524 4287184970
-0.37245864 0.015666386 -0.082689442 4287579463
-0.37194654 0.016568365 -0.081978202 4287649351
-0.37168226 0.017514111 -0.081614494 4290140744
-0.37141845 0.018458201 -0.081251495 4290610499
-0.37091008 0.019352075 -0.08054544 4288763970
-0.37089229 0.020341484 -0.080527432 4288364870
-0.37087449 0.021330979 -0.080509417 4287707975
-0.37085667 0.022320541 -0.080491424 4287577926
-0.37083885 0.023310158 -0.080473408 4287576646
-0.37131143 0.024406135 -0.08114323 4287577670
-0.3717857 0.0255062 -0.081815526 4287512133
-0.3722617 0.026610337 -0.082490243 4287448918
-0.37298799 0.027775178 -0.083516061 4285879388
-0.37396857 0.029004458 -0.08489868 4285357933
-0.3749564 0.030242866 -0.086291492 4284702836
-0.3759515 0.031490523 -0.08769457 4284440689
-0.37746719 0.032871973 -0.089828052 4284438896
-0.37796399 0.034013972 -0.090532206 4284433748
-0.37898153 0.035289973 -0.091966927 4285611332
-0.3797451 0.036509302 -0.093045391 4286203210
-0.38051295 0.037735578 -0.094129913 4286141517
-0.38102111 0.03889994 -0.094850108 4286151516
-0.38206175 0.040209226 -0.096317463 4285697126
-0.38284275 0.041456755 -0.097420581 4285426525
-0.38416687 0.042858001 -0.099285699 4284442198
-0.38495988 0.0441228 -0.10040576 4283663963
-0.38575745 0.045394965 -0.10153226 4284651614
-0.38683438 0.046752352 -0.10305078 4285569636
-0.3876428 0.048040859 -0.10419253 4285570155
-0.38873431 0.049417872 -0.10573164 4285635694
-0.38983428 0.050805628 -0.10728269 4285832563
-0.39094293 0.052204359 -0.10884587 4286090875
-0.39378175 0.054133408 -0.11283721 4286673284
-0.39521253 0.055653781 -0.11485271 4287592821
-0.39724749 0.05737165 -0.11771611 4287269207
-0.39811707 0.058740363 -0.11894419 4286544730
-0.39959127 0.060307093 -0.1210208 4286485860
-0.40108037 0.061889723 -0.12311845 4286420586
-0.40319857 0.063687369 -0.12609905 4286750330
-0.40723094 0.066128016 -0.13176639 4287798913
-0.40847945 0.067676529 -0.13352661 4288127388
-0.3879115 -0.025574869 -0.1058502 4285609565
-0.38706535 -0.024554752 -0.10466667 4285674047
-0.38649774 -0.023530258 -0.10387509 4286001471
-0.38538766 -0.022531882 -0.10231991 4286003001
-0.38455603 -0.021528967 -0.1011566 4287051322
-0.38399801 -0.020518783 -0.10037851 4287053147
-0.38344213 -0.019512344 -0.099603318 4286530141
-0.38288835 -0.018509625 -0.09883114 4286606477
-0.38233668 -0.017510638 -0.098061822 4288784016
-0.38205236 -0.016498694 -0.097668909 4288855527
-0.38150379 -0.015506172 -0.09690401 4290100455
-0.38095731 -0.014517327 -0.096141927 4290101748
-0.38015062 -0.013551462 -0.095013484 4286425076
-0.37960923 -0.012570758 -0.094258569 4286410668
-0.37881008 -0.011614741 -0.093140662 4282485420
-0.37750024 -0.010707639 -0.091303624 4282471151
-0.3769688 -0.0097411061 -0.090562582 4283472367
-0.3761844 -0.0088015543 -0.089465313 4283469293
-0.37565783 -0.0078428574 -0.088731118 4284902381
-0.37513319 -0.0068876091 -0.087999567 4284902831
-0.37461051 -0.005935783 -0.087270759 4287079085
-0.37434086 -0.0049606021 -0.08689823 4287159804
-0.37407172 -0.0039870879 -0.086526431 4292141567
-0.37405372 -0.0029867187 -0.086508252 4292270591
-0.37403569 -0.001986258 -0.086490065 4288517887
-0.37426868 -0.00095519767 -0.08682543 4288359478
-0.37425062 4.6335463e-05 -0.086807229 4280556847
-0.37398157 0.0010156136 -0.086435512 4280033064
-0.37371299 0.0019831704 -0.086064443 4280098087
-0.37319529 0.0029150101 -0.085342497 4280098345
-0.37267947 0.0038435291 -0.08462318 4280623657
-0.3719182 0.0047332086 -0.083558157 4280624429
-0.37116113 0.0056181229 -0.08249893 4281674541
-0.37016404 0.0064614252 -0.081101604 4281805642
-0.3696593 0.0073737442 -0.080397785 4284169293
-0.36988476 0.0083981287 -0.080722496 4284564561
-0.369867 0.0093849944 -0.080704547 4287383121
-0.37058145 0.010493227 -0.081718087 4287712616
-0.37154609 0.011649283 -0.083084099 4288376427
-0.37202209 0.012728124 -0.083761811 4288440680
-0.37225178 0.01376716 -0.08409255 4288825447
-0.37248185 0.014808157 -0.084423892 4288890700
-0.37221587 0.015759716 -0.084056333 4287643208
-0.37170324 0.016663224 -0.083341315 4287382859
-0.37143865 0.017610641 -0.082975738 4288299595
-0.37092882 0.018508466 -0.082264654 4288434500
-0.3706657 0.019451771 -0.081901059 4287905346
-0.37040302 0.020393457 -0.081538156 4287774790
-0.3703852 0.021383883 -0.081520148 4287773511
-0.37036732 0.022374403 -0.081502154 4287774278
-0.3703495 0.023364976 -0.081484139 4287707718
-0.3710672 0.024515465 -0.082502559 4287643718
-0.37129533 0.025563281 -0.082831211 4286923078
-0.37201828 0.026724182 -0.083857052 4286730845
-0.37249643 0.027834689 -0.084538005 4285357156
-0.37372661 0.02912353 -0.086278744 4284833650
-0.37471533 0.030364726 -0.087679259 4284637303
-0.37571138 0.031615183 -0.089090146 4284506226
-0.37722856 0.032999966 -0.091235429 4284373616
-0.37772578 0.034144364 -0.091943525 4284302932
-0.3787443 0.035423305 -0.093386263 4285283654
-0.37950858 0.036645334 -0.094470747 4285809738
-0.38027722 0.037874334 -0.095561393 4286140492
-0.38078585 0.039041221 -0.096285664 4286347099
-0.38182756 0.040353585 -0.097761273 4285959014
-0.38260937 0.041603934 -0.098870605 4285627479
-0.38339561 0.042861518 -0.099986292 4285234763
-0.38418642 0.04412635 -0.10110838 4284912729
-0.38498172 0.045398597 -0.10223692 4285307494
-0.38633016 0.04683397 -0.1041451 4285700968
-0.38713783 0.048124023 -0.10529116 4285701227
-0.38822842 0.049502719 -0.10683602 4285698671
-0.38960841 0.050975122 -0.10878891 4285436787
-0.39071825 0.05237728 -0.11036108 4285173124
-0.3935605 0.054311905 -0.11437529 4284903585
-0.39470145 0.055746958 -0.11599148 4284510082
-0.39643976 0.057375818 -0.11844982 4284372808
-0.39730689 0.058744609 -0.11968013 4283781449
-0.39907673 0.060406514 -0.12218305 4284183116
-0.40026194 0.061894089 -0.12386186 4285304151
-0.40298906 0.0638915 -0.12771457 4285700726
-0.40702698 0.066340007 -0.1334154 4287144062
-0.40891641 0.06810502 -0.13608737 4287603362
-0.38658267 -0.02559099 -0.10577881 4285544292
-0.38601542 -0.024563555 -0.10498437 4285608512
-0.38545027 -0.023539964 -0.10419294 4286068033
-0.38461602 -0.022531345 -0.10302097 4286134349
-0.38378656 -0.0215284 -0.10185569 4287313997
-0.38323 -0.020518156 -0.10107626 4287315278
-0.38267553 -0.019511687 -0.1002998 4286398799
-0.38212317 -0.018508937 -0.099526316 4286476157
-0.3815729 -0.017509889 -0.098755702 4288848511
-0.38128927 -0.016497916 -0.09836217 4288920787
-0.38074216 -0.015505332 -0.097595967 4290026451
-0.38019705 -0.014516427 -0.096832626 4290036969
-0.37965402 -0.013531176 -0.096072145 4285888233
-0.37911302 -0.012549558 -0.09531457 4285886608
-0.37805542 -0.011613694 -0.093826257 4282463888
-0.3770057 -0.010684771 -0.092349075 4282468699
-0.37647468 -0.0097173201 -0.091605417 4283514459
-0.37569088 -0.0087769041 -0.090504274 4283535748
-0.37516469 -0.0078173056 -0.089767434 4285495684
-0.37438816 -0.0068863626 -0.088676423 4285493706
-0.37411821 -0.005908506 -0.088302009 4286747597
-0.3735978 -0.0049592694 -0.087573282 4286833149
-0.37332934 -0.0039857267 -0.087200888 4292208383
-0.37331128 -0.0029852963 -0.087182723 4292402431
-0.37329322 -0.0019847748 -0.087164581 4289311743
-0.3735255 -0.00095368386 -0.08750058 4289146701
-0.37350744 4.7880614e-05 -0.0874824 4280622663
-0.37323904 0.0010171869 -0.08711008 4280033323
-0.37297112 0.0019848018 -0.086738415 4280033065
-0.37245473 0.0029167 -0.086015247 4280032562
-0.37194023 0.0038452456 -0.085294746 4280361523
-0.37118098 0.0047349799 -0.084227905 4280361514
-0.37042588 0.0056199194 -0.08316689 4280689449
-0.36967489 0.0065001315 -0.082111672 4280690226
-0.36941358 0.0074509149 -0.081749238 4283509299
-0.36939576 0.0084386421 -0.081731312 4283776571
-0.36962137 0.0094659729 -0.082057841 4286659388
-0.37082726 0.010658043 -0.083771445 4286989396
-0.37204421 0.011861093 -0.085500747 4288039767
-0.37227452 0.012902131 -0.085834019 4288179301
-0.37250522 0.013945169 -0.086167872 4289229158
-0.37248716 0.014945135 -0.086149722 4289351530
-0.37197211 0.015853385 -0.085428298 4287644011
-0.37145898 0.016758434 -0.084709503 4287316307
-0.37094772 0.01766024 -0.083993293 4287642958
-0.37043831 0.018558823 -0.083279744 4287709514
-0.36993071 0.019454226 -0.08256875 4287577673
-0.36991283 0.020445522 -0.082550742 4287578447
-0.36965081 0.021386396 -0.082187273 4287774032
-0.36987704 0.022428354 -0.08251477 4287839815
-0.36985916 0.023419863 -0.082496762 4287708228
-0.37057611 0.024571611 -0.083518907 4287709777
-0.3710503 0.025675077 -0.084197439 4286730325
-0.37177387 0.026838446 -0.085228913 4286405734
-0.3725014 0.02800828 -0.0862661 4285095532
-0.37348375 0.029243046 -0.087664001 4284571505
-0.37472644 0.030546851 -0.089430511 4284571763
-0.3757253 0.031801537 -0.090851858 4284571761
-0.37698892 0.033128399 -0.092648089 4284373359
-0.37774539 0.034339312 -0.093726493 4284237397
-0.37876683 0.035622619 -0.095180005 4285087047
-0.37927115 0.036781874 -0.095901564 4285612875
-0.3797774 0.037945576 -0.096625842 4286139725
-0.38028553 0.039113756 -0.09735281 4286477401
-0.38132632 0.040427677 -0.098833896 4286025569
-0.38184026 0.041607369 -0.099569239 4285696349
-0.38262433 0.042865004 -0.10068695 4285762394
-0.38341287 0.044129938 -0.10181106 4285765984
-0.38420594 0.045402218 -0.10294164 4285832550
-0.38582483 0.046915743 -0.10524158 4285832295
-0.38635597 0.04812777 -0.1060014 4285763433
-0.38800001 0.04966912 -0.10833702 4285692514
-0.38938153 0.051145259 -0.11030105 4285101913
-0.39049265 0.052550871 -0.11188226 4284312669
-0.39333826 0.054491121 -0.11591955 4283456361
-0.39477247 0.056019388 -0.11795842 4281746007
-0.39592621 0.057471432 -0.11960027 4281543989
-0.39708921 0.05893518 -0.12125523 4281023034
-0.39856109 0.060506154 -0.12334772 4281813571
-0.39974537 0.061995693 -0.12503298 4284052556
-0.40277866 0.064096466 -0.12933679 4284517741
-0.40713912 0.066657305 -0.13552035 4286414196
-0.40871412 0.068322934 -0.13775921 4286881947
-0.38582477 -0.026636465 -0.10650353 4286991464
-0.38553211 -0.025598839 -0.10609575 4285741414
-0.38496736 -0.024572311 -0.10530151 4285808448
-0.38440478 -0.023549654 -0.1045103 4286658113
-0.38384432 -0.022530811 -0.10372209 4286659921
-0.38301703 -0.021527836 -0.10255482 4287379537
-0.38246188 -0.020517562 -0.10177411 4287381323
-0.38190883 -0.019511031 -0.10099634 4286726220
-0.38135794 -0.01850822 -0.10022153 4286732153
-0.3808091 -0.017509142 -0.099449649 4287537276
-0.38052616 -0.016497107 -0.099055484 4287539918
-0.37998042 -0.015504495 -0.098288015 4287926735
-0.37943673 -0.01451556 -0.097523384 4287919590
-0.3788951 -0.013530248 -0.096761629 4282608614
-0.3783555 -0.01254857 -0.09600278 4282595722
-0.3778179 -0.011570478 -0.095246725 4280492682
-0.3767671 -0.010639921 -0.093761481 4280504377
-0.37572411 -0.0097162193 -0.092287309 4282132793
-0.37519637 -0.0087522389 -0.091545172 4282141292
-0.37441754 -0.0078161182 -0.090446219 4283923052
-0.37389466 -0.0068599433 -0.089710928 4283925201
-0.37337375 -0.0059072319 -0.088978328 4286222548
-0.37285468 -0.0049579372 -0.088248394 4286308606
-0.37258688 -0.0039843665 -0.087875396 4292601855
-0.37256879 -0.0029838751 -0.087857276 4292865023
-0.3725507 -0.0019833241 -0.087839134 4290296831
-0.37278226 -0.00095217105 -0.088175796 4290202712
-0.37276417 4.9454557e-05 -0.088157631 4280950605
-0.37249643 0.0010187891 -0.087784715 4280361515
-0.37222913 0.0019864338 -0.087412469 4280164137
-0.37171412 0.0029183887 -0.086688086 4280164404
-0.37120095 0.0038469615 -0.085966349 4280361525
-0.37068966 0.0047722636 -0.085247271 4280361257
-0.37018022 0.0056942515 -0.084530786 4280426536
-0.36942852 0.0065758908 -0.083469942 4280427308
-0.36941063 0.0075662821 -0.083451986 4281214252
-0.3696368 0.0085955914 -0.083780997 4281346101
-0.3701084 0.0096667418 -0.084458791 4282332470
-0.37132204 0.010865223 -0.086191282 4282463055
-0.37229735 0.012032332 -0.087585106 4285546322
-0.37203023 0.012990689 -0.08721301 4286008932
-0.37201214 0.013991538 -0.087194875 4287920998
-0.37224302 0.015037591 -0.087530635 4288177012
-0.37172744 0.015947426 -0.086805336 4287841655
-0.37072 0.016760748 -0.085380815 4287709781
-0.37021002 0.017662581 -0.084663428 4287773775
-0.36970195 0.01856122 -0.083948672 4287775053
-0.36919567 0.019456645 -0.083236478 4288102220
-0.36917776 0.020448005 -0.083218515 4288169298
-0.36891639 0.021388937 -0.082854457 4287774292
-0.36914191 0.0224309 -0.083182581 4287643207
-0.36936784 0.023474881 -0.083511315 4287315267
-0.37008414 0.024627859 -0.084537178 4287189078
-0.37055781 0.025732469 -0.085218206 4285553500
-0.37152848 0.026953122 -0.086605869 4285029994
-0.37250632 0.028182833 -0.088003777 4284702320
-0.37349141 0.029421696 -0.089411996 4284571505
-0.37473756 0.030730028 -0.091191553 4284440689
-0.37573922 0.03198893 -0.092623495 4284374896
-0.37700641 0.03332046 -0.094433069 4284307823
-0.37750554 0.034470927 -0.09515056 4284236885
-0.37852794 0.035757206 -0.0966122 4285021256
-0.37903276 0.036918938 -0.097337842 4285481803
-0.37953946 0.038085151 -0.098066203 4286073677
-0.38004807 0.039255846 -0.098797306 4286541911
-0.380824 0.04050187 -0.099908613 4286025822
-0.38133749 0.041682895 -0.10064673 4285567842
-0.38212082 0.042942006 -0.10176864 4285568101
-0.38290864 0.044208411 -0.10289697 4285569894
-0.383701 0.045482166 -0.1040318 4285635686
-0.38559312 0.047076076 -0.10673081 4285634150
-0.38612479 0.048290823 -0.10749497 4285037415
-0.38777062 0.049836159 -0.10984392 4284310872
-0.38915372 0.051316075 -0.11181921 4283719490
-0.3905504 0.052810606 -0.11381389 4282861371
-0.39282566 0.054583006 -0.1170583 4282201904
-0.39396703 0.056023519 -0.11869006 4281082924
-0.39511755 0.057475604 -0.12033484 4280951842
-0.3965736 0.059032869 -0.12241432 4280560168
-0.39834428 0.060701691 -0.12494144 4281219897
-0.39983299 0.062292896 -0.12706757 4283061314
-0.40287647 0.064403251 -0.13140553 4283263586
-0.40693375 0.066871494 -0.13718587 4284305258
-0.40819001 0.068434566 -0.13898167 4284978323
-0.38534042 -0.02767574 -0.10761853 4286992247
-0.38450244 -0.026650582 -0.10643109 4286923337
-0.38421157 -0.025614873 -0.10602422 4285805897
-0.38365039 -0.024590248 -0.10523165 4285875015
-0.38309136 -0.023569448 -0.10444207 4286789447
-0.38253447 -0.022552481 -0.10365555 4286857037
-0.38197967 -0.021539293 -0.102872 4287380046
-0.38142702 -0.020529894 -0.10209144 4287381354
-0.38087648 -0.019524232 -0.10131386 4286791018
-0.38059264 -0.018507503 -0.10091683 4286795863
-0.38004521 -0.017508397 -0.10014366 4287195994
-0.37976295 -0.016496301 -0.099748857 4287211461
-0.37921864 -0.015503658 -0.098980099 4287407046
-0.37893796 -0.014496157 -0.098587498 4287390668
-0.37839672 -0.013509924 -0.097823068 4281814988
-0.37785751 -0.012527302 -0.0970615 4281805890
-0.37706169 -0.011569462 -0.095933728 4280033090
-0.37627035 -0.010616896 -0.094812274 4280046144
-0.37548342 -0.0096695889 -0.093697071 4281805376
-0.37470087 -0.0087274984 -0.092588082 4281809476
-0.37392268 -0.0077905487 -0.091485269 4283521604
-0.37340024 -0.0068335063 -0.090747379 4283598288
-0.37287965 -0.0058799074 -0.090012185 4286093012
-0.37236106 -0.0049297251 -0.089279756 4286177534
-0.37184432 -0.0039830059 -0.088549994 4292734719
-0.37207523 -0.002953816 -0.088887312 4292931583
-0.37180811 -0.0019818726 -0.088513769 4290563839
-0.37203899 -0.00095068861 -0.08885105 4290466936
-0.37202084 5.099774e-05 -0.08883293 4281083503
-0.37175375 0.0010203918 -0.088459432 4280427322
-0.37148714 0.0019880631 -0.088086568 4280230966
-0.37122098 0.0029540509 -0.087714389 4280230199
-0.37070823 0.0038835031 -0.086990148 4280362551
-0.37019736 0.0048096157 -0.086268567 4280361264
-0.36993361 0.0057688276 -0.08589974 4280362031
-0.36942551 0.0066891201 -0.085182108 4280361780
-0.36940753 0.007682248 -0.085164122 4280624180
-0.36963433 0.0087145437 -0.085495621 4280623667
-0.36986154 0.0097487811 -0.085827708 4280887347
-0.37082878 0.010908533 -0.087216392 4280953915
-0.371306 0.011992008 -0.087905511 4284755260
-0.3715362 0.013036159 -0.08824195 4285284935
-0.37151808 0.014037961 -0.088223808 4287385930
-0.37149993 0.015039827 -0.088205695 4287783517
-0.37098569 0.015949685 -0.087479174 4287907424
-0.37022692 0.016809642 -0.086403459 4287906640
-0.3694723 0.017664921 -0.085333616 4287839821
-0.36896554 0.018563615 -0.084617659 4287840845
-0.36846057 0.019459069 -0.083904274 4288299597
-0.3684426 0.020450484 -0.083886348 4288366416
-0.36818188 0.021391442 -0.083521701 4287774033
-0.36840671 0.022433501 -0.083850458 4287577677
-0.36887559 0.023529971 -0.084527783 4287122509
-0.36934617 0.024630526 -0.085207544 4286929762
-0.37006435 0.025789991 -0.086240925 4285161322
-0.37103406 0.027012011 -0.087633654 4284440432
-0.37226084 0.028300654 -0.089393541 4284505458
-0.37324679 0.029542312 -0.090809561 4284571249
-0.37474865 0.030914191 -0.092962526 4284374640
-0.3757531 0.032177374 -0.094405107 4284308847
-0.37676513 0.03345013 -0.095858507 4284241774
-0.37752447 0.034667708 -0.096951075 4284236886
-0.37828812 0.035892304 -0.098049864 4284954952
-0.37879336 0.037056509 -0.098779589 4285350474
-0.37930053 0.038225226 -0.099512093 4286073164
-0.37954551 0.039328761 -0.099870026 4286541398
-0.3803207 0.040576242 -0.10098546 4285960030
-0.38083369 0.041758593 -0.10172635 4285503074
-0.38161629 0.043019149 -0.10285242 4285503333
-0.3824034 0.044287026 -0.103985 4285438054
-0.38346624 0.045638938 -0.10551155 4285438054
-0.38508552 0.047158353 -0.10783309 4285501044
-0.3858926 0.048454478 -0.10899442 4284447365
-0.38754031 0.050003879 -0.11135674 4283066217
-0.38892493 0.05148755 -0.11334334 4282405441
-0.39032322 0.052985907 -0.11534949 4281348152
-0.39202338 0.054587051 -0.11778708 4281016106
-0.39345244 0.05611743 -0.11983738 4280360743
-0.39460197 0.0575714 -0.1214884 4280295457
-0.3963536 0.059224632 -0.12399979 4280100391
-0.39782619 0.060801923 -0.1261126 4280496186
-0.39961711 0.062493529 -0.12868032 4281813313
-0.40266463 0.064610317 -0.1330438 4281748057
-0.40609205 0.066876076 -0.13795042 4281288544
-0.40702546 0.068332262 -0.13929312 4282286982
-0.3843089 -0.028727476 -0.10795302 4286994296
-0.38347468 -0.027700307 -0.10676577 4285744243
-0.3829149 -0.026671784 -0.10597181 4285740864
-0.38262635 -0.025638996 -0.10556657 4285870913
-0.38233837 -0.024608087 -0.10516207 4285806921
-0.38178289 -0.02358917 -0.10437422 4285150793
-0.38122952 -0.022574039 -0.10358931 4285084492
-0.38067827 -0.021562705 -0.10280742 4284365390
-0.38039401 -0.020542204 -0.10240825 4284364659
-0.38011038 -0.019523578 -0.10200986 4284628082
-0.3795633 -0.018521633 -0.10123388 4284628045
-0.37928119 -0.017507652 -0.10083774 4284308305
-0.37899965 -0.016495524 -0.10044231 4284447171
-0.37871864 -0.015485216 -0.10004763 4287933123
-0.37843817 -0.014476718 -0.099653713 4287930053
-0.37789732 -0.013489564 -0.098886557 4286334917
-0.37735853 -0.012505993 -0.098122299 4286335790
-0.37682173 -0.011526083 -0.097360961 4280032814
-0.3757726 -0.01059386 -0.095865078 4280036674
-0.37524179 -0.0096228179 -0.09511216 4280822338
-0.3742044 -0.0087027121 -0.093633011 4280821305
-0.37342685 -0.0077649336 -0.092526287 4281356601
-0.37290478 -0.0068069943 -0.091785789 4281365711
-0.37238464 -0.0058525307 -0.091048062 4287272916
-0.37186643 -0.004901492 -0.090313062 4287489278
-0.37135008 -0.0039538657 -0.089580707 4292473343
-0.37133193 -0.0029523957 -0.08956261 4292604159
-0.37131378 -0.0019508322 -0.08954449 4291286015
-0.3712956 -0.00094917777 -0.089526393 4291256448
-0.37127745 5.253806e-05 -0.089508288 4281411704
-0.37125927 0.0010543452 -0.08949019 4280757566
-0.37099284 0.0020229407 -0.089116104 4280886842
-0.37072691 0.0029898135 -0.088742651 4280955703
-0.37046143 0.0039550043 -0.088369898 4281280567
-0.36995003 0.0048827105 -0.087644488 4281283378
-0.36968601 0.0058436724 -0.087273777 4281149233
-0.36942247 0.0068029705 -0.086903721 4281084214
-0.36940441 0.0077988538 -0.086885728 4280755511
-0.36963177 0.0088341152 -0.08721973 4280755763
-0.36961371 0.0098310905 -0.0872017 4280820786
-0.37033454 0.010951918 -0.08824344 4280887349
-0.37105939 0.012079021 -0.089290917 4281869877
-0.37104118 0.013081713 -0.089272805 4282003005
-0.37102303 0.014084468 -0.08925467 4282793535
-0.37075678 0.015042062 -0.088880792 4282924883
-0.36999723 0.01590606 -0.087799259 4285612119
-0.36948711 0.016811959 -0.087075531 4286136654
-0.36873448 0.01766729 -0.08600387 4287446604
-0.36822903 0.018566011 -0.085286714 4287709261
-0.36796796 0.019510303 -0.084920131 4288037709
-0.3677074 0.020452965 -0.084554225 4288104527
-0.36768943 0.021444473 -0.084536299 4287774031
-0.36791399 0.02248756 -0.084866323 4287646033
-0.36838236 0.023585184 -0.085546121 4285879889
-0.36885247 0.024686882 -0.086228415 4285291881
-0.36981595 0.025902584 -0.087618589 4284702833
-0.37078649 0.027127324 -0.089018941 4284505970
-0.37226498 0.028476823 -0.091148056 4284505459
-0.37325367 0.02972262 -0.092574552 4284505713
-0.37475979 0.031099418 -0.094743468 4284439664
-0.37550992 0.032304596 -0.095827825 4284439150
-0.37652284 0.033580255 -0.097289324 4284306797
-0.37702289 0.034735635 -0.098014921 4284301910
-0.3777858 0.035961606 -0.099117756 4285019976
-0.37829056 0.037127115 -0.099850245 4285481034
-0.37879726 0.038297132 -0.10058551 4285941579
-0.37904191 0.039401814 -0.10094482 4286342742
-0.37981638 0.040650755 -0.1020644 4285827422
-0.38032886 0.041834399 -0.10280807 4285371234
-0.38111073 0.043096449 -0.10393836 4285371493
-0.38189709 0.044365816 -0.10507515 4285305189
-0.38295901 0.045719374 -0.10660744 4285501286
-0.38485152 0.047319621 -0.10933182 4285628033
-0.38565949 0.048618805 -0.1104998 4284379043
-0.3870295 0.050089881 -0.11247444 4282608250
-0.38869518 0.051659707 -0.11487357 4282205247
-0.39009506 0.0531619 -0.11689128 4281410613
-0.39179721 0.05476734 -0.11934291 4281015587
-0.39322793 0.056301698 -0.12140505 4280097826
-0.39437884 0.057759397 -0.12306571 4280295455
-0.39613265 0.059417121 -0.12559173 4280755750
-0.39760709 0.060998652 -0.1277169 4280956220
-0.39940023 0.062694944 -0.13029967 4281680703
-0.40245175 0.064818233 -0.13468884 4281680716
-0.40493447 0.066775784 -0.13826174 4281613393
-0.40586326 0.068230174 -0.13960402 4282284656
-0.3821983 -0.02979397 -0.10673073 4287059826
-0.38244885 -0.02874805 -0.1070998 4286925387
-0.38162312 -0.027724685 -0.10591959 4285347401
-0.38133636 -0.026692865 -0.10551521 4285412154
-0.38105014 -0.025662949 -0.10511159 4285869626
-0.38076445 -0.024634935 -0.10470873 4285805626
-0.38021353 -0.023618812 -0.10392401 4284689466
-0.37992945 -0.022595514 -0.10352341 4284624697
-0.37964591 -0.021574099 -0.10312359 4283509817
-0.37909922 -0.020567408 -0.10234484 4283511871
-0.37881726 -0.019550627 -0.10194725 4284033598
-0.37879857 -0.01852092 -0.10192866 4284036407
-0.37877986 -0.017491149 -0.10191008 4283513912
-0.37849849 -0.016478017 -0.1015133 4283657067
-0.37821764 -0.015466708 -0.10111727 4288053103
-0.37793732 -0.014457277 -0.10072197 4288065496
-0.37739691 -0.013469133 -0.099952124 4287601112
-0.3768585 -0.012484678 -0.099185191 4287583415
-0.37632212 -0.011503825 -0.098421104 4280046519
-0.3755306 -0.010548675 -0.097289547 4280034105
-0.37474346 -0.009598814 -0.096164361 4280557625
-0.37396073 -0.0086541669 -0.095045418 4280557874
-0.37318239 -0.0077147512 -0.093932711 4280761394
-0.37240836 -0.0067804302 -0.092826203 4280774573
-0.37188864 -0.0058250735 -0.092085898 4287607473
-0.37137079 -0.0048731808 -0.09134829 4287817469
-0.37085491 -0.0039247018 -0.09061344 4292406527
-0.3708367 -0.0029222469 -0.090595342 4292538623
-0.3708185 -0.0019197008 -0.090577245 4291549183
-0.37080029 -0.00091709336 -0.090559147 4291454099
-0.37078208 8.5575608e-05 -0.09054105 4281554316
-0.37076387 0.0010883656 -0.090522952 4280890280
-0.37049758 0.0020578455 -0.09014754 4281174698
-0.37023184 0.0030256386 -0.089772873 4281155531
-0.36996657 0.0039917128 -0.089398861 4281572557
-0.36970174 0.0049561053 -0.08902552 4281615820
-0.36943743 0.005918825 -0.088652901 4281373644
-0.36917359 0.006879807 -0.088280931 4281349823
-0.36940116 0.0079161255 -0.088616855 4280835519
-0.36938301 0.0089148693 -0.088598832 4280757858
-0.36961097 0.0099541564 -0.088935301 4280822101
-0.37008634 0.011036878 -0.089628279 4280821826
-0.37006816 0.012038616 -0.089610204 4280690752
-0.36980301 0.012997117 -0.089236327 4280690496
-0.36978483 0.013998087 -0.089218251 4280955200
-0.36952016 0.014954033 -0.088845067 4281020488
-0.36876535 0.01581672 -0.087765664 4284755785
-0.36801469 0.016674776 -0.086692132 4285414982
-0.3675105 0.017575243 -0.085973762 4287249734
-0.36725006 0.018520435 -0.085606575 4287643477
-0.36699015 0.019463971 -0.085240066 4287908952
-0.36673066 0.020405853 -0.08487425 4287974228
-0.36671269 0.02139649 -0.084856354 4287775314
-0.36717796 0.022490129 -0.085534923 4287713380
-0.367645 0.023587789 -0.086215965 4285291113
-0.36835778 0.024743335 -0.087251224 4284439920
-0.3693203 0.025960421 -0.088646404 4284505972
-0.370538 0.027243063 -0.09040945 4284505970
-0.3720178 0.028595738 -0.092550263 4284439922
-0.37300736 0.029844355 -0.093984604 4284440174
-0.37451488 0.031224474 -0.09616556 4284505197
-0.37526572 0.032432329 -0.09725599 4284504427
-0.37627959 0.033710897 -0.098725617 4284371051
-0.37678009 0.034868769 -0.099455349 4284300883
-0.37728244 0.036031075 -0.10018778 4285020229
-0.3777867 0.037197877 -0.10092299 4285546567
-0.37829289 0.038369175 -0.10166103 4285940040
-0.37853724 0.039475031 -0.10202171 4286209361
-0.37904629 0.040654164 -0.10276394 4285759831
-0.37955728 0.041837852 -0.10350896 4285304413
-0.38033691 0.043099936 -0.10464128 4285304164
-0.38138977 0.044444732 -0.1061675 4285236829
-0.38272199 0.045877054 -0.10809655 4285494357
-0.38434157 0.047402337 -0.11043996 4285749343
-0.38542539 0.048783757 -0.11201106 4284305007
-0.38707671 0.050341263 -0.11440041 4282142559
-0.38874754 0.051917244 -0.116818 4281875011
-0.39015183 0.053425245 -0.11885139 4281475127
-0.39128134 0.054859776 -0.12048867 4280949793
-0.39271089 0.056396201 -0.12255868 4279770401
-0.39386085 0.057855774 -0.12422564 4280230176
-0.39591068 0.059610423 -0.12719017 4281673764
-0.397387 0.061196186 -0.12932777 4281678129
-0.39918247 0.062897228 -0.13192576 4281546036
-0.40192753 0.064924777 -0.13589315 4281612607
-0.40377918 0.066675685 -0.13857241 4282072391
-0.40470335 0.068128295 -0.13991433 4282674292
-0.38090795 -0.030840838 -0.10667701 4286733682
-0.38008896 -0.029814541 -0.10550141 4285614701
-0.38033628 -0.028773569 -0.10586762 4285478972
-0.38005126 -0.027742747 -0.10546407 4284494140
-0.37950167 -0.026720932 -0.10467793 4284427832
-0.37948287 -0.0256868 -0.10465929 4283640888
-0.37919945 -0.02466163 -0.10425805 4283445557
-0.37865305 -0.023648318 -0.10347641 4282853685
-0.37810868 -0.022638783 -0.10269772 4282857266
-0.37808993 -0.021609232 -0.10267917 4282591026
-0.3778092 -0.020592488 -0.10228171 4282595117
-0.37779051 -0.019563787 -0.10226315 4282721325
-0.37777179 -0.018534992 -0.10224462 4282722351
-0.37801501 -0.017490374 -0.10260494 4283052080
-0.37773436 -0.016477212 -0.10220752 4283056462
-0.37771565 -0.015448197 -0.10218898 4284837714
-0.37743551 -0.014437768 -0.10179234 4284842461
-0.37689552 -0.013448697 -0.10101978 4288327901
-0.3763575 -0.012463291 -0.1002501 4288322781
-0.37582153 -0.011481496 -0.099483326 4286014173
-0.37503064 -0.010525481 -0.098347783 4286011447
-0.37424415 -0.0095747672 -0.097218543 4280229175
-0.37346208 -0.0086292755 -0.096095689 4280229680
-0.37268436 -0.0076889643 -0.09497904 4280694064
-0.37191093 -0.00675382 -0.093868628 4280706721
-0.37139162 -0.0057975994 -0.093125686 4289379237
