# .PCD v0.7 - Point Cloud Data file format
VERSION 0.7
FIELDS x y z rgba
SIZE 4 4 4 4
TYPE F F F U
COUNT 1 1 1 1
WIDTH 989
HEIGHT 1
VIEWPOINT 0 0 0 1 0 0 0
POINTS 989
DATA ascii
-0.36960351 -0.010960269 -0.087897159 4287344615
-0.36944386 -0.010126083 -0.087297499 4288383982
-0.3695302 -0.0091850422 -0.087021969 4288647139
-0.36937079 -0.0083530778 -0.086423568 4286558688
-0.3692117 -0.0075225313 -0.0858263 4286023118
-0.36905286 -0.0066934172 -0.085230008 4283327689
-0.36889437 -0.0058657322 -0.084634796 4282535881
-0.36873612 -0.0050394353 -0.084040657 4281944521
-0.36857817 -0.0042145778 -0.083447523 4281817224
-0.36817735 -0.0035039398 -0.082538098 4282927986
-0.36802039 -0.0026825257 -0.081947885 4283257502
-0.36762166 -0.0019763866 -0.081043549 4282745775
-0.36698365 -0.001386751 -0.079829209 4282613476
-0.36658859 -0.00068590447 -0.078932665 4283852796
-0.36595616 -0.00010219755 -0.077729329 4284383655
-0.36580265 0.00070851418 -0.077148989 4285300859
-0.36588752 0.0016338001 -0.076878078 4286024658
-0.36597243 0.0025591692 -0.076607153 4288464639
-0.36605734 0.0034845988 -0.076336212 4289910015
-0.36638102 0.0045287353 -0.076373495 4288526079
-0.36670524 0.0055747302 -0.076410748 4287329693
-0.36679032 0.0065020272 -0.076139264 4283512145
-0.36687538 0.0074293516 -0.075867765 4280558402
-0.36696047 0.0083567901 -0.075596228 4280557877
-0.36704555 0.0092842588 -0.075324692 4280624440
-0.36737067 0.010335783 -0.075360961 4282855227
-0.3676964 0.011389256 -0.075397328 4285418848
-0.36802274 0.012444665 -0.075433694 4286211721
-0.36834961 0.013502018 -0.075470097 4287387506
-0.3691625 0.014818408 -0.076126397 4286792528
-0.36997977 0.01614194 -0.076786213 4285877081
-0.37154126 0.017869255 -0.078392111 4285421928
-0.37311968 0.019615425 -0.080015413 4284571242
-0.37471539 0.02138073 -0.081656441 4284571245
-0.37607312 0.023026042 -0.082991064 4284570474
-0.37770125 0.024828188 -0.084665075 4284503138
-0.37882626 0.026362494 -0.085697182 4284106073
-0.37969765 0.027762676 -0.086405441 4284169273
-0.38057393 0.029170776 -0.087117583 4284496444
-0.38145509 0.030586775 -0.087833717 4284696911
-0.38234121 0.03201079 -0.088553838 4286015314
-0.3832323 0.033442892 -0.089277975 4285957475
-0.38439819 0.035037402 -0.090345718 4285236067
-0.38749063 0.037746925 -0.093832687 4285236841
-0.38980567 0.040026341 -0.09633486 4285041257
-0.39158842 0.042010646 -0.098163053 4285037666
-0.39367896 0.044185989 -0.10037228 4284761185
-0.39814785 0.047772881 -0.1055528 4284899642
-0.40002951 0.049858347 -0.1074863 4284565044
-0.40132818 0.05160886 -0.10868667 4284514423
-0.36924675 -0.056462757 -0.10881132 4284183492
-0.36759388 -0.055979449 -0.10610372 4282018500
-0.36571833 -0.055569079 -0.10309075 4282017987
-0.36483374 -0.054896791 -0.10146324 4281953219
-0.36419597 -0.054161686 -0.10018177 4281887431
-0.36356163 -0.053430498 -0.098907173 4281625800
-0.36340797 -0.052565694 -0.098301761 4281625546
-0.3630161 -0.051771868 -0.097366743 4281494217
-0.36215147 -0.051120631 -0.095778488 4281493700
-0.36200011 -0.050263062 -0.095179588 4281361859
-0.36161318 -0.049478106 -0.094255939 4281492144
-0.36193392 -0.048480436 -0.094310448 4283201707
-0.361783 -0.047626566 -0.093713902 4283465824
-0.36210388 -0.046627108 -0.093767881 4287336544
-0.36218888 -0.045700338 -0.093496583 4287404381
-0.36274746 -0.044622608 -0.093876176 4288187228
-0.36354634 -0.043464255 -0.094584346 4288124503
-0.36434954 -0.042299539 -0.095296331 4286024280
-0.36564052 -0.040969566 -0.096674509 4285887853
-0.36792451 -0.039301496 -0.099408269 4282279535
-0.36825776 -0.038273048 -0.09946844 4282278066
-0.36859164 -0.037242655 -0.09952876 4281754290
-0.36818475 -0.036464125 -0.098577626 4281753514
-0.36802521 -0.035603337 -0.097965032 4281427114
-0.3673754 -0.034915294 -0.096685685 4281426100
-0.36672914 -0.034230918 -0.095413268 4281689780
-0.3663289 -0.033463851 -0.094477206 4281689785
-0.36593014 -0.032699484 -0.093544513 4281558969
-0.36553285 -0.031937808 -0.092615165 4281557950
-0.36537758 -0.031090733 -0.092014931 4281624510
-0.36498231 -0.030333824 -0.091090731 4281623993
-0.36506787 -0.029400911 -0.090817623 4281690041
-0.36467391 -0.028648252 -0.089897245 4281689522
-0.36475933 -0.027716894 -0.089624591 4281690290
-0.36436662 -0.026968457 -0.088707902 4281688241
-0.36445189 -0.026038591 -0.08843568 4281557937
-0.36429864 -0.025201615 -0.0878428 4281556643
-0.3646225 -0.024178699 -0.087891176 4281754530
-0.3647078 -0.023248663 -0.08761891 4281756047
-0.36503232 -0.022222973 -0.087667093 4284645518
-0.36535746 -0.02119538 -0.087715402 4284974936
-0.36592382 -0.020068116 -0.088085435 4285426258
-0.3664923 -0.018936742 -0.088456817 4285490849
-0.36706278 -0.01780121 -0.08882951 4282214313
-0.36739179 -0.016762884 -0.088879049 4281753774
-0.36772144 -0.015722625 -0.088928677 4281686447
-0.36829621 -0.014577002 -0.089303471 4281681031
-0.36887309 -0.013427171 -0.089679636 4283123329
-0.36895952 -0.012484681 -0.089403711 4283388782
-0.36904597 -0.011542094 -0.089127772 4286146667
-0.36913243 -0.010599425 -0.088851817 4286685626
-0.36921889 -0.009656732 -0.088575825 4287996107
-0.36905944 -0.0088228406 -0.087975025 4288249571
-0.36890033 -0.0079903826 -0.087375231 4284715240
-0.36898664 -0.0070491554 -0.087099694 4283916184
-0.3688277 -0.0062189344 -0.086501196 4281876613
-0.36866909 -0.0053901053 -0.085903808 4281282933
-0.36826667 -0.0046748719 -0.084986754 4280824944
-0.36810899 -0.0038495318 -0.084392264 4280695925
-0.36795157 -0.0030256154 -0.083798818 4282079863
-0.36755189 -0.0023169843 -0.082888752 4282598783
-0.3671537 -0.0016107889 -0.081981964 4282343298
-0.36651629 -0.0010215646 -0.08076407 4282287046
-0.36612171 -0.00032071961 -0.079865031 4284253668
-0.36548993 0.00026258195 -0.078658111 4285105104
-0.36533669 0.001073778 -0.078076512 4283334085
-0.36518374 0.0018835377 -0.077495858 4282411462
-0.36526862 0.0028089748 -0.077224933 4286545606
-0.36511591 0.003616642 -0.076645568 4288987109
-0.36543837 0.0046599833 -0.076683037 4289644537
-0.36576149 0.0057052854 -0.076720618 4290089665
-0.36608514 0.0067524496 -0.076758191 4284893841
-0.36617017 0.0076798494 -0.076486707 4280821854
-0.36649448 0.0087298686 -0.076524064 4280886834
-0.36681941 0.0097818319 -0.076561503 4280889149
-0.36714491 0.010835741 -0.076598965 4283779911
-0.3677122 0.012017486 -0.076946869 4287003753
-0.36803934 0.013076355 -0.076984718 4287658901
-0.36860976 0.014265417 -0.077334203 4288498812
-0.36942628 0.015588621 -0.077997871 4287252056
-0.37049302 0.017050624 -0.078980073 4285092959
-0.37181571 0.018656882 -0.080286965 4284833130
-0.37365276 0.020549931 -0.082247928 4284374377
-0.37500438 0.022189928 -0.083584078 4284308328
-0.37636843 0.023845093 -0.084932461 4284240739
-0.37774503 0.025515543 -0.086293235 4283975765
-0.37861264 0.026912088 -0.087002493 4283120209
-0.37948504 0.028316466 -0.087715708 4283642943
-0.3803623 0.029728768 -0.088432856 4286069313
-0.38177565 0.031448875 -0.089827724 4285941326
-0.38266596 0.032880727 -0.090556182 4285098576
-0.38383079 0.034474608 -0.091629781 4285105764
-0.38527659 0.036236852 -0.093055509 4285038948
-0.388118 0.038814042 -0.096239917 4285039722
-0.39073128 0.041276649 -0.09912882 4284775018
-0.39110661 0.042448673 -0.099190652 4284761685
-0.3931959 0.044629157 -0.10140897 4281612629
-0.39885005 0.048927721 -0.1081036 4281280822
-0.40074518 0.051030505 -0.1100619 4281284914
-0.40235788 0.052976355 -0.11166077 4281293419
-0.37052906 -0.055666123 -0.11227143 4285494992
-0.36910605 -0.055116128 -0.10987231 4282084559
-0.36695728 -0.054776739 -0.10646173 4282019017
-0.36435938 -0.054578103 -0.1024297 4281888457
-0.36372226 -0.05384317 -0.10114446 4281822923
-0.36284962 -0.053180527 -0.099532701 4281757387
-0.36222056 -0.05245379 -0.098263241 4281757133
-0.36159495 -0.051730897 -0.097000584 4281428684
-0.36073768 -0.051081479 -0.09541788 4281492933
-0.36011985 -0.050366584 -0.09417063 4281689538
-0.35973796 -0.049584866 -0.09325286 4281955497
-0.35982248 -0.048663195 -0.092983052 4286021283
-0.35967422 -0.047813635 -0.09239085 4286223426
-0.36022484 -0.046746459 -0.092766173 4288583747
-0.36007604 -0.045897722 -0.092173532 4288652367
-0.36062786 -0.044826042 -0.092548788 4288844623
-0.36141682 -0.043674354 -0.093249641 4288846406
-0.36220995 -0.042516407 -0.093954228 4287993415
-0.36324567 -0.041273419 -0.094990462 4287860822
-0.36452934 -0.039941087 -0.096364826 4284245593
-0.36509767 -0.038841907 -0.096753232 4284180658
-0.36518371 -0.03790373 -0.096478596 4281687986
-0.36575425 -0.036798753 -0.096867941 4281687200
-0.36535576 -0.036027197 -0.095929295 4281492640
-0.36520004 -0.035173677 -0.095324084 4281492404
-0.36480361 -0.034407008 -0.094390728 4281624500
-0.36513048 -0.033384822 -0.094445638 4281624760
-0.36497527 -0.032535002 -0.093842737 4281624504
-0.36457998 -0.031774234 -0.092913695 4281623744
-0.36442572 -0.030927993 -0.092313759 4281690304
-0.36403248 -0.030172048 -0.091389865 4281690041
-0.36411795 -0.029239906 -0.091117002 4281755833
-0.36372596 -0.028488178 -0.090196893 4281755058
-0.36357316 -0.027648393 -0.089602001 4281625010
-0.36318323 -0.026901348 -0.08868698 4281623987
-0.36303133 -0.026065079 -0.08809498 4281624243
-0.36287969 -0.025230246 -0.087503992 4281623466
-0.36296466 -0.024303513 -0.087232709 4281885609
-0.36304966 -0.023376722 -0.086961418 4281888134
-0.36337152 -0.022354761 -0.087008871 4285237122
-0.36369398 -0.0213309 -0.087056369 4285625164
-0.36425537 -0.020207856 -0.087423965 4283394118
-0.36481878 -0.019080708 -0.087792844 4283134110
-0.36538416 -0.017949481 -0.088162981 4283329963
-0.36595163 -0.016814116 -0.088534497 4283396028
-0.36627907 -0.015776642 -0.088583685 4282082750
-0.3670927 -0.014530892 -0.08928144 4281883299
-0.36791077 -0.013278312 -0.089982919 4282271390
-0.36824206 -0.012230882 -0.090033643 4282337361
-0.36832848 -0.011288231 -0.089757718 4284304963
-0.36841491 -0.010345553 -0.089481771 4284639907
-0.36850134 -0.0094027622 -0.089205801 4286619577
-0.36858779 -0.0084599471 -0.088929795 4287142114
-0.36867425 -0.0075170393 -0.088653795 4286875628
-0.3687607 -0.0065740417 -0.088377759 4286807164
-0.36860171 -0.005742678 -0.087777063 4282726492
-0.36844295 -0.0049127564 -0.087177426 4281542467
-0.36804017 -0.0041970443 -0.086256467 4280691003
-0.3678824 -0.0033705921 -0.085659742 4280433770
-0.36748174 -0.0026594345 -0.084743954 4282018170
-0.36732492 -0.0018364748 -0.084150165 4282665577
-0.36692631 -0.0011298469 -0.083239473 4282010467
-0.36604807 -0.000655727 -0.081700578 4281755569
-0.36565387 4.5155899e-05 -0.08079908 4283468500
-0.36502278 0.00062804145 -0.079588614 4284318960
-0.3648698 0.0014396693 -0.079005688 4285102847
-0.36447987 0.0021332998 -0.078113683 4285369280
-0.36456472 0.0030587693 -0.077842772 4286737818
-0.36464956 0.0039843018 -0.077571854 4287732687
-0.36473444 0.004909914 -0.077300899 4289252595
-0.3650569 0.0059554731 -0.077339038 4290358240
-0.3653799 0.0070029339 -0.077377178 4286013649
-0.36570346 0.0080523295 -0.077415347 4282199162
-0.36602768 0.0091036689 -0.077453613 4282657326
-0.36659241 0.010281182 -0.077802733 4283186752
-0.36715916 0.011463006 -0.078153141 4286476885
-0.36748609 0.012522272 -0.078192137 4290022007
-0.3682988 0.01383953 -0.078857571 4288896930
-0.36887172 0.0150343 -0.07921169 4287317128
-0.36993745 0.016495617 -0.080199212 4286468963
-0.37125874 0.018100789 -0.081512816 4284832614
-0.37259209 0.01972062 -0.082838364 4284570476
-0.37419066 0.021493012 -0.084500931 4284111208
-0.37555096 0.023144925 -0.085853554 4284044128
-0.37692377 0.024812166 -0.087218605 4283844696
-0.37752962 0.026063053 -0.08759851 4283776576
-0.37865913 0.027609127 -0.0886463 4283640130
-0.37953407 0.029019438 -0.089366078 4284036426
-0.38014987 0.030288873 -0.089753114 4286003786
-0.38156483 0.032014888 -0.091156773 4285876300
-0.38272437 0.033603989 -0.092231661 4284969550
-0.38416356 0.035360478 -0.093658924 4284973925
-0.38589036 0.037291683 -0.095447637 4284579173
-0.38875127 0.039891403 -0.098670252 4284576877
-0.39109835 0.042209502 -0.10123403 4284238701
-0.39261869 0.044057529 -0.10274507 4284235056
-0.39386436 0.045752879 -0.10390485 4281476908
-0.39925912 0.049916122 -0.11030088 4281083176
-0.40116423 0.05203326 -0.11228015 4281215271
-0.40278545 0.053992018 -0.11389656 4281226566
-0.40411347 0.055784017 -0.11513964 4287270223
-0.36688575 -0.055268958 -0.10841558 4282074744
-0.36574286 -0.05465905 -0.1064077 4282084989
-0.36412573 -0.05419087 -0.10373741 4281822088
-0.36324763 -0.05352401 -0.10210901 4281823188
-0.36213756 -0.052930534 -0.10015829 4281823701
-0.36127368 -0.052273422 -0.098555773 4281757657
-0.360416 -0.051620904 -0.096964709 4281429463
-0.35933128 -0.051042508 -0.095059268 4281492677
-0.35848734 -0.050399441 -0.093493193 4281821122
-0.35787928 -0.04969069 -0.092258692 4282153890
-0.35773334 -0.048843995 -0.091669768 4287138716
-0.35781738 -0.047927074 -0.091401398 4287273792
-0.35813162 -0.046937477 -0.091452852 4289107009
-0.3579855 -0.046093021 -0.090864561 4289112394
-0.35853067 -0.045027304 -0.091235504 4289107786
-0.35930982 -0.043882202 -0.09192916 4289109062
-0.3605611 -0.042576965 -0.093274035 4288782150
-0.36277333 -0.040944293 -0.095943607 4288650059
-0.36405599 -0.03960919 -0.097323462 4285036366
-0.36486563 -0.038426392 -0.098047331 4284902566
-0.36543661 -0.037320372 -0.09844017 4281688486
-0.36576605 -0.036294557 -0.098499216 4281686951
-0.36560923 -0.035436943 -0.097888894 4281493415
-0.36496827 -0.034751724 -0.096614413 4281492669
-0.36481273 -0.03389848 -0.096007958 4281624765
-0.36441666 -0.03313328 -0.095072567 4281625026
-0.36402202 -0.03237078 -0.0941405 4281624770
-0.3636288 -0.031610925 -0.09321177 4281623741
-0.36347544 -0.030765571 -0.092612058 4281690813
-0.36284652 -0.030099213 -0.09136413 4281690300
-0.3626945 -0.029258069 -0.090768233 4281756092
-0.36230609 -0.028508261 -0.089851186 4281754808
-0.36239114 -0.027580088 -0.08957953 4281625016
-0.36176854 -0.026925504 -0.08834625 4281624504
-0.36161828 -0.026091404 -0.087756135 4281689784
-0.36146829 -0.025258698 -0.087167062 4281689520
-0.36155301 -0.024334395 -0.086896516 4281952432
-0.36163774 -0.023410037 -0.086625956 4281954180
-0.36195746 -0.02239077 -0.086672977 4285493120
-0.36227781 -0.021369604 -0.086720049 4285884310
-0.36259869 -0.020346573 -0.086767264 4282414745
-0.36315709 -0.01922364 -0.087133624 4282087329
-0.36371753 -0.018096654 -0.087501332 4283861154
-0.36427996 -0.016965555 -0.087870315 4284119425
-0.36484438 -0.015830355 -0.088240564 4282214780
-0.36565197 -0.014588036 -0.088935547 4281951397
-0.3664639 -0.01333895 -0.08963424 4281752749
-0.36703637 -0.01218877 -0.0900103 4281747080
-0.36736655 -0.011141175 -0.090061016 4283254142
-0.36769733 -0.010091633 -0.090111777 4283584371
-0.36802873 -0.0090401005 -0.090162627 4285950577
-0.36811522 -0.0080963578 -0.089886397 4286487227
-0.36820173 -0.0071525341 -0.089610144 4288061392
-0.36828822 -0.0062086494 -0.089333877 4288517568
-0.36812949 -0.0053768298 -0.088731766 4283463350
-0.36821592 -0.0044336575 -0.088455699 4281742707
-0.36781281 -0.0037174539 -0.087530777 4280624732
-0.3674112 -0.0030037714 -0.08660917 4280237147
-0.36725393 -0.0021782944 -0.08601214 4282011229
-0.36685443 -0.0014691356 -0.085095681 4282662486
-0.36645633 -0.00076246227 -0.084182508 4281744724
-0.36581904 -0.00017383529 -0.082955435 4281291418
-0.3654246 0.00052747136 -0.082050093 4282875579
-0.36479294 0.0011101759 -0.08083415 4283726794
-0.36440203 0.0018062582 -0.079936557 4286419409
-0.3640126 0.0024999087 -0.079042189 4288002512
-0.36386076 0.0033086215 -0.078460678 4287211213
-0.3639456 0.0042341826 -0.078189753 4286623463
-0.36403042 0.0051598372 -0.077918828 4288857849
-0.36435226 0.0062056812 -0.077957518 4290559207
-0.3646746 0.0072534001 -0.077996224 4286870233
-0.36499754 0.0083030863 -0.078034945 4283576717
-0.36555994 0.0094781229 -0.078384884 4284690498
-0.36612433 0.010657432 -0.078736015 4285747293
-0.36693189 0.011967251 -0.079401761 4289294461
-0.36750126 0.013156434 -0.079756223 4293812861
-0.3683162 0.014478996 -0.080427706 4290529407
-0.36889064 0.015678199 -0.08078558 4285813110
-0.37045315 0.017410841 -0.082420513 4285292134
-0.37203276 0.019162441 -0.084073268 4284438886
-0.37337694 0.020796083 -0.085417815 4284176230
-0.37473345 0.022444779 -0.086774692 4283650402
-0.37636009 0.024250394 -0.08847592 4283517526
-0.3769654 0.025501365 -0.088858493 4283122002
-0.37783319 0.026901802 -0.089576915 4283446084
-0.3787058 0.028310113 -0.090299316 4284623941
-0.37932006 0.029578203 -0.090688117 4284823624
-0.38020089 0.031000743 -0.09141697 4285938761
-0.38188747 0.032887273 -0.093174651 4285811275
-0.38305262 0.034485739 -0.094261244 4284707148
-0.38449878 0.036253098 -0.095703535 4284644191
-0.38623405 0.038196847 -0.097510785 4283264352
-0.38910928 0.040815335 -0.10076569 4283254119
-0.39118296 0.042982593 -0.10299262 4282336104
-0.39299625 0.045009512 -0.10488296 4282263344
-0.39629763 0.047928937 -0.10865794 4280361770
-0.39967138 0.050912417 -0.11251571 4280098857
-0.40158659 0.053044099 -0.11451624 4280757801
-0.40290841 0.054830477 -0.11576063 4280897866
-0.40424094 0.05663139 -0.11701506 4286286421
-0.36805794 -0.055424854 -0.11214066 4283710793
-0.36690128 -0.054809768 -0.11010098 4280691531
-0.36575514 -0.054200277 -0.10807991 4280894805
-0.36413351 -0.053733673 -0.10539171 4282739302
-0.36301231 -0.053135522 -0.10341381 4282676953
-0.36166313 -0.052611627 -0.1011185 4281955290
-0.36056405 -0.052024238 -0.099179178 4281954526
-0.35970891 -0.051372573 -0.097585902 4281691868
-0.35816357 -0.050934382 -0.095027037 4281689797
-0.35732523 -0.05029276 -0.093463883 4281755585
-0.35672128 -0.049585465 -0.092231683 4282350495
-0.3563484 -0.048811149 -0.091324598 4287599001
-0.3562043 -0.047968086 -0.090738542 4287666751
-0.356516 -0.046981968 -0.090789251 4288778816
-0.35637176 -0.046140373 -0.090203628 4288782664
-0.35668364 -0.045152508 -0.09025383 4289305160
-0.35745442 -0.044012748 -0.090941839 4289307206
-0.35799864 -0.042943183 -0.091312885 4289241926
-0.35877639 -0.041792374 -0.092006698 4289109063
-0.36002529 -0.040477633 -0.093351886 4285693258
-0.36011013 -0.039551955 -0.093080968 4285557921
-0.35996103 -0.038706794 -0.092486374 4281688737
-0.36074889 -0.037537187 -0.093187585 4281690026
-0.3610692 -0.036527004 -0.093241043 4281559210
-0.36115426 -0.035598595 -0.092969328 4281558976
-0.36123934 -0.034670096 -0.092697598 4281559232
-0.36179668 -0.0335708 -0.093075842 4281559238
-0.36164552 -0.032726798 -0.092478529 4281690566
-0.36173066 -0.031797275 -0.092206493 4281689788
-0.36157972 -0.030955445 -0.091610417 4281625532
-0.36119363 -0.030203352 -0.090692751 4281624509
-0.36127856 -0.02927611 -0.090421386 4281756093
-0.3608937 -0.028528208 -0.089507401 4281755578
-0.36097851 -0.027602475 -0.089236476 4281690554
-0.36036131 -0.026949538 -0.088007398 4281690042
-0.36044589 -0.026026126 -0.08773715 4281689786
-0.3600643 -0.025287015 -0.086831942 4281686963
-0.36038175 -0.024272192 -0.086879075 4281756083
-0.36023325 -0.023443131 -0.086292304 4281755780
-0.36055088 -0.022426536 -0.086338907 4283458431
-0.36086905 -0.021408075 -0.086385585 4283594424
-0.36095369 -0.020484274 -0.086115211 4285431486
-0.36150721 -0.019365555 -0.08647918 4285630626
-0.36229861 -0.018143905 -0.087163322 4286159262
-0.36262009 -0.017115906 -0.087210886 4286217315
-0.36341733 -0.015883721 -0.087899372 4282739290
-0.36445847 -0.014542045 -0.08891435 4282084263
-0.36526567 -0.013295018 -0.089611731 4282148789
-0.36607727 -0.01204119 -0.090312846 4282145444
-0.36664957 -0.010887526 -0.090690508 4282401953
-0.36697969 -0.0098376898 -0.090741843 4282467159
-0.3673104 -0.0087858923 -0.090793274 4284238662
-0.36764175 -0.0077320971 -0.090844788 4284639653
-0.36772832 -0.0067873802 -0.090568289 4286685375
-0.36781487 -0.0058425763 -0.090291776 4287276776
-0.36765635 -0.0050102957 -0.089688264 4286488564
-0.36749816 -0.0041794032 -0.089085825 4286020243
-0.36709633 -0.0034636224 -0.08815977 4283251059
-0.36693904 -0.0026362601 -0.087560296 4282134099
-0.36653933 -0.0019250201 -0.086639449 4281611078
-0.36614108 -0.001216277 -0.085721888 4281347911
-0.36574423 -0.00051001739 -0.084807612 4281020232
-0.36510885 7.799692e-05 -0.083578855 4280831109
-0.36471561 0.00077892398 -0.082672425 4282284709
-0.36432379 0.0014774069 -0.081769191 4283073960
-0.36393338 0.0021735062 -0.080869198 4286951337
-0.3635444 0.0028671972 -0.079972327 4289318364
-0.36362934 0.0037943905 -0.079700969 4289057023
-0.36347774 0.0046027866 -0.079118416 4288794111
-0.36379927 0.0056490302 -0.079158187 4289776127
-0.36388427 0.0065764408 -0.078886747 4290556911
-0.36420646 0.0076254839 -0.078926317 4287000545
-0.36452925 0.0086764945 -0.078965969 4283906717
-0.36509126 0.0098532848 -0.079317816 4285086296
-0.3658953 0.011159761 -0.079984568 4286468225
-0.36670369 0.012473313 -0.080654882 4288304560
-0.36727369 0.013665595 -0.081012301 4290791815
-0.36833361 0.015121937 -0.082006365 4288696396
-0.36964756 0.016720856 -0.083328225 4285290839
-0.37097353 0.018334398 -0.084662072 4284898154
-0.37256318 0.020099159 -0.08633472 4284241510
-0.37366197 0.021606084 -0.087366454 4283912029
-0.37528113 0.023405366 -0.089069434 4283254614
-0.37614179 0.024795994 -0.0897865 4283451203
-0.37700722 0.026194457 -0.090507559 4283972677
-0.3778775 0.027600767 -0.091232583 4284101964
-0.37875268 0.029015018 -0.091961682 4285019211
-0.37963274 0.030437313 -0.092694856 4285152068
-0.38025215 0.03171663 -0.093090296 4286005060
-0.38221252 0.033766262 -0.095207833 4285877063
-0.38365465 0.035530198 -0.096654646 4284510791
-0.3851105 0.037311025 -0.098115221 4284443470
-0.3868576 0.039270241 -0.099945024 4282725966
-0.38946995 0.041746415 -0.10287734 4282728019
-0.39126796 0.043760199 -0.10476152 4281870419
-0.39337671 0.045968965 -0.1070376 4281934629
-0.39669526 0.048910432 -0.11085103 4280425248
-0.39948201 0.051555056 -0.11397776 4280164911
-0.40139991 0.053694978 -0.11599118 4280831283
-0.40272364 0.055487655 -0.11724402 4281032557
-0.3697544 -0.055445883 -0.11664222 4282661983
-0.3680768 -0.054962751 -0.1138489 4282196019
-0.36691681 -0.054348048 -0.11179575 4279903032
-0.36576745 -0.053738929 -0.10976136 4280431956
-0.36414123 -0.05327395 -0.10705513 4283267937
-0.3627761 -0.052745562 -0.10472342 4283136439
-0.36142573 -0.0522228 -0.1024169 4282019517
-0.36008984 -0.051705599 -0.10013515 4282020325
-0.35900173 -0.051124219 -0.098207153 4281823716
-0.35746077 -0.050687507 -0.095644437 4281821398
-0.3566249 -0.050046723 -0.094079114 4281756627
-0.35579485 -0.049410399 -0.092524745 4282350259
-0.3554239 -0.048636999 -0.091617987 4287794092
-0.3552807 -0.047794774 -0.091032155 4287863362
-0.35536435 -0.046881724 -0.090764955 4288582723
-0.35522136 -0.04604166 -0.090180382 4288650823
-0.35575876 -0.044981375 -0.09054818 4289370183
-0.35629803 -0.043917309 -0.090917222 4289373255
-0.35683924 -0.042849425 -0.091287583 4289436487
-0.35715255 -0.041854903 -0.091338873 4289305672
-0.35838982 -0.040545065 -0.092676342 4285953612
-0.35824281 -0.039702032 -0.092084281 4285820341
-0.35879087 -0.038619749 -0.092458948 4281689525
-0.35910794 -0.037615038 -0.092511505 4281691322
-0.35942557 -0.036608465 -0.092564113 4281625275
-0.35951033 -0.035683293 -0.092293367 4281625030
-0.35959506 -0.034758061 -0.092022613 4281494469
-0.35991347 -0.033747837 -0.092074841 4281493445
-0.35999832 -0.03282164 -0.091803804 4281690309
-0.36008316 -0.031895362 -0.091532737 4281690051
-0.36016801 -0.030969022 -0.091261655 4281559491
-0.36001894 -0.030130843 -0.090668485 4281558975
-0.35987014 -0.029294046 -0.090076417 4281756351
-0.35948876 -0.028548056 -0.089165501 4281755839
-0.35957333 -0.027624723 -0.088895299 4281690559
-0.35919324 -0.026882859 -0.087988086 4281690045
-0.35927767 -0.025961049 -0.08771833 4281688253
-0.35889873 -0.025223298 -0.086814739 4281685918
-0.35898304 -0.024302984 -0.0865454 4281623451
-0.35883608 -0.023476036 -0.085960433 4281623449
-0.35892034 -0.022556392 -0.085691296 4282346905
-0.35900459 -0.021636683 -0.085422158 4282417286
-0.35908884 -0.020716896 -0.085152976 4286874759
-0.35963655 -0.019603465 -0.085513651 4287533162
-0.36041948 -0.018387809 -0.086192168 4287332454
-0.36097199 -0.01726515 -0.086556256 4287330700
-0.36176199 -0.016037719 -0.087240554 4282939025
-0.36279339 -0.014701337 -0.088249505 4282151599
-0.36383229 -0.013355299 -0.089265719 4282347701
-0.36487859 -0.011999492 -0.09028919 4282345392
-0.36544767 -0.010847777 -0.090666093 4281882543
-0.36577609 -0.009799757 -0.090717353 4281745791
-0.36634833 -0.0086407876 -0.091096036 4283055732
-0.36667848 -0.0075877807 -0.091147773 4283386484
-0.36676493 -0.0066438532 -0.090871535 4285753460
-0.36685142 -0.0056998967 -0.09059529 4286423482
-0.36693788 -0.0047558183 -0.09031903 4288587984
-0.36678028 -0.0039251195 -0.089716032 4289308613
-0.36662301 -0.003095859 -0.08911413 4285234114
-0.3662231 -0.0023825662 -0.088188812 4283643510
-0.36582464 -0.0016717454 -0.08726684 4281411674
-0.36542764 -0.00096339115 -0.086348161 4280363082
-0.36503208 -0.00025752385 -0.085432753 4280430403
-0.3643986 0.00032984742 -0.084202342 4280438410
-0.36400658 0.0010303699 -0.083294824 4281757615
-0.36361599 0.0017284694 -0.08239048 4282484934
-0.36370122 0.0026589185 -0.082118191 4287543252
-0.36331195 0.0033530316 -0.08121755 4290565356
-0.36316028 0.0041632168 -0.08063259 4290959103
-0.36324531 0.0050913813 -0.080360971 4291220735
-0.36333033 0.0060196007 -0.080089338 4290823935
-0.36341536 0.0069478811 -0.079817683 4290552799
-0.36373746 0.0079982663 -0.079858162 4287458500
-0.36406007 0.0090505676 -0.07989867 4284302736
-0.36462176 0.010229164 -0.080252558 4285808987
-0.36542526 0.011537844 -0.080922402 4287448943
-0.36623305 0.012853634 -0.081595875 4286991243
-0.36704522 0.014176603 -0.082272932 4286336117
-0.36810616 0.015637487 -0.083273351 4285617237
-0.3699162 0.017507816 -0.085249856 4284373083
-0.37149858 0.019266406 -0.086924195 4284175717
-0.37335208 0.021182617 -0.08894778 4283780191
-0.37420419 0.022561884 -0.089661911 4283451220
-0.37531814 0.024090601 -0.090714544 4282533456
-0.37618127 0.025487075 -0.091438212 4283384388
-0.37704921 0.026891394 -0.092165858 4285938245
-0.37792203 0.028303677 -0.092897601 4285937737
-0.37906352 0.029872801 -0.093975089 4285937737
-0.38021359 0.031453788 -0.095060676 4286006086
-0.38110444 0.03289381 -0.095808111 4286267206
-0.38281047 0.034807306 -0.097605787 4286139467
-0.38398907 0.036426865 -0.098718524 4283654731
-0.38572803 0.038379114 -0.10055008 4283643974
-0.38748708 0.04035395 -0.10240274 4280627526
-0.38983336 0.042684738 -0.10500542 4280559178
-0.39164048 0.044711918 -0.10690945 4280100170
-0.39346892 0.046763066 -0.10883585 4280032294
-0.39709595 0.049899772 -0.11306155 4280490784
-0.39989746 0.052563995 -0.11622079 4280565039
-0.40121242 0.054348495 -0.11747207 4281750834
-0.40253806 0.056147467 -0.11873345 4282089836
-0.370455 -0.055743728 -0.11975832 4284760405
-0.36926985 -0.055118028 -0.11765278 4281082444
-0.36784452 -0.054567363 -0.11520823 4281081893
-0.36668339 -0.053953294 -0.11314497 4280887852
-0.36553299 -0.053344801 -0.11110068 4281690196
-0.36390528 -0.052881453 -0.10838095 4285760350
-0.36253893 -0.052354176 -0.1060378 4285427875
-0.36118737 -0.051832546 -0.10372002 4283264172
-0.35985038 -0.051316485 -0.10142718 4283135977
-0.35876134 -0.050735749 -0.099489935 4281889512
-0.35721916 -0.050300628 -0.096914761 4281887967
-0.35615331 -0.049730401 -0.095017985 4281822684
-0.35532424 -0.049094565 -0.093458973 4282219454
-0.35518071 -0.048249755 -0.092870019 4285892790
-0.35481083 -0.047478274 -0.091962643 4285960772
-0.35512125 -0.046491627 -0.092014447 4288910660
-0.3549782 -0.045650356 -0.091427773 4288977990
-0.3552888 -0.044661961 -0.091479063 4289501254
-0.35559994 -0.043671772 -0.09153042 4289503303
-0.3561399 -0.042603392 -0.091901876 4289041991
-0.35645258 -0.041608617 -0.091953717 4288911945
-0.3567659 -0.040611994 -0.09200567 4284379981
-0.35707974 -0.039613567 -0.09205763 4284312256
-0.35739419 -0.038613301 -0.092109732 4281493184
-0.35770917 -0.03761119 -0.092161857 4281494467
-0.35802466 -0.036607243 -0.092214055 4281428931
-0.35810918 -0.035684466 -0.091944039 4281428680
-0.35842538 -0.034677766 -0.091996104 4281560520
-0.35850999 -0.033754058 -0.091725811 4281558981
-0.3583627 -0.032915767 -0.09113387 4281690309
-0.35844722 -0.031992737 -0.090863779 4281690567
-0.35830021 -0.031156622 -0.090273164 4281690311
-0.35861629 -0.030146478 -0.090323538 4281690048
-0.35846913 -0.029311826 -0.089733347 4281756608
-0.35832223 -0.028478628 -0.089144185 4281755841
-0.35817558 -0.027646836 -0.088555977 4281625025
-0.35802922 -0.026816409 -0.087968864 4281625022
-0.35811347 -0.025896162 -0.087699585 4281753022
-0.35773721 -0.025159797 -0.086797625 4281752467
-0.35782135 -0.024241032 -0.086528778 4281753743
-0.35744628 -0.023508735 -0.085630432 4281755812
-0.3575303 -0.022591485 -0.08536201 4282282918
-0.35738519 -0.021768764 -0.084780164 4282349934
-0.35746911 -0.020852171 -0.084511958 4286154342
-0.3577823 -0.019839259 -0.084556684 4286676296
-0.35855684 -0.018629555 -0.08522968 4284443972
-0.35910362 -0.017512226 -0.085590452 4284315809
-0.35988507 -0.016290825 -0.08626917 4284251570
-0.36114019 -0.014859458 -0.087589495 4284255413
-0.36240649 -0.013415233 -0.088921621 4284709557
-0.36344489 -0.012063231 -0.089941092 4284771512
-0.3640098 -0.010914695 -0.0903164 4282278841
-0.36457682 -0.0097619351 -0.090693019 4281685402
-0.3651458 -0.0086049568 -0.09107098 4282203027
-0.36547425 -0.0075537534 -0.091122612 4282334290
-0.36580324 -0.0065005943 -0.091174312 4284236864
-0.36588964 -0.0055574249 -0.090898313 4284770711
-0.36597601 -0.004614166 -0.090622313 4286881716
-0.3660624 -0.0036708252 -0.090346269 4287540202
-0.36590573 -0.0028417581 -0.089743808 4286882559
-0.36550707 -0.0021288504 -0.08881738 4286608533
-0.36510989 -0.0014184202 -0.087894276 4282791787
-0.36471418 -0.00071048696 -0.086974487 4281018188
-0.36431983 -5.0261851e-06 -0.086057983 4280955198
-0.36392689 0.00069796894 -0.085144684 4280962703
-0.36353537 0.0013985164 -0.084234655 4283392953
-0.36314532 0.002096667 -0.083327897 4284912613
-0.36299336 0.0029100389 -0.082739547 4288267007
-0.36284173 0.0037220875 -0.08215227 4290565631
-0.36269036 0.0045327437 -0.081565984 4290828543
-0.36277544 0.0054617682 -0.081294134 4291022847
-0.36286053 0.0063908538 -0.08102227 4290099711
-0.36294562 0.0073200217 -0.080750383 4289368779
-0.3630307 0.0082492735 -0.080478467 4287261086
-0.36358997 0.0094253244 -0.080833063 4285222016
-0.3641513 0.01060571 -0.081188947 4286005343
-0.3649542 0.011916616 -0.081861936 4287054935
-0.36600286 0.01336271 -0.082856461 4286597453
-0.36681587 0.014689511 -0.083538167 4285943127
-0.36836845 0.01641834 -0.085189603 4285289829
-0.37018672 0.018300559 -0.087185539 4284241250
-0.37202835 0.020207003 -0.089207113 4283976539
-0.37338358 0.021859093 -0.090586536 4283515219
-0.37423813 0.023244131 -0.091307186 4283516737
-0.3753553 0.024779694 -0.092368864 4283450691
-0.37622088 0.026182028 -0.093099162 4283972935
-0.37709135 0.027592301 -0.093833543 4285936454
-0.37822971 0.029158751 -0.094914585 4285938755
-0.37937662 0.030737026 -0.096003711 4286070853
-0.38053221 0.032327313 -0.097101085 4286006093
-0.38169652 0.033929694 -0.098206691 4285677390
-0.38341409 0.035858277 -0.10002661 4285612889
-0.38460058 0.037489649 -0.10115397 4282986839
-0.38635141 0.039457474 -0.10300838 4283052835
-0.3878414 0.041283257 -0.10452083 4280556579
-0.39019954 0.04363041 -0.1071502 4280492828
-0.39201587 0.045671158 -0.10907426 4280097820
-0.39385366 0.04773609 -0.11102106 4280032034
-0.39660388 0.050359745 -0.11413693 4280427043
-0.39940375 0.053030856 -0.11730909 4280564777
-0.40102413 0.055004634 -0.11895902 4281816363
-0.40204301 0.056621853 -0.11983316 4282155651
-0.36987922 -0.05638805 -0.12106244 4284631148
-0.36869559 -0.055758785 -0.11894885 4283770172
-0.36752293 -0.055135299 -0.11685491 4280033594
-0.36611253 -0.054586504 -0.11442381 4280297519
-0.36521006 -0.053905297 -0.11272472 4281622591
-0.36406952 -0.053298663 -0.11068797 4282485647
-0.36293939 -0.052697465 -0.10866976 4287268497
-0.36181951 -0.052101664 -0.10666986 4286867096
-0.36070976 -0.051511157 -0.104688 4284044186
-0.35960999 -0.050925918 -0.10272391 4283792556
-0.35828623 -0.050416436 -0.10044464 4281890997
-0.35674557 -0.049982857 -0.097861208 4281888494
-0.35590994 -0.049342766 -0.096283875 4281889003
-0.35508019 -0.048707116 -0.094717622 4282154195
-0.35470948 -0.047932815 -0.093804613 4284714956
-0.35456648 -0.047088906 -0.093215346 4284976516
-0.35465032 -0.046173319 -0.092947446 4289104256
-0.35450754 -0.045331553 -0.092359453 4289108804
-0.35481796 -0.044341974 -0.092411615 4289565252
-0.35512894 -0.043350551 -0.092463903 4289568586
-0.3554405 -0.042357337 -0.092516214 4288845388
-0.35575256 -0.041362282 -0.092568606 4288715403
-0.35606524 -0.040365405 -0.092621118 4283592589
-0.35614938 -0.039446101 -0.092352152 4283525315
-0.35646266 -0.03844652 -0.09240441 4281427395
-0.35677654 -0.037445106 -0.092456795 4281428940
-0.35709092 -0.036441859 -0.092509247 4281363916
-0.35717532 -0.035519864 -0.092239477 4281363145
-0.35749039 -0.034513865 -0.09229169 4281626057
-0.35757488 -0.033590913 -0.092021637 4281624517
-0.35742858 -0.032753449 -0.091430053 4281691077
-0.35751301 -0.031831171 -0.091160208 4281690822
-0.35736692 -0.030995877 -0.090569839 4281756102
-0.35745129 -0.030074304 -0.090300195 4281755588
-0.35730535 -0.029241173 -0.089711025 4281756868
-0.35715973 -0.028409442 -0.089122936 4281755842
-0.35724396 -0.027489271 -0.088853702 4281625794
-0.35686922 -0.026750172 -0.087949745 4281625282
-0.35718265 -0.025740217 -0.087997787 4281820866
-0.3570374 -0.024912762 -0.087412164 4281819049
-0.35689241 -0.02408671 -0.086827546 4281821094
-0.35674766 -0.023262037 -0.086243905 4281822390
-0.35660324 -0.022438757 -0.085661292 4282216375
-0.35645902 -0.021616861 -0.085079692 4282283160
-0.35631505 -0.020796334 -0.084499069 4285691796
-0.35662669 -0.019785104 -0.08454375 4286148235
-0.3571676 -0.018674763 -0.084901705 4282741898
-0.35771045 -0.017560435 -0.085260957 4282219414
-0.35848615 -0.016342364 -0.085937001 4285174168
-0.35973164 -0.014914972 -0.087252356 4285702526
-0.36075306 -0.013578013 -0.088258632 4286349436
-0.36225617 -0.012021648 -0.089918286 4286476196
-0.36305669 -0.010768649 -0.090617783 4282607533
-0.36362138 -0.0096166283 -0.090994604 4281689252
-0.36442924 -0.0083513418 -0.091700085 4281553058
-0.364757 -0.0072998651 -0.091752313 4281546608
-0.36508533 -0.0062464122 -0.091804586 4282988386
-0.3651717 -0.0053031784 -0.091528594 4283450224
-0.36525804 -0.00435988 -0.091252603 4285359989
-0.36534441 -0.0034165035 -0.090976574 4286029235
-0.36518839 -0.0025875941 -0.090373561 4288325071
-0.36479101 -0.0018750897 -0.089445978 4289175228
-0.36439508 -0.0011650732 -0.088521779 4284049843
-0.36400062 -0.0004575573 -0.087600864 4281677670
-0.36360753 0.00024751289 -0.086683251 4281482051
-0.36321586 0.00095009245 -0.085768841 4281422499
-0.36282557 0.001650262 -0.08485771 4285300181
-0.36267367 0.0024655026 -0.084267013 4287674607
-0.36252201 0.0032793535 -0.083677359 4289449727
-0.36237061 0.0040918123 -0.083088666 4290630911
-0.36245582 0.0050224746 -0.082816355 4290695935
-0.36254099 0.0059532276 -0.082544051 4290757877
-0.36262622 0.0068840287 -0.082271695 4289111532
-0.36247492 0.00769286 -0.081684761 4287593660
-0.36256009 0.0086229453 -0.081412621 4287060109
-0.36311901 0.0098008309 -0.081769258 4286531444
-0.36367992 0.010982927 -0.082127087 4286464089
-0.36448228 0.012296088 -0.08280322 4286333271
-0.36577177 0.013873636 -0.08412163 4285875796
-0.36682907 0.015334757 -0.085129693 4285157465
-0.36838591 0.017071879 -0.086794309 4284699746
-0.37045917 0.019099105 -0.089135461 4283976028
-0.37205613 0.02087952 -0.090843581 4283646034
-0.3734152 0.022539381 -0.092234418 4282860110
-0.3745293 0.024072306 -0.09329956 4283647553
-0.37565169 0.02561672 -0.094372645 4285677123
-0.37652135 0.027026705 -0.095111303 4285740103
-0.3773959 0.028444657 -0.095854066 4285937735
-0.37853965 0.030020263 -0.096946761 4286006342
-0.3799589 0.031759728 -0.09839645 4286398022
-0.38112214 0.033361468 -0.099508099 4286136649
-0.38311067 0.035445649 -0.1016928 4283710025
-0.38429826 0.037078537 -0.10282873 4283574608
-0.38521793 0.038562704 -0.1036129 4279971408
-0.38670093 0.040382378 -0.10512684 4279966756
-0.38848099 0.042386256 -0.10702235 4279835427
-0.39028189 0.044413716 -0.10894007 4279835165
-0.39181453 0.046292718 -0.11050535 4280097565
-0.39365473 0.048365455 -0.1124645 4280098850
-0.39640868 0.051000062 -0.11559955 4280165155
-0.39860627 0.053315353 -0.11800878 4280166953
-0.3999173 0.055104788 -0.11926855 4283387435
-0.40123904 0.056908794 -0.12053851 4284452735
-0.36837351 -0.056332655 -0.12061332 4282329952
-0.36745167 -0.055636842 -0.11887068 4281934377
-0.36628696 -0.055015035 -0.11678101 4280231724
-0.36513299 -0.054398853 -0.11471053 4281225271
-0.36423495 -0.053718921 -0.11301201 4285366859
-0.36309987 -0.053113624 -0.1109758 4285699000
-0.36197516 -0.052513778 -0.10895814 4287400626
-0.36086065 -0.0519193 -0.1069587 4287000464
-0.35999349 -0.051259708 -0.10531725 4284497038
-0.35889691 -0.050675526 -0.10335036 4284242307
-0.35781014 -0.050096545 -0.10140106 4282612882
-0.35650191 -0.049593613 -0.099138983 4282545655
-0.35566562 -0.048953727 -0.097554341 4281889525
-0.35506335 -0.048246663 -0.096305855 4282023136
-0.35469165 -0.047471058 -0.0953876 4283536347
-0.35454825 -0.04662526 -0.094795369 4283664298
-0.3548598 -0.045633387 -0.094849981 4285628836
-0.35448915 -0.0448636 -0.093935847 4285630787
-0.35480031 -0.043870918 -0.093989551 4285959748
-0.35465702 -0.04302875 -0.093399055 4285696331
-0.35474101 -0.042111233 -0.093130611 4285240398
-0.35482499 -0.041193653 -0.092862174 4285169843
-0.35490894 -0.040276017 -0.092593722 4282215860
-0.35499296 -0.039358307 -0.092325218 4282213828
-0.35530463 -0.038360342 -0.092377387 4281361604
-0.3556169 -0.037360556 -0.092429668 4281363153
-0.35570106 -0.036441017 -0.092160657 4281429713
-0.35624307 -0.035355508 -0.092534415 4281428426
-0.35632738 -0.034434199 -0.092264891 4281560522
-0.35641173 -0.03351282 -0.091995321 4281559237
-0.35649604 -0.032591406 -0.091725744 4281626053
-0.3563509 -0.031756204 -0.091135405 4281625286
-0.35620609 -0.030922385 -0.090546109 4281690822
-0.35629028 -0.030002374 -0.090276949 4281691078
-0.35614559 -0.029170737 -0.089688867 4281757126
-0.35600123 -0.028340472 -0.089101836 4281756098
-0.3560853 -0.02742189 -0.088833094 4281692098
-0.35594112 -0.026593782 -0.088247307 4281690821
-0.3560251 -0.025675869 -0.087978758 4281691333
-0.35610911 -0.02475787 -0.087710187 4281689270
-0.35596505 -0.023932656 -0.087125793 4281756596
-0.35582125 -0.023108769 -0.086542442 4281757121
-0.35590512 -0.022192212 -0.086274311 4282019010
-0.3557615 -0.021370469 -0.085692182 4282019765
-0.35561812 -0.020550122 -0.085111029 4283395251
-0.35592914 -0.019538617 -0.085156254 4283723449
-0.35624069 -0.018525284 -0.085201502 4282809018
-0.35655278 -0.017510083 -0.085246809 4282612367
-0.357324 -0.016293997 -0.085921638 4284587655
-0.35856214 -0.014868858 -0.087234586 4284910938
-0.35957757 -0.013534055 -0.088239089 4284185680
-0.36130798 -0.011875178 -0.090218998 4283985044
-0.36210519 -0.010622883 -0.090918668 4282214820
-0.36290672 -0.0093637435 -0.091622069 4281755307
-0.36347216 -0.0082069878 -0.092001379 4281687981
-0.36403972 -0.0070459642 -0.092382051 4281617546
-0.36436737 -0.0059922426 -0.092434905 4282200960
-0.3644537 -0.0050489367 -0.092158936 4282528590
-0.36454004 -0.004105574 -0.091882952 4284037949
-0.36462635 -0.0031621545 -0.091606945 4284638595
-0.36447099 -0.0023334173 -0.091003351 4286289823
-0.36407486 -0.0016213265 -0.090074658 4287077598
-0.36368021 -0.0009117311 -0.089149341 4285237243
-0.363287 -0.00020460581 -0.088227302 4284372358
-0.36289519 0.00050004345 -0.087308571 4282796873
-0.36250475 0.0012022451 -0.086393066 4281953973
-0.36211574 0.0019019883 -0.085480817 4286163701
-0.36196443 0.0027170766 -0.084889583 4288596731
-0.36204973 0.0036493274 -0.084616847 4289777151
-0.36189863 0.004462237 -0.084026858 4290498303
-0.3619839 0.0053938003 -0.083754323 4290103551
-0.36206916 0.0063254121 -0.083481766 4289835238
-0.36215439 0.0072571188 -0.083209194 4288382672
-0.36200333 0.0080663515 -0.082620844 4287127968
-0.36232495 0.0091206832 -0.082663968 4286793840
-0.36264712 0.010176973 -0.082707115 4286463328
-0.3632077 0.011360879 -0.083066992 4286332494
-0.36448911 0.012931371 -0.084384255 4286202198
-0.36553979 0.014386424 -0.085391425 4285680737
-0.36659813 0.015852084 -0.086405911 4284830047
-0.36815652 0.017595261 -0.088080555 4284500059
-0.3702319 0.019630093 -0.09043546 4283776081
-0.37183052 0.021416793 -0.092153944 4283712062
-0.37344694 0.023223424 -0.093891509 4283516223
-0.37430635 0.024620105 -0.094625443 4284038722
-0.37568989 0.026314644 -0.096048139 4285674307
-0.37656206 0.027730584 -0.096793585 4285741639
-0.37743917 0.029154586 -0.097543202 4286006089
-0.37885186 0.030888321 -0.098994389 4286005839
-0.3808158 0.032946028 -0.10116532 4286069580
-0.38198894 0.034561522 -0.10229388 4285873463
-0.38344511 0.036347963 -0.10378999 4283115574
-0.38463849 0.037990637 -0.10493837 4283115295
-0.38584113 0.03964613 -0.10609559 4279967775
-0.38733435 0.041479923 -0.10762891 4279966498
-0.38912675 0.043500073 -0.10954836 4279900194
-0.39036468 0.045201678 -0.11074055 4279901477
-0.39161232 0.046916708 -0.11194212 4280230181
-0.39316213 0.048821196 -0.11353303 4280230183
-0.39561668 0.051282533 -0.11629442 4280164903
-0.39720666 0.053233776 -0.11792774 4280166697
-0.3982068 0.054834343 -0.11879266 4283249194
-0.39890903 0.05625781 -0.11926944 4284449628
-0.40083897 0.058443971 -0.12133127 4288392308
-0.36805025 -0.056908678 -0.12228402 4284694865
-0.36712784 -0.056209467 -0.12053194 4280362311
-0.36646268 -0.055446763 -0.11915571 4280361771
-0.36530361 -0.054826315 -0.11706664 4280368953
-0.36440158 -0.054142326 -0.11535314 4281888119
-0.3635062 -0.053463262 -0.11365227 4288321666
-0.36213195 -0.05292891 -0.11126314 4288191169
-0.36125302 -0.052260317 -0.10959258 4287469500
-0.35990348 -0.05173723 -0.10724713 4287067812
-0.35927716 -0.051008228 -0.10594658 4284759452
-0.35841879 -0.050354179 -0.10431463 4284562532
-0.35733318 -0.049776029 -0.10235925 4283129460
-0.35625729 -0.049202994 -0.10042137 4283005671
-0.35542035 -0.048563275 -0.098829292 4281890023
-0.35481763 -0.047855955 -0.097575232 4281957356
-0.35444573 -0.047079623 -0.096653163 4282747116
-0.35452992 -0.046159152 -0.096383899 4282811612
-0.35438642 -0.0453129 -0.095789731 4283204570
-0.35424322 -0.044468079 -0.095196649 4283202739
-0.35432729 -0.043549009 -0.094927795 4283467187
-0.35441139 -0.042629894 -0.094658904 4283464629
-0.35426825 -0.041788001 -0.094067231 4283073206
-0.35435227 -0.040869545 -0.093798555 4283003092
-0.35443631 -0.039951038 -0.093529865 4281429204
-0.35452035 -0.039032474 -0.09326116 4281427144
-0.35460439 -0.038113832 -0.09299241 4281362888
-0.35491604 -0.037113782 -0.093045272 4281363157
-0.35500014 -0.036194179 -0.092776261 4281494485
-0.35531241 -0.035191432 -0.092828855 4281493963
-0.3553966 -0.034270875 -0.092559569 4281494219
-0.35548082 -0.033350293 -0.092290275 4281493958
-0.35556507 -0.032429606 -0.092020929 4281626054
-0.35542089 -0.031595234 -0.091430917 4281625290
-0.35527697 -0.030762274 -0.090841837 4281691338
-0.35513332 -0.029930675 -0.090253852 4281691848
-0.35521737 -0.029012168 -0.089985147 4281756872
-0.35507387 -0.028182734 -0.089398399 4281756101
-0.35493067 -0.027354723 -0.088812605 4281757380
-0.35501456 -0.026437633 -0.088544331 4281756360
-0.35532582 -0.025429051 -0.088592842 4281560521
-0.35518238 -0.024603231 -0.088007718 4281559229
-0.3552663 -0.023685953 -0.087739371 4281690300
-0.3551231 -0.022862276 -0.087155499 4281691586
-0.35498014 -0.022039957 -0.08657264 4281888195
-0.35506395 -0.021124067 -0.086304702 4281887678
-0.35492116 -0.020303871 -0.08572302 4281888189
-0.35523155 -0.019292112 -0.085768789 4281888703
-0.35576993 -0.018180799 -0.086128935 4282806976
-0.35585392 -0.017263042 -0.085860461 4282939049
-0.35662326 -0.016046237 -0.086536914 4284122019
-0.3576273 -0.014721504 -0.087534517 4284315271
-0.35863847 -0.013387314 -0.088539146 4282478720
-0.36036143 -0.011728943 -0.090519249 4282083484
-0.36115536 -0.010477316 -0.09121909 4281887394
-0.36171561 -0.0093267402 -0.091596343 4281821104
-0.36251679 -0.0080628376 -0.092302203 4281689013
-0.36308202 -0.0069025699 -0.092683069 4281687198
-0.36316818 -0.0059609883 -0.092407629 4281616790
-0.36349478 -0.0049071093 -0.092460468 4281543775
-0.363581 -0.0039645657 -0.092184745 4282789195
-0.36366725 -0.0030219313 -0.091908999 4283250789
-0.36351278 -0.0021940311 -0.091305673 4284243823
-0.36311877 -0.0014827605 -0.090377316 4284712862
-0.36272615 -0.00077399274 -0.089452267 4286546616
-0.36233497 -6.7712761e-05 -0.088530526 4287455883
-0.36194518 0.00063610787 -0.087612025 4284304499
-0.36155683 0.0013374952 -0.086696871 4282681534
-0.36140582 0.002153774 -0.086103991 4287151084
-0.36125511 0.0029686745 -0.085512213 4289841655
-0.3613404 0.0039009931 -0.085239477 4290169087
-0.36142573 0.0048333583 -0.084966719 4290364151
-0.36151102 0.0057657897 -0.084693961 4289377521
-0.36159632 0.0066983048 -0.084421173 4288450769
-0.36168164 0.0076308665 -0.084148347 4287392948
-0.36176696 0.0085634962 -0.083875529 4286270348
-0.36185229 0.0094962129 -0.083602689 4286265698
-0.36241144 0.010678882 -0.083964199 4286331481
-0.36297253 0.011865864 -0.08432696 4286201422
-0.36425522 0.013441492 -0.085652269 4286007380
-0.36530694 0.014901103 -0.086665906 4285354078
-0.3663663 0.01637134 -0.087686829 4284171354
-0.36792627 0.018120576 -0.089371547 4283906643
-0.37000373 0.020163065 -0.091740265 4283382861
-0.371604 0.021956064 -0.093469165 4283973949
-0.37322214 0.023769118 -0.095217288 4285480255
-0.37434065 0.025313897 -0.09629859 4285543234
-0.37546757 0.026870286 -0.097387925 4285675587
-0.37712884 0.028735168 -0.099181123 4285744198
-0.37827691 0.030319331 -0.1002916 4286136646
-0.37970161 0.032068521 -0.10176409 4285939532
-0.38113987 0.033834435 -0.10325056 4284692298
-0.38231871 0.035459552 -0.10439146 4284230709
-0.38405797 0.03741749 -0.10626642 4279969075
-0.38525951 0.039072331 -0.10742991 4279966495
-0.38647035 0.040740043 -0.1086024 4279901983
-0.38769063 0.042420857 -0.10978405 4279901474
-0.38920602 0.044284545 -0.11134891 4280228130
-0.39015996 0.0458223 -0.11217503 4280236070
-0.39140925 0.047543216 -0.11338462 4282197798
-0.39296111 0.049454637 -0.11498587 4282525223
-0.39512148 0.05174534 -0.11737645 4280820519
-0.3958126 0.053152595 -0.11784714 4280362025
-0.39650649 0.054565534 -0.11831965 4280627242
-0.39720321 0.055984229 -0.11879409 4280762201
-0.39790267 0.057408702 -0.11927038 4285565042
-0.36747211 -0.057554163 -0.12359057 4283847521
-0.36680281 -0.056784198 -0.1221994 4283052082
-0.3661373 -0.056018483 -0.12081601 4280295985
-0.36547548 -0.055256981 -0.11944029 4281020717
-0.36432201 -0.054637946 -0.11735183 4283782725
-0.36342442 -0.053955205 -0.1156389 4284649903
-0.36253342 -0.053277392 -0.11393852 4288654516
-0.36116573 -0.052744541 -0.11155002 4288521928
-0.36029109 -0.052077167 -0.10987992 4287734213
-0.35894799 -0.051555507 -0.10753505 4287398579
-0.35832477 -0.050827555 -0.10623491 4285546662
-0.3574706 -0.050174706 -0.10460342 4285347404
-0.35662252 -0.049526453 -0.10298357 4283777886
-0.35578054 -0.048882764 -0.10137533 4283524826
-0.35517415 -0.04817142 -0.10010893 4281693917
-0.35479987 -0.047391113 -0.099178225 4281759990
-0.35442698 -0.0466135 -0.098250881 4282352119
-0.35428315 -0.045764621 -0.097653486 4282352639
-0.35413963 -0.04491717 -0.097057208 4282615295
-0.35422391 -0.043995682 -0.096787669 4282612991
-0.35408056 -0.043150414 -0.096192628 4282614015
-0.35416478 -0.042229626 -0.09592329 4282611965
-0.35402161 -0.041386534 -0.095329463 4282480380
