# .PCD v0.7 - Point Cloud Data file format
VERSION 0.7
FIELDS x y z rgba
SIZE 4 4 4 4
TYPE F F F U
COUNT 1 1 1 1
WIDTH 996
HEIGHT 1
VIEWPOINT 0 0 0 1 0 0 0
POINTS 996
DATA ascii
-0.35894617 0.0017001323 -0.094531186 4282264927
-0.35898116 0.0026795096 -0.094378106 4283640665
-0.35901618 0.0036589755 -0.094225012 4284035138
-0.35881513 0.0045577651 -0.093724355 4284169019
-0.35861444 0.0054550059 -0.09322457 4284169314
-0.35817924 0.0062686088 -0.0923803 4283914097
-0.35797969 0.0071619828 -0.091883048 4283778937
-0.35824907 0.0082210666 -0.092075102 4284107392
-0.3585189 0.0092821233 -0.092267461 4284235106
-0.35878927 0.010345204 -0.092460193 4286397524
-0.36000788 0.011759103 -0.094043382 4287514972
-0.36028111 0.012830407 -0.094238728 4288105313
-0.36055481 0.013903732 -0.094434455 4288498004
-0.36106846 0.0150699 -0.094981134 4286135885
-0.36134362 0.016148372 -0.095178038 4284559683
-0.36161932 0.017228883 -0.095375292 4284231230
-0.36237854 0.01850001 -0.0962791 4283969852
-0.36387402 0.020066679 -0.098257512 4284953403
-0.36588195 0.021848137 -0.10098208 4285871164
-0.36741668 0.02345431 -0.10301284 4286395709
-0.36871493 0.024975864 -0.1046962 4286855745
-0.3697696 0.026407264 -0.10602247 4286594373
-0.37109011 0.027955949 -0.10773446 4286330693
-0.37216291 0.029411124 -0.10908363 4285542725
-0.37376907 0.031098103 -0.11120757 4284493119
-0.37619454 0.033143952 -0.11452115 4283836216
-0.37676832 0.03441608 -0.11513829 4282654769
-0.3778851 0.035926394 -0.11654374 4281867558
-0.37873781 0.037329935 -0.11756391 4280427052
-0.3793216 0.038621645 -0.11819238 4280229178
-0.3799077 0.039918523 -0.11882335 4279770684
-0.3807722 0.041343708 -0.11985718 4279838272
-0.38081011 0.042403381 -0.11969154 4279970106
-0.38140202 0.043714285 -0.12032847 4280098852
-0.38171786 0.044903211 -0.12056485 4280622371
-0.38231328 0.046223085 -0.12120534 4280557857
-0.38263097 0.04741817 -0.12144323 4280163105
-0.38323003 0.048747104 -0.12208739 4280163873
-0.38354957 0.049948391 -0.12232681 4280032032
-0.38386968 0.051152121 -0.12256669 4280099362
-0.38419053 0.052358352 -0.12280707 4281671969
-0.38451198 0.053567041 -0.12304789 4281684817
-0.38540322 0.055055149 -0.12410968 4284503379
-0.37534368 -0.050571807 -0.13286428 4283708212
-0.37511158 -0.049557909 -0.13228953 4281614931
-0.37380907 -0.048684619 -0.13008358 4283005090
-0.37120473 -0.047994848 -0.12589659 4286415513
-0.3681376 -0.047388379 -0.12100911 4285624451
-0.36414337 -0.046935841 -0.11471567 4283006882
-0.36026701 -0.046496566 -0.108608 4282875903
-0.35862666 -0.045754988 -0.10590576 4282352124
-0.35724229 -0.044987019 -0.10359509 4282812657
-0.35727724 -0.044008397 -0.10344215 4284324333
-0.35684234 -0.043104712 -0.10257602 4284846556
-0.35687724 -0.042127717 -0.10242335 4286942663
-0.3566778 -0.041189857 -0.10191532 4286946156
-0.35647872 -0.040253606 -0.10140821 4286877558
-0.35604686 -0.039359741 -0.10054886 4286682796
-0.35538465 -0.038510423 -0.099341549 4285499574
-0.35403648 -0.037791334 -0.097097419 4285038330
-0.35407099 -0.036825355 -0.096946448 4281889271
-0.3541055 -0.035859283 -0.09679547 4281887968
-0.35436952 -0.034848724 -0.096991226 4281823969
-0.35602272 -0.033562221 -0.099283978 4281825260
-0.35769695 -0.032259244 -0.10160596 4281890283
-0.35844111 -0.031134386 -0.10252248 4281889246
-0.35895121 -0.030052966 -0.10308501 4281758942
-0.35922456 -0.029018164 -0.10329008 4281757915
-0.35949838 -0.027981408 -0.10349548 4281889756
-0.35929492 -0.02704775 -0.10298214 4281889509
-0.35767126 -0.026433429 -0.10033274 4281890021
-0.35723609 -0.025561245 -0.099472828 4281890016
-0.35680249 -0.024692129 -0.098616071 4282087648
-0.35637048 -0.023826104 -0.097762398 4282086617
-0.35640529 -0.022852112 -0.097610183 4282021849
-0.3564401 -0.021878032 -0.097457938 4282021342
-0.35624197 -0.020961229 -0.096956454 4282087646
-0.35627675 -0.019987879 -0.096804351 4282086107
-0.35631153 -0.019014474 -0.096652202 4282086875
-0.35634631 -0.018040977 -0.096500069 4282086618
-0.35638106 -0.017067419 -0.096347935 4282022106
-0.35641587 -0.016093777 -0.096195757 4282021338
-0.35621798 -0.015182585 -0.095695816 4281956570
-0.35602048 -0.014272978 -0.095196769 4281955798
-0.35582328 -0.013364926 -0.0946986 4282022358
-0.355858 -0.012393654 -0.094546795 4282086356
-0.35566115 -0.011487968 -0.09404964 4282151636
-0.35569581 -0.010517424 -0.093897946 4282217942
-0.35573047 -0.0095467856 -0.093746267 4282021590
-0.35599682 -0.0085078171 -0.093939506 4282021075
-0.35603151 -0.0075361538 -0.09378767 4282086867
-0.35629833 -0.006494252 -0.093981095 4282086590
-0.35633308 -0.0055215973 -0.09382908 4282283194
-0.3566004 -0.0044767857 -0.094022684 4282348749
-0.35663518 -0.0035031035 -0.093870506 4281955280
-0.35713655 -0.0023812735 -0.094410934 4281886398
-0.35740533 -0.0013305618 -0.094605565 4281755578
-0.35767463 -0.00027788317 -0.094800547 4281755322
-0.35770956 0.0006996289 -0.094647773 4282082490
-0.35774449 0.0016772036 -0.094494991 4282141067
-0.35777941 0.0026548665 -0.094342194 4282919550
-0.35781431 0.0036325923 -0.094189413 4283181120
-0.35784924 0.0046104025 -0.094036594 4283508779
-0.3578842 0.0055882754 -0.093883768 4283642161
-0.35745031 0.0064017004 -0.093038313 4283838260
-0.35725135 0.0072950171 -0.092540495 4283905082
-0.35752004 0.0083542578 -0.09273316 4284493884
-0.35778922 0.0094154971 -0.092926122 4284692810
-0.35829407 0.01056478 -0.09346617 4286793040
-0.35974935 0.012068926 -0.09540578 4287908182
-0.36026147 0.013231618 -0.095954277 4287970905
-0.36029673 0.014218144 -0.095800094 4288036684
-0.36105087 0.015478475 -0.096703447 4286331716
-0.36132675 0.016560333 -0.096902512 4285215548
-0.36160317 0.017644266 -0.097101919 4284755766
-0.36236441 0.01892012 -0.098013014 4284428344
-0.36361882 0.020396519 -0.09964674 4285281081
-0.36562857 0.022183828 -0.10238679 4286002494
-0.36716476 0.023794945 -0.10442931 4286396483
-0.3684642 0.02532104 -0.10612252 4286790469
-0.36951992 0.026756493 -0.10745672 4286527815
-0.37084171 0.028309841 -0.10917877 4286264390
-0.37191558 0.029769221 -0.11053608 4285674052
-0.37352335 0.031461529 -0.11267248 4284820795
-0.37568364 0.033400632 -0.11561392 4283769391
-0.37652576 0.034789924 -0.11662647 4282128169
-0.3773728 0.036187388 -0.11764493 4281604638
-0.37849736 0.037712123 -0.11906703 4280294431
-0.37908182 0.039007194 -0.11969974 4280230176
-0.37966856 0.040307391 -0.12033486 4279904036
-0.38053405 0.041736577 -0.12137523 4279903022
-0.38057199 0.0427984 -0.12120927 4280033071
-0.38116455 0.044112738 -0.12185048 4280164913
-0.38148075 0.045304433 -0.1220888 4280623921
-0.38179758 0.046498582 -0.1223276 4280558382
-0.38239497 0.047825664 -0.12297354 4280165934
-0.38299468 0.0491581 -0.12362198 4280164138
-0.3841629 0.050764076 -0.12509467 4280033579
-0.38391793 0.051703848 -0.12451557 4280033862
-0.38423973 0.052914258 -0.12475862 4281618757
-0.38456216 0.054127153 -0.12500216 4281685357
-0.3742533 -0.051511239 -0.13332433 4282138468
-0.3737548 -0.050530352 -0.13233943 4282594871
-0.37272644 -0.049620468 -0.13054369 4283656541
-0.37249848 -0.048614275 -0.1299751 4284716976
-0.36784855 -0.048203278 -0.12263989 4287463333
-0.36534956 -0.04753093 -0.11860215 4286666886
-0.36339125 -0.046801087 -0.11539493 4284181658
-0.35976642 -0.046328776 -0.10964464 4283793876
-0.3583656 -0.045552023 -0.10729646 4282548444
-0.35698009 -0.044783726 -0.10497398 4282614519
-0.35654488 -0.043877006 -0.10410352 4282946036
-0.35564449 -0.04304852 -0.10252444 4283075306
-0.3556793 -0.042073265 -0.10237207 4283469022
-0.3554813 -0.041137092 -0.10186501 4283403944
-0.35505161 -0.040242463 -0.10100566 4282944686
-0.35462344 -0.039350975 -0.10014939 4282811344
-0.35419688 -0.03846265 -0.099296212 4282025174
-0.35354263 -0.037619453 -0.098097719 4282021370
-0.35334831 -0.036695346 -0.097599044 4281954807
-0.3533828 -0.035729241 -0.097448081 4281953760
-0.35364616 -0.034718502 -0.097644433 4281824480
-0.35436991 -0.033614632 -0.098538674 4281824233
-0.3562611 -0.032269437 -0.10120154 4281758952
-0.35723454 -0.031099189 -0.10247096 4281757659
-0.35797811 -0.029969994 -0.1033907 4281823963
-0.35825026 -0.028936032 -0.10359586 4281822683
-0.35852295 -0.027900113 -0.10380141 4281758427
-0.3580834 -0.027019739 -0.1029297 4281758433
-0.35670453 -0.026354043 -0.1006393 4281758944
-0.35650524 -0.025429295 -0.10013273 4281758424
-0.35560748 -0.024668531 -0.098572128 4282086872
-0.35517839 -0.023804054 -0.097720072 4282086363
-0.35521308 -0.022831758 -0.097568154 4282087387
-0.35547957 -0.021802938 -0.097765543 4282087133
-0.35528252 -0.020886963 -0.09726426 4282153693
-0.35531721 -0.019914461 -0.097112305 4282152668
-0.35581613 -0.018823545 -0.097658798 4282152924
-0.35585091 -0.017849132 -0.097506545 4282151899
-0.35588568 -0.016874632 -0.097354271 4282087899
-0.35592046 -0.01590007 -0.097202003 4282086619
-0.35549083 -0.015050828 -0.096352331 4281891035
-0.35529396 -0.014141276 -0.095852695 4281890524
-0.35509741 -0.013233282 -0.095353954 4282022620
-0.35513207 -0.012261971 -0.095202178 4282021590
-0.35493585 -0.011356342 -0.094704442 4282152405
-0.35474005 -0.010452309 -0.094207622 4282152661
-0.35500517 -0.0094150938 -0.094401099 4282087125
-0.35503981 -0.0084443334 -0.09424942 4282086359
-0.35507447 -0.0074735186 -0.094097711 4282087127
-0.35510913 -0.0065026414 -0.09394601 4282086858
-0.35514379 -0.0055316789 -0.093794286 4282414536
-0.35517845 -0.004560655 -0.093642563 4282479307
-0.35521311 -0.0035895433 -0.093490809 4281954252
-0.35547894 -0.0025446871 -0.093683787 4281820348
-0.35597727 -0.0014230309 -0.094222881 4281690297
-0.3562445 -0.00037322822 -0.094417006 4281691071
-0.35651225 0.0006785313 -0.094611466 4281888449
-0.35654706 0.0016543999 -0.094458997 4281952671
-0.35681531 0.0027090968 -0.094653614 4281942677
-0.35685018 0.0036859948 -0.094500959 4281935175
-0.35711896 0.0047436501 -0.094695836 4282524461
-0.35691991 0.0056400052 -0.094195642 4282787890
-0.35672128 0.0065348037 -0.093696386 4283706164
-0.35629022 0.0073451372 -0.092852801 4284100155
-0.35679096 0.0084874593 -0.093391277 4285149246
-0.35705945 0.0095488559 -0.09358485 4285613650
-0.35756296 0.010698441 -0.094126105 4287648603
-0.35901418 0.012203389 -0.096069366 4288694360
-0.35952497 0.013366359 -0.096619092 4287576918
-0.35979867 0.014443222 -0.096817546 4286920781
-0.36055213 0.015705395 -0.097724557 4286789446
-0.36058748 0.016695729 -0.097569808 4286658367
-0.36086318 0.017779822 -0.097769849 4286002234
-0.36162236 0.019056087 -0.098682798 4285542715
-0.36287329 0.020533215 -0.10031965 4286002236
-0.36537418 0.022520762 -0.10379683 4286396993
-0.36716369 0.02423887 -0.1062222 4286462790
-0.36846682 0.025771391 -0.10792871 4286593094
-0.36952555 0.027212709 -0.10927359 4286395974
-0.37085107 0.028772745 -0.11100925 4286067781
-0.37192807 0.030238122 -0.11237749 4286067523
-0.37327665 0.031826325 -0.11414307 4286131515
-0.37517169 0.033657834 -0.11670892 4283965998
-0.37628219 0.035165235 -0.11812053 4279834152
-0.37713015 0.036566563 -0.11914536 4279834654
-0.37798309 0.037976231 -0.12017616 4279770656
-0.37884104 0.039394222 -0.12121302 4280100131
-0.37942845 0.040697817 -0.12185242 4280952358
-0.38001817 0.042006634 -0.12249433 4280886065
-0.38033286 0.043194979 -0.12273305 4280754481
-0.38120458 0.044639986 -0.12378567 4280690227
-0.38152173 0.045835808 -0.12402666 4280427313
-0.38211969 0.047164209 -0.12467721 4280493102
-0.38328442 0.04876212 -0.12615414 4281018158
-0.38332278 0.049837086 -0.12598619 4281019178
-0.38392794 0.051181614 -0.12664455 4281082411
-0.38453549 0.052531622 -0.12730557 4281092422
-0.38485947 0.053748969 -0.12755258 4283585606
-0.3726691 -0.051467143 -0.13279866 4281674583
-0.37111881 -0.050619729 -0.13019133 4282798910
-0.36958641 -0.04978206 -0.12761407 4285372522
-0.37014443 -0.048681814 -0.12825453 4286160843
-0.36505738 -0.048339963 -0.12021606 4287859897
-0.36260322 -0.04767134 -0.11623125 4286929292
-0.36141112 -0.046841517 -0.11418857 4284630668
-0.35926485 -0.046160664 -0.11068325 4284117389
-0.35786545 -0.04538409 -0.1083272 4282745254
-0.35671684 -0.044579677 -0.10635798 4282744575
-0.35628131 -0.043671638 -0.10548343 4282681087
-0.35561362 -0.04280461 -0.10425393 4282747391
-0.35541505 -0.041865241 -0.1037438 4283141887
-0.35521689 -0.040927522 -0.1032346 4283010559
-0.35478687 -0.040031578 -0.10237124 4282748415
-0.35412744 -0.03917966 -0.10115791 4282614015
-0.35370135 -0.038290773 -0.10030218 4282089726
-0.35304782 -0.037447248 -0.099099912 4282086395
-0.35285375 -0.036522433 -0.098599873 4281758200
-0.35288823 -0.035555396 -0.098448783 4281757663
-0.35269448 -0.034632936 -0.097949781 4281825248
-0.35295722 -0.033621117 -0.098146588 4281823973
-0.35344955 -0.032560781 -0.098692641 4281693412
-0.35348409 -0.031591732 -0.09854126 4281692119
-0.35397831 -0.030525692 -0.099089034 4281823703
-0.35401294 -0.029554717 -0.098937325 4281822683
-0.35427803 -0.028533343 -0.099135868 4281692635
-0.3540822 -0.027612586 -0.098633915 4281692124
-0.35388669 -0.026693406 -0.098132819 4281693404
-0.35415146 -0.025670158 -0.098330453 4281691598
-0.35441673 -0.024644978 -0.098528393 4281823695
-0.35422078 -0.023727437 -0.098026939 4281823454
-0.35425541 -0.022755958 -0.097875156 4281956062
-0.35452077 -0.021727938 -0.098072648 4281956059
-0.35432473 -0.020812823 -0.097571574 4282088667
-0.35459015 -0.019782897 -0.097768769 4282087390
-0.3550877 -0.018691706 -0.098316483 4282088158
-0.35512245 -0.017717225 -0.09816426 4282086877
-0.3551572 -0.016742691 -0.098012008 4282022621
-0.35519198 -0.015768096 -0.09785974 4282021341
-0.35499495 -0.014856279 -0.097357862 4281956573
-0.35479832 -0.013946019 -0.096856885 4281956323
-0.35460207 -0.013037375 -0.096356802 4282023139
-0.35463673 -0.012065094 -0.096204907 4282021848
-0.35444075 -0.01115882 -0.095705837 4282087895
-0.35401532 -0.010320728 -0.094861902 4282087380
-0.35427976 -0.0092833601 -0.09505599 4282152660
-0.35408452 -0.0083809821 -0.094558857 4282152156
-0.35411909 -0.0074109747 -0.09440732 4282087389
-0.35415372 -0.0064409119 -0.094255753 4282087130
-0.35395873 -0.005541706 -0.093759708 4282283737
-0.35376409 -0.0046440251 -0.093264572 4282281929
-0.35379863 -0.0036754978 -0.093113266 4281821382
-0.35429212 -0.002559975 -0.093649425 4281755066
-0.35455683 -0.0015150155 -0.093842335 4281756343
-0.35482204 -0.00046807341 -0.094035618 4281756614
-0.35508776 0.00058081187 -0.094229221 4282612426
-0.35535392 0.0016316532 -0.094423153 4282807488
-0.35562056 0.0026844926 -0.094617441 4282145980
-0.35588774 0.0037392939 -0.094812073 4281938004
-0.35615534 0.0047960943 -0.095007025 4282458161
-0.35595736 0.0056916294 -0.094507046 4282656307
-0.35575971 0.0065856292 -0.094007954 4283705652
-0.35556245 0.0074780742 -0.093509749 4284165950
-0.35606182 0.0086206729 -0.094049454 4285347394
-0.35632962 0.0096822521 -0.094243638 4286008419
-0.35683176 0.010832119 -0.094786122 4287652980
-0.35827899 0.012337825 -0.096732989 4288500318
-0.3587884 0.01350111 -0.097283944 4287707728
-0.35906139 0.014578161 -0.097483039 4287182668
-0.3598128 0.015840745 -0.098391905 4286920266
-0.36008775 0.016924052 -0.098592713 4286723911
-0.3601231 0.017915422 -0.098437846 4286265668
-0.36088023 0.019192096 -0.099352658 4285872197
-0.36164153 0.020475941 -0.10027253 4286200134
-0.36511877 0.022858994 -0.1052122 4286463563
-0.36690995 0.02458261 -0.10765152 4286528848
-0.36821428 0.026119728 -0.10936803 4286527818
-0.36927405 0.027565178 -0.11072094 4286330179
-0.37060091 0.029129911 -0.11246686 4286133057
-0.37167895 0.030599497 -0.1138433 4286067774
-0.37302893 0.03219258 -0.11561941 4286066485
-0.37439197 0.033801176 -0.11741265 4283900199
-0.3754994 0.035309147 -0.11882704 4279834405
-0.37661549 0.036829006 -0.12025242 4279835168
-0.37746772 0.038240869 -0.12128752 4279836968
-0.37832496 0.039661102 -0.1223287 4280099643
-0.37891188 0.040966529 -0.12297092 4280885055
-0.37977764 0.042401988 -0.12402218 4280887631
-0.37981564 0.04346706 -0.12385575 4280760910
-0.38096547 0.045042261 -0.12532221 4280690508
-0.38128293 0.046240889 -0.12556516 4280428872
-0.38188159 0.04757278 -0.12622017 4280493614
-0.38389942 0.049575873 -0.12895508 4281022768
-0.38479495 0.051062211 -0.13004221 4281019725
-0.38860819 0.053947978 -0.13540143 4281159244
-0.38953274 0.055472091 -0.13652594 4281158248
-0.3679283 -0.052829701 -0.12759459 4284168024
-0.36719391 -0.051894113 -0.1262407 4280563288
-0.36671883 -0.050932012 -0.12528911 4283197528
-0.36599138 -0.050006136 -0.12394822 4289045120
-0.36577407 -0.049018573 -0.12339672 4288915927
-0.36329928 -0.04833981 -0.11935947 4288518599
-0.36111504 -0.047639489 -0.11577474 4287657120
-0.35969099 -0.046846833 -0.1133663 4285416855
-0.3585223 -0.046027597 -0.11135386 4284828538
-0.35736427 -0.045215812 -0.10935987 4283133590
-0.35645258 -0.044374872 -0.10774712 4282940138
-0.35625198 -0.04342813 -0.10723056 4282155758
-0.35558248 -0.042559355 -0.10599293 4282221564
-0.35538337 -0.041617606 -0.10547985 4282550268
-0.35495147 -0.040717166 -0.10460928 4282550526
-0.35452113 -0.039819922 -0.10374181 4282418173
-0.35386118 -0.038966998 -0.1025226 4282415864
-0.35343477 -0.038076855 -0.10166286 4282219255
-0.35232377 -0.037317052 -0.099753767 4282151155
-0.35213029 -0.03639229 -0.099253155 4281496561
-0.35216475 -0.035425186 -0.099102095 4281561827
-0.35197166 -0.034502842 -0.098602504 4281824996
-0.35200608 -0.033536464 -0.098451562 4281823717
-0.35204053 -0.032570053 -0.098300606 4281627620
-0.35207498 -0.03160353 -0.09814962 4281626586
-0.35233712 -0.030588711 -0.098346613 4281823194
-0.3523716 -0.029621197 -0.098195471 4281822681
-0.35263428 -0.028603498 -0.09839268 4281626072
-0.35244057 -0.027685963 -0.097893178 4281625299
-0.35224724 -0.026769955 -0.097394601 4281626067
-0.35228169 -0.025803016 -0.097243555 4281624516
-0.35300109 -0.02467528 -0.098135814 4281494981
-0.3528069 -0.023760151 -0.097636119 4281494481
-0.3530702 -0.022735845 -0.097832866 4281759185
-0.35333398 -0.021709589 -0.098030031 4281759194
-0.35336858 -0.020738807 -0.097878382 4282022362
-0.3536329 -0.019709704 -0.098075718 4282022112
-0.35412821 -0.018619312 -0.098623477 4281956832
-0.3541629 -0.017645679 -0.098471403 4281956319
-0.35442868 -0.016610745 -0.098669775 4281957087
-0.35423231 -0.015698191 -0.098167181 4281955807
-0.35403633 -0.014787223 -0.097665504 4282022111
-0.35384071 -0.013877809 -0.09716475 4282022115
-0.35364544 -0.012969983 -0.096664853 4282022883
-0.35368007 -0.011998548 -0.096513107 4282021597
-0.35325599 -0.011158998 -0.09566775 4281956572
-0.35306177 -0.010255837 -0.095170505 4281956568
-0.35309631 -0.0092868172 -0.095019139 4282218455
-0.35313085 -0.0083177099 -0.094867751 4282283740
-0.35316539 -0.0073485444 -0.094716363 4282088157
-0.35297143 -0.0064493525 -0.094220407 4282087386
-0.35277787 -0.005551686 -0.093725324 4282020825
-0.3525846 -0.0046555772 -0.093231104 4282018246
-0.35261905 -0.0036887254 -0.093080081 4281624770
-0.35288131 -0.0026485568 -0.093271844 4281559228
-0.35314402 -0.0016064597 -0.093463928 4281820858
-0.35363632 -0.00048699521 -0.094000727 4281887672
-0.3539004 0.00056004385 -0.094193943 4283730359
-0.35416502 0.001609036 -0.094387516 4284253121
-0.35466093 0.0027385666 -0.094927885 4282606532
-0.35492694 0.0037925302 -0.095122628 4282005859
-0.35519344 0.0048484625 -0.095317736 4282328126
-0.35522825 0.0058247214 -0.095165223 4282459960
-0.35503122 0.0067186346 -0.094665557 4283706933
-0.35506597 0.0076941312 -0.094513178 4284298304
-0.35533261 0.0087538967 -0.09470769 4285937733
-0.35559973 0.0098156584 -0.094902486 4286796638
-0.35610053 0.010965833 -0.095446177 4287651435
-0.35777995 0.012560727 -0.097749509 4288106592
-0.35828885 0.013725549 -0.098302849 4287971417
-0.35832402 0.014713112 -0.098148599 4287904092
-0.35883489 0.015884137 -0.098703645 4287380060
-0.35887015 0.016873663 -0.098549083 4286921296
-0.359144 0.017957052 -0.098749869 4286986310
-0.35989767 0.019232733 -0.099664733 4286988870
-0.36089724 0.020612372 -0.10094433 4286923589
-0.36511183 0.023299409 -0.10700408 4286792009
-0.36665517 0.024927655 -0.10908626 4286529870
-0.36821607 0.026574552 -0.11119216 4286265673
-0.36927879 0.028025903 -0.11255594 4286330435
-0.37086979 0.029706573 -0.11470197 4286395457
-0.37169063 0.031073106 -0.11570325 4286133566
-0.37278014 0.032560263 -0.11710151 4285672758
-0.37387812 0.034059037 -0.11851058 4283637287
-0.37498462 0.035569534 -0.11993058 4279703589
-0.37609974 0.037091941 -0.12136171 4279967265
-0.37722364 0.03862638 -0.12280403 4280622887
-0.37808183 0.040050585 -0.12385175 4280426298
-0.37866941 0.041359421 -0.12449826 4279902015
-0.37953615 0.042798955 -0.12555616 4280101710
-0.37985158 0.043992911 -0.12579897 4281023823
-0.3810049 0.045574922 -0.12727748 4281087308
-0.38160416 0.046908107 -0.12793717 4281346633
-0.38277143 0.048511457 -0.12943308 4281347630
-0.3845205 0.050397843 -0.1317842 4281547568
-0.38542244 0.051894195 -0.1328854 4281551182
-0.38867193 0.054522317 -0.1374394 4283191630
-0.39019474 0.056340434 -0.13944905 4283195754
-0.36613414 -0.052812658 -0.1266975 4283512378
-0.36540765 -0.051880617 -0.12535134 4281091164
-0.36493772 -0.050922163 -0.12440509 4283859356
-0.36396703 -0.050032198 -0.12268196 4289180599
-0.362259 -0.049247976 -0.11981598 4288983025
-0.3613084 -0.048373342 -0.11812782 4288652262
-0.35987794 -0.047573652 -0.11569728 4287989451
-0.35870394 -0.046747997 -0.11366656 4286339754
-0.3580189 -0.045859031 -0.11239509 4285678167
-0.35709974 -0.045011066 -0.11076228 4283844722
-0.35618728 -0.044169303 -0.10914141 4283461058
-0.3557511 -0.043258559 -0.10825857 4282154190
-0.35555109 -0.042312741 -0.10774156 4282154743
-0.35511726 -0.041407771 -0.10686368 4282285048
-0.35468501 -0.040506043 -0.10598899 4282220283
-0.35425436 -0.039607506 -0.10511749 4282151928
-0.35359392 -0.038753547 -0.10389233 4282152940
-0.35293707 -0.03790414 -0.10267382 4282020331
-0.35205531 -0.037101876 -0.10110986 4281955301
-0.35163409 -0.036218897 -0.10025651 4281562854
-0.35144123 -0.035295002 -0.099755451 4281561578
-0.35102221 -0.034417525 -0.098906845 4281759210
-0.35105661 -0.033451982 -0.098756045 4281758438
-0.3508648 -0.032532852 -0.098257661 4281693157
-0.35067338 -0.031615283 -0.097760163 4281691870
-0.35070771 -0.030651262 -0.097609609 4281691357
-0.35074201 -0.029687185 -0.097459041 4281690581
-0.35077634 -0.028723018 -0.097308464 4281559252
-0.35058516 -0.0278094 -0.096812151 4281560262
-0.35039431 -0.026897347 -0.0963168 4281689030
-0.35065377 -0.025882443 -0.096511215 4281689270
-0.35159299 -0.024705427 -0.097745471 4281427894
-0.35162744 -0.023738276 -0.097594433 4281428927
-0.35211691 -0.022660311 -0.098138943 4281758655
-0.35237956 -0.021634888 -0.098336168 4281759193
-0.35264271 -0.02060755 -0.098533764 4281956057
-0.35267729 -0.01963664 -0.098382138 4281956068
-0.35317042 -0.018547036 -0.098929979 4281891044
-0.35320505 -0.017574253 -0.098778062 4281890529
-0.35346967 -0.016540155 -0.098976538 4281957089
-0.35350433 -0.015566314 -0.098824449 4281956066
-0.35330901 -0.014655404 -0.09832219 4282022114
-0.35311401 -0.013746073 -0.097820863 4282021860
-0.35291937 -0.012838306 -0.097320378 4282022116
-0.35295397 -0.011866807 -0.097168647 4282021859
-0.35275963 -0.01096143 -0.096669197 4281956323
-0.35256571 -0.010057592 -0.096170664 4281956317
-0.35214433 -0.0092228372 -0.095327407 4282152924
-0.35217884 -0.0082545681 -0.095176183 4282217948
-0.35221329 -0.0072862073 -0.095024951 4282088924
-0.35179335 -0.006457746 -0.094185255 4282021337
-0.35160115 -0.00556162 -0.093691118 4281888473
-0.35140926 -0.0046670511 -0.093197793 4281887168
-0.35144362 -0.003701899 -0.093047053 4281625274
-0.3519311 -0.0025903275 -0.093581229 4281625279
-0.35219267 -0.0015490158 -0.093773462 4281818817
-0.35245475 -0.00050581124 -0.093966 4281888412
-0.35294577 0.00061575929 -0.094503708 4284392594
-0.35320923 0.0016638845 -0.094697379 4285172421
-0.35370296 0.0027925647 -0.095237859 4282804950
-0.35396782 0.0038456833 -0.095432706 4282007420
-0.35446426 0.0049814987 -0.095975958 4282394457
-0.35449904 0.0059577944 -0.095823489 4282526018
-0.35453379 0.0069341809 -0.095670998 4284037176
-0.35433739 0.007827213 -0.095170863 4284627269
-0.35483497 0.0089715701 -0.095714055 4286265932
-0.35510185 0.010034538 -0.095910005 4287122768
-0.35536924 0.011099528 -0.096106298 4287644755
-0.35704392 0.01269534 -0.098413877 4287971430
-0.35755146 0.013860448 -0.098968454 4287843443
-0.35758662 0.014848044 -0.098814219 4287775883
-0.35785875 0.015927503 -0.099014908 4287449246
-0.35789394 0.016916156 -0.098860502 4287121780
-0.35840446 0.018092522 -0.099417388 4287117646
-0.3591561 0.019368635 -0.10033408 4287118920
-0.36015287 0.020748816 -0.10161619 4287054146
-0.36510482 0.023742322 -0.1088061 4286988098
-0.36665246 0.025377773 -0.11090445 4286660418
-0.36796173 0.026926102 -0.11264469 4286330691
-0.36928353 0.028489288 -0.11440153 4286396228
-0.37087911 0.030177545 -0.11656442 4286395971
-0.37143975 0.03143787 -0.11718271 4286068033
-0.37200257 0.032703143 -0.11780331 4285540407
-0.3733632 0.034317438 -0.11961067 4283768613
-0.37420091 0.035713635 -0.12063791 4279769899
-0.37558293 0.037355434 -0.12247326 4279967287
-0.37697858 0.039013423 -0.12432659 4280623154
-0.37783766 0.04044164 -0.12538089 4280491811
-0.3787019 0.041878395 -0.12644143 4279902247
-0.37957126 0.043323819 -0.12750825 4280100663
-0.37988767 0.044521883 -0.12775375 4281019450
-0.3813256 0.046240777 -0.12966105 4281087813
-0.38164565 0.047449119 -0.12991008 4281350469
-0.38367185 0.049461417 -0.13268477 4281347651
-0.38601723 0.051639911 -0.13592847 4281549123
-0.38751715 0.053432148 -0.13791811 4281551717
-0.38992536 0.055672459 -0.14124802 4283326052
-0.3914656 0.05750972 -0.14329185 4283393145
-0.36609533 -0.053612504 -0.12874636 4281417045
-0.36460614 -0.052765764 -0.12620197 4281937721
-0.36363485 -0.051867235 -0.12446883 4282738015
-0.36342034 -0.050880764 -0.12391848 4285051049
-0.36245811 -0.049993444 -0.12220208 4289509570
-0.36076474 -0.049211618 -0.11934734 4289378542
-0.35982233 -0.048339501 -0.11766567 4288983269
-0.35840413 -0.047542199 -0.1152445 4288783571
-0.35747921 -0.046684194 -0.11359358 4288310200
-0.35679883 -0.045796946 -0.11232469 4287580017
-0.35588574 -0.044950768 -0.11069512 4285415550
-0.35497943 -0.044110674 -0.1090775 4284568486
-0.35478011 -0.0431641 -0.10855979 4282086071
-0.35434765 -0.042257596 -0.10768044 4282022133
-0.35391679 -0.041354313 -0.10680428 4281694710
-0.35348752 -0.040454257 -0.10593133 4281692924
-0.35282913 -0.039598018 -0.10470397 4281693177
-0.35217437 -0.038746342 -0.10348327 4281693165
-0.3515231 -0.037899218 -0.10226921 4281693421
-0.35110238 -0.03701406 -0.10141301 4281694187
-0.35045698 -0.036175247 -0.10020997 4281694186
-0.35026553 -0.035253014 -0.099709891 4281692394
-0.34962466 -0.034421828 -0.09851566 4281627881
-0.34943464 -0.033504322 -0.09801887 4281627365
-0.34902143 -0.032634545 -0.097177871 4281757924
-0.34883249 -0.031720947 -0.096683599 4281757148
-0.34864387 -0.030808888 -0.096190184 4281428700
-0.34867796 -0.029849907 -0.096040435 4281426896
-0.34871209 -0.028890869 -0.095890678 4281494992
-0.34852374 -0.027981954 -0.095398307 4281495759
-0.34878036 -0.026972562 -0.095591113 4281756110
-0.34903744 -0.025961287 -0.095784195 4281753530
-0.34929493 -0.024948148 -0.095977604 4281231546
-0.35000172 -0.023824997 -0.096860923 4281232587
-0.35071233 -0.022695726 -0.097749025 4281758923
-0.35119972 -0.021616738 -0.098293297 4281758939
-0.35146129 -0.020591168 -0.098490536 4281824731
-0.35172331 -0.019563667 -0.098688066 4281823969
-0.35198587 -0.018534278 -0.098885976 4281825249
-0.35224888 -0.017502908 -0.099084243 4281824482
-0.35251233 -0.01646965 -0.099282831 4282021858
-0.35231805 -0.015558768 -0.098780647 4282021858
-0.35212409 -0.014649445 -0.09827935 4282022114
-0.35215864 -0.013678059 -0.098127678 4282021603
-0.35196501 -0.012771137 -0.097627379 4282087907
-0.35199955 -0.011800477 -0.097475819 4282087908
-0.35157883 -0.010961945 -0.096629515 4282022116
-0.35138625 -0.010059669 -0.096131921 4282021344
-0.35119402 -0.0091589596 -0.095635191 4282087647
-0.35100213 -0.008259776 -0.095139347 4282086621
-0.35103655 -0.0072931265 -0.094988383 4281956829
-0.35061941 -0.0064660753 -0.094150268 4281954517
-0.35042858 -0.0055715134 -0.093657054 4281626068
-0.35023808 -0.004678492 -0.09316472 4281559746
-0.35027236 -0.003715001 -0.093014285 4281691070
-0.35075676 -0.0026053921 -0.093547396 4281691840
-0.35124299 -0.0014917026 -0.094082475 4281820353
-0.35150394 -0.00044931291 -0.094275162 4281826226
-0.35199276 0.00067138072 -0.09481293 4285900206
-0.35248336 0.0017962019 -0.095352635 4287268044
-0.35297576 0.0029251543 -0.095894322 4283525845
-0.35323992 0.003978428 -0.096089788 4282009728
-0.35373503 0.0051145498 -0.096634246 4282526559
-0.35376978 0.0060909069 -0.096481778 4282788677
-0.35380453 0.0070673279 -0.096329309 4284757818
-0.35383928 0.0080438359 -0.096176818 4285676360
-0.35433635 0.0091896923 -0.096722357 4287249488
-0.35460302 0.010253856 -0.09691941 4288101968
-0.35510284 0.011407007 -0.09746775 4287642192
-0.35701504 0.013096907 -0.10014432 4287380064
-0.35728684 0.014175631 -0.10034644 4287448427
-0.35732204 0.015165104 -0.10019193 4287449216
-0.35735723 0.016154664 -0.1000374 4287712146
-0.35739246 0.017144287 -0.099882878 4287912047
-0.35814056 0.018416559 -0.10080006 4287777104
-0.3588928 0.019695964 -0.10172231 4287641417
-0.35989046 0.021080008 -0.10301194 4287773763
-0.36534905 0.024290258 -0.11099575 4287904835
-0.36664963 0.025830444 -0.1127331 4287445315
-0.36821941 0.027492058 -0.11487204 4286854980
-0.36954752 0.029064031 -0.11664632 4286789958
-0.37088841 0.030651253 -0.11843769 4286726468
-0.37118781 0.031804074 -0.11866791 4285875778
-0.37175119 0.033072542 -0.11929262 4284163897
-0.37284723 0.034576327 -0.12071297 4282981670
-0.37368423 0.035974704 -0.12174447 4280425770
-0.37560609 0.037858397 -0.12439522 4280361783
-0.37700593 0.039523832 -0.1262635 4280033074
-0.37786767 0.040957842 -0.12732671 4280031523
-0.3787345 0.042400502 -0.12839621 4279901991
-0.37960652 0.0438518 -0.12947206 4279968567
-0.38020355 0.045182835 -0.13013692 4280428857
-0.38108435 0.046649914 -0.13122334 4280429381
-0.38197041 0.048125885 -0.13231628 4280957765
-0.38400713 0.050151158 -0.13511918 4281088068
-0.38607275 0.052205335 -0.13796192 4283056709
-0.3902539 0.055288851 -0.14394447 4283064423
-0.39119688 0.056839284 -0.1451119 4286144871
-0.36503455 -0.054531187 -0.12920167 4283843131
-0.36430976 -0.053592503 -0.12784582 4281147960
-0.3633377 -0.05268915 -0.12610315 4282073652
-0.36262256 -0.051761772 -0.12476514 4283663985
-0.36191148 -0.050839595 -0.12343465 4285707478
-0.36120439 -0.049922537 -0.12211171 4289510875
-0.35976642 -0.04910969 -0.11964516 4289445092
-0.35858634 -0.048272312 -0.1175847 4289182439
-0.35717762 -0.047476791 -0.1151685 4289050092
-0.35649681 -0.046585765 -0.1138929 4288714972
-0.3558197 -0.045699574 -0.11262437 4287912114
-0.35491112 -0.044854462 -0.11099525 4285873821
-0.35424274 -0.043978568 -0.10974281 4285155935
-0.35381085 -0.043069772 -0.1088605 4282866559
-0.35338053 -0.042164203 -0.10798143 4282676465
-0.35295179 -0.041261882 -0.10710553 4281760500
-0.35229427 -0.040402684 -0.1058739 4281759231
-0.35186946 -0.039507501 -0.10500582 4281759484
-0.35121784 -0.038656808 -0.10378541 4281759216
-0.35079691 -0.037768673 -0.10292499 4281826033
-0.35015112 -0.036926359 -0.10171571 4281825525
-0.34973401 -0.036045216 -0.10086284 4281760500
-0.34931836 -0.035167146 -0.10001303 4281758185
-0.34868059 -0.034336865 -0.098819107 4281692904
-0.34826872 -0.033465657 -0.097976707 4281692642
-0.34763661 -0.032643482 -0.096793525 4281625825
-0.34722844 -0.03177901 -0.095958501 4281625305
-0.34704188 -0.030870117 -0.095467456 4281362391
-0.34685567 -0.029962745 -0.094977319 4281362630
-0.34688959 -0.029007901 -0.094828263 4281694152
-0.34692356 -0.028053001 -0.094679169 4281692896
-0.34717777 -0.027047206 -0.094870605 4281890015
-0.34743249 -0.026039558 -0.09506242 4281886145
-0.34790918 -0.024977248 -0.095596619 4281362882
-0.34861034 -0.023857154 -0.096476547 4281364705
-0.34931526 -0.022730948 -0.097361207 4281824993
-0.35002401 -0.021598607 -0.098250657 4281824479
-0.35051009 -0.020517519 -0.098795854 4281823967
-0.35077104 -0.019490836 -0.098993547 4281823963
-0.3512598 -0.018402871 -0.099541523 4281824731
-0.35129434 -0.017431717 -0.099389903 4281824483
-0.35132885 -0.016460504 -0.099238269 4281955299
-0.35136339 -0.015489203 -0.099086627 4281955809
-0.35117045 -0.014580729 -0.098585516 4281956577
-0.35097787 -0.013673827 -0.098085344 4281956065
-0.35078561 -0.012768479 -0.097585998 4282022625
-0.35082006 -0.011799534 -0.097434722 4282022374
-0.35040218 -0.010962442 -0.09659005 4282022887
-0.35021096 -0.010061756 -0.096093379 4282021605
-0.35002014 -0.0091625955 -0.095597602 4282022373
-0.34982961 -0.0082649952 -0.09510266 4282021088
-0.34963945 -0.0073689027 -0.09460865 4281889759
-0.34944963 -0.0064743869 -0.094115503 4281888204
-0.34926012 -0.0055813594 -0.093623184 4281625544
-0.34907103 -0.0046898616 -0.093131773 4281560263
-0.34932858 -0.003656097 -0.09332259 4281757639
-0.34981087 -0.0025473 -0.093855865 4281823682
-0.35029492 -0.0014344701 -0.094391033 4282020032
-0.35078067 -0.00031758414 -0.094928101 4282026985
-0.35126817 0.00080340559 -0.095467053 4285375223
-0.35175741 0.0019285339 -0.096007966 4286415325
-0.35224849 0.003057787 -0.096550845 4283264468
-0.352512 0.0041112094 -0.096746907 4282010765
-0.35300574 0.0052476376 -0.097292587 4282592369
-0.35327065 0.0063060592 -0.097489834 4282854478
-0.35330537 0.0072834021 -0.097337253 4284888126
-0.35334015 0.0082608266 -0.097184643 4285938002
-0.35406831 0.0094933314 -0.098083735 4287119708
-0.35433519 0.010559773 -0.098282389 4287906126
-0.35483539 0.011715624 -0.098834269 4287511110
-0.35627684 0.013231919 -0.10081064 4287248968
-0.35678434 0.014401313 -0.10137117 4287314506
-0.35658312 0.015300333 -0.10085889 4287315535
-0.35661829 0.016289935 -0.10070441 4287512402
-0.35712689 0.017466271 -0.10126524 4287712343
-0.35787562 0.018741846 -0.10218796 4287646044
-0.35886854 0.020121014 -0.1034781 4287576659
-0.35986885 0.021510525 -0.10477787 4287776585
-0.36534253 0.024738951 -0.11282122 4287973962
-0.36715731 0.026496673 -0.11534166 4287446092
-0.36847898 0.028062368 -0.11711651 4286856272
-0.36955291 0.029533556 -0.11851629 4286793302
-0.37089771 0.031127721 -0.12032191 4286731606
-0.37093481 0.032171674 -0.12015893 4285810263
-0.37149879 0.033443391 -0.12078778 4284164174
-0.37233019 0.03483576 -0.1218175 4283113787
-0.37316644 0.036236335 -0.12285324 4280428339
-0.37535772 0.03824392 -0.12592101 4280360993
-0.37675902 0.039914589 -0.12780057 4280031008
-0.37789771 0.041477155 -0.12928417 4280031261
-0.37821242 0.042673353 -0.12953147 4279900959
-0.37936255 0.044254854 -0.13102935 4279968297
-0.37996021 0.04558938 -0.13169859 4280361258
-0.380842 0.047060691 -0.13279191 4280429110
-0.38401744 0.049616195 -0.13731275 4280889912
-0.38667569 0.051950507 -0.14105584 4280957531
-0.38819122 0.053759061 -0.14308822 4283258203
-0.39002267 0.05573085 -0.14558965 4283261831
-0.3642292 -0.055420574 -0.13005635 4282794842
-0.36350667 -0.054479368 -0.12869811 4281540152
-0.3630394 -0.053514227 -0.12774371 4279969336
-0.36232373 -0.052582763 -0.12639849 4283125561
-0.36161211 -0.051656503 -0.12506089 4287730293
-0.36065757 -0.050767045 -0.12334192 4288462041
-0.35995534 -0.049851887 -0.12202172 4289641950
-0.35901326 -0.048974909 -0.12032537 4289707494
-0.35783669 -0.048138123 -0.11826175 4289904105
-0.35619366 -0.047377497 -0.11546697 4289904111
-0.35551617 -0.046487499 -0.11419177 4289901283
-0.35484239 -0.045602363 -0.11292361 4289173187
-0.35393816 -0.044758327 -0.11129485 4287319468
-0.35327303 -0.043883465 -0.11004274 4286792038
-0.35284328 -0.042975605 -0.10916074 4285092993
-0.35241511 -0.042071003 -0.10828193 4284443601
-0.35198852 -0.041169636 -0.10740633 4282022107
-0.35133415 -0.040311404 -0.10617501 4282022911
-0.35091147 -0.03941714 -0.10530713 4282022140
-0.350263 -0.038567424 -0.10408707 4282021619
-0.34984413 -0.03768022 -0.10322689 4282088180
-0.34942678 -0.036796119 -0.10236982 4282087670
-0.34901094 -0.035915148 -0.10151577 4281891572
-0.34859657 -0.035037246 -0.10066482 4281890026
-0.34773818 -0.034252077 -0.099122062 4281823976
-0.34732831 -0.033381704 -0.098279901 4281757664
-0.34669927 -0.032560453 -0.097096987 4281363423
-0.34629306 -0.031696841 -0.09626212 4281361878
-0.34610748 -0.030788785 -0.095771328 4281166550
-0.34592226 -0.029882258 -0.09528137 4281234127
-0.34573728 -0.028977258 -0.094792202 4282087889
-0.34577113 -0.028023984 -0.094643407 4282087142
-0.34602395 -0.027019911 -0.094834551 4282217189
-0.34649679 -0.025962202 -0.095366932 4282216905
-0.34697139 -0.024900656 -0.095901288 4281560010
-0.34766936 -0.023781296 -0.096781254 4281563108
-0.34859446 -0.022600666 -0.098012045 4281890532
-0.34907666 -0.021524306 -0.098555408 4281889757
-0.34978598 -0.020386552 -0.099449649 4281889757
-0.35004628 -0.019359721 -0.099647947 4281889243
-0.35030696 -0.018330954 -0.099846542 4281758683
-0.35056818 -0.017300231 -0.10004554 4281758688
-0.35060266 -0.016328985 -0.099893928 4281758688
-0.35041037 -0.01541978 -0.099392116 4281758431
-0.35021847 -0.014512119 -0.098891236 4281825246
-0.34980124 -0.013669575 -0.098043203 4281824481
-0.34961039 -0.012765815 -0.097544849 4281891553
-0.34987003 -0.01173339 -0.097740963 4281891046
-0.34922969 -0.010962928 -0.096550785 4281957095
-0.34903982 -0.010063799 -0.096055016 4281956325
-0.34885037 -0.0091662137 -0.095560171 4281956836
-0.34866124 -0.0082701417 -0.09506622 4281955803
-0.34847239 -0.0073756236 -0.094573095 4281758169
-0.34828395 -0.0064826333 -0.094080895 4281690315
-0.3483181 -0.0055209137 -0.093930773 4281560264
-0.34835228 -0.0045591369 -0.093780637 4281561800
-0.34860921 -0.003525198 -0.093972027 4281955016
-0.34909019 -0.002416135 -0.094506472 4282086855
-0.3495729 -0.0013030035 -0.095042847 4282546119
-0.3500573 -0.00018581873 -0.095581092 4282693612
-0.3505435 0.00093544408 -0.096121237 4283607545
-0.35103142 0.0020608399 -0.096663348 4283923934
-0.35152113 0.0031904008 -0.097207434 4282608852
-0.35178396 0.0042440067 -0.097404107 4282077843
-0.35227636 0.0053807101 -0.097950988 4282724469
-0.35254058 0.0064392844 -0.098148845 4283051600
-0.35280532 0.007499909 -0.098347098 4285543743
-0.35307053 0.0085624866 -0.098545678 4286855759
-0.35403138 0.009883834 -0.099803872 4286922841
-0.35429892 0.010953613 -0.10000467 4286987597
-0.35480043 0.012113423 -0.10056122 4286855238
-0.35577384 0.013456493 -0.10183485 4286724424
-0.35628086 0.014627452 -0.10239784 4286593354
-0.35631609 0.015618842 -0.10224307 4286461774
-0.35611507 0.016517699 -0.10172955 4286528081
-0.35638654 0.017601863 -0.10193352 4286528598
-0.35737118 0.01897298 -0.10321919 4286790234
-0.35860339 0.020451313 -0.10487877 4287052627
-0.35984707 0.021943493 -0.10655372 4287842377
-0.36609721 0.025503214 -0.11581039 4288696139
-0.36741254 0.027062604 -0.11758588 4287776076
-0.36874053 0.028637087 -0.11937839 4286466384
-0.36981955 0.030116249 -0.12079231 4286666838
-0.37064365 0.031494707 -0.1218191 4287058774
-0.37068081 0.032540753 -0.12165581 4285350487
-0.37124529 0.033815682 -0.12228879 4282068814
-0.37207755 0.035211887 -0.12332493 4281610299
-0.37291467 0.036616366 -0.12436711 4280493364
-0.37538016 0.038752045 -0.12786275 4280359200
-0.37678576 0.040430233 -0.12975755 4279769119
-0.37765107 0.0418742 -0.13083647 4279835165
-0.37824351 0.043199904 -0.13150337 4280032031
-0.37967747 0.044917364 -0.13343526 4280032807
-0.38056016 0.046389546 -0.13453603 4280164392
-0.38173246 0.048003729 -0.13607062 4280231476
-0.38377774 0.050038453 -0.13891445 4282134837
-0.38673359 0.052521512 -0.14312188 4282207839
-0.38825411 0.054338668 -0.1451712 4285684063
-0.36346033 -0.055283293 -0.13075081 4282523721
-0.36299172 -0.054313872 -0.12978981 4281409572
-0.36252496 -0.053348053 -0.12883247 4280036151
-0.36181003 -0.052416112 -0.12748289 4283263827
-0.36109918 -0.051489439 -0.12614098 4288002188
-0.36039236 -0.050567903 -0.12480663 4288658154
-0.35968953 -0.049651511 -0.12347984 4289641195
-0.35874668 -0.048773579 -0.12177482 4289773294
-0.3575691 -0.04793613 -0.11970062 4289969906
-0.35592473 -0.04717537 -0.1168913 4289971195
-0.35477328 -0.046354409 -0.11486267 4290035964
-0.35410154 -0.045469608 -0.11359267 4289377023
-0.35319999 -0.04462599 -0.11196148 4287729371
-0.35230505 -0.043788519 -0.11034223 4287122303
-0.35187745 -0.042881604 -0.10946048 4285416827
-0.3514514 -0.041977961 -0.10858194 4284834160
-0.35102689 -0.041077517 -0.1077066 4282609807
-0.35037574 -0.040220253 -0.10647561 4282481661
-0.3501825 -0.039286219 -0.10596541 4282088701
-0.34953603 -0.03843677 -0.10474355 4282087420
-0.34911844 -0.037549764 -0.10388221 4282088444
-0.34870237 -0.036665868 -0.10302397 4282022394
-0.34828779 -0.035785064 -0.10216878 4281891320
-0.34787473 -0.034907363 -0.10131665 4281890027
-0.34724078 -0.034077715 -0.10011926 4281824489
-0.34661025 -0.033252422 -0.098928288 4281822939
-0.3457635 -0.032477591 -0.097399935 4281428698
-0.3453593 -0.031614825 -0.096565329 4281428431
-0.34495655 -0.030755069 -0.095733628 4281495505
-0.34499037 -0.029801881 -0.095584862 4281497063
-0.34458902 -0.028946701 -0.09475641 4282154728
-0.34462279 -0.027995083 -0.094607897 4282151923
-0.34509191 -0.026941944 -0.095138483 4281888498
-0.3455627 -0.025884992 -0.095671035 4281888731
-0.34625506 -0.024771275 -0.096548073 4281495516
-0.3469511 -0.023651529 -0.097429819 4281497579
-0.34787357 -0.022470374 -0.098662935 4281824747
-0.34857839 -0.021337233 -0.099555925 4281823961
-0.34906179 -0.020255575 -0.10010352 4281824473
-0.3493214 -0.019228561 -0.10030242 4281823451
-0.3498075 -0.018140022 -0.10085279 4281691867
-0.34984195 -0.01716877 -0.10070123 4281692633
-0.34987643 -0.01619746 -0.10054962 4281692889
-0.34968477 -0.015288311 -0.10004723 4281692632
-0.34926811 -0.014443628 -0.099196419 4281759192
-0.34907752 -0.013538389 -0.098696604 4281824225
-0.34866309 -0.01269898 -0.097850457 4281891554
-0.34869739 -0.011732521 -0.097699612 4281891046
-0.34828439 -0.01089774 -0.096856721 4281891046
-0.34787288 -0.010065847 -0.096016899 4281890275
-0.34790704 -0.0091026342 -0.095866576 4281890531
-0.34771886 -0.0082073985 -0.095372751 4281889743
-0.34753108 -0.0073136608 -0.094879866 4281756875
-0.3475652 -0.0063519687 -0.094729766 4281690569
-0.34759936 -0.0053902161 -0.094579659 4281692616
-0.34763348 -0.0044283769 -0.094429538 4281693130
-0.34788972 -0.0033942834 -0.094621539 4282021579
-0.34859273 -0.0022114762 -0.095501013 4282087639
-0.34907496 -0.0010969453 -0.096039653 4283205850
-0.34955889 2.1680115e-05 -0.0965802 4283414518
-0.35004464 0.0011443945 -0.097122677 4283600383
-0.35030535 0.0021931899 -0.097318776 4283659233
-0.35079375 0.003323023 -0.097864076 4282542805
-0.35105586 0.004376784 -0.098061368 4282077855
-0.35154694 0.0055137901 -0.098609455 4282856326
-0.35181046 0.0065725544 -0.098807938 4283248729
-0.3520745 0.0076333294 -0.099006787 4285609793
-0.35256919 0.0087805958 -0.099558532 4286921541
-0.35399419 0.010276524 -0.10153352 4286920775
-0.35426238 0.011349631 -0.10173647 4286986309
-0.35476521 0.012513388 -0.10229774 4286789443
-0.35550529 0.013771525 -0.10322086 4286658887
-0.35577634 0.01485398 -0.10342641 4286528074
-0.3558116 0.015846346 -0.10327152 4286462283
-0.35608321 0.016931865 -0.10347734 4286529355
-0.35635537 0.018019477 -0.10368351 4286595147
-0.35734257 0.019396015 -0.10497925 4286790219
-0.3593035 0.02117442 -0.1077567 4287052621
-0.36402994 0.024098808 -0.11474177 4287774288
-0.36634809 0.026064742 -0.11805429 4288627537
-0.36741167 0.027525375 -0.11945503 4287778386
-0.36874351 0.029106719 -0.12126176 4286469720
-0.36982566 0.030592073 -0.12268712 4286666338
-0.37065211 0.031975973 -0.12372245 4287057500
-0.37042567 0.032911241 -0.12315855 4285482576
-0.37099078 0.034189433 -0.1237957 4282005064
-0.37182391 0.035589531 -0.12483829 4281610545
-0.37266189 0.036997911 -0.12588701 4280493102
-0.37540269 0.039263155 -0.12981611 4280359205
-0.37653708 0.040824741 -0.13130927 4279769637
-0.37795821 0.042525094 -0.13323444 4279835169
-0.37911302 0.04411396 -0.13475467 4280032034
-0.37971315 0.045454942 -0.13543484 4280032548
-0.38059857 0.046933252 -0.13654496 4280098856
-0.38177457 0.048554603 -0.13809237 4280232005
-0.38382635 0.050599534 -0.14095932 4282339655
-0.38649642 0.05295502 -0.14475532 4282340214
-0.36341363 -0.056091875 -0.13281535 4283120740
-0.3629438 -0.055118147 -0.13184766 4280164422
-0.36247575 -0.054148048 -0.13088366 4280360996
-0.3620095 -0.053181555 -0.12992336 4280565308
-0.361545 -0.052218687 -0.12896667 4284384345
-0.36083353 -0.051290751 -0.12761797 4289902740
-0.36012608 -0.050367992 -0.12627696 4289837803
-0.35917711 -0.049483236 -0.12455341 4289772524
-0.35847902 -0.048571508 -0.12322981 4289970415
-0.35705897 -0.047767535 -0.12076164 4290298099
-0.35541636 -0.047007103 -0.11794282 4290364924
-0.35403034 -0.046221338 -0.11553363 4290562300
-0.35336065 -0.045336813 -0.11426178 4290233853
-0.35246179 -0.044493649 -0.11262815 4289308895
-0.35156953 -0.043656599 -0.11100648 4288646034
-0.35114321 -0.042749915 -0.11012354 4286598028
-0.3507185 -0.04184645 -0.10924381 4286138481
-0.35029531 -0.040946182 -0.10836727 4284639370
-0.34964612 -0.040089242 -0.10713451 4284119782
-0.34945354 -0.039155263 -0.10662372 4282285290
-0.34903494 -0.038264547 -0.10575666 4282219261
-0.34861788 -0.037376989 -0.10489274 4281958140
-0.34820229 -0.036492549 -0.10403188 4281957627
-0.34778821 -0.035611227 -0.10317414 4281956857
-0.34737566 -0.034733012 -0.10231949 4281955823
-0.34674245 -0.033903029 -0.10111831 4281890028
-0.34589219 -0.033123102 -0.099576719 4281886940
-0.34504792 -0.032348692 -0.098046094 4281691355
-0.34464499 -0.031486098 -0.09721034 4281759194
-0.34424344 -0.030626534 -0.096377529 4282415067
-0.34427726 -0.029673312 -0.096228786 4282416620
-0.34431109 -0.028720006 -0.096080013 4282285035
-0.34434488 -0.027766639 -0.095931239 4282216166
-0.34481436 -0.026711179 -0.096465223 4281036006
-0.34528548 -0.025651881 -0.097001046 4281035485
-0.34575823 -0.024588749 -0.097538762 4281430493
-0.34645355 -0.023467451 -0.098423958 4281431789
-0.34737509 -0.022284532 -0.099661842 4281693677
-0.34785545 -0.021206543 -0.10020867 4281692379
-0.34856209 -0.020066809 -0.10110822 4281627611
-0.34859645 -0.019097419 -0.10095695 4281626331
-0.34908119 -0.018008577 -0.10150855 4281561051
-0.34911567 -0.017037265 -0.10135696 4281560536
-0.34915012 -0.016065923 -0.10120538 4281627096
-0.34873402 -0.015219105 -0.10035174 4281626840
-0.34854373 -0.01431235 -0.099850431 4281693144
-0.34812984 -0.013470817 -0.099001504 4281691868
-0.34771746 -0.01263225 -0.098155595 4281825244
-0.34775171 -0.011666618 -0.098004922 4281824480
-0.34711871 -0.010898313 -0.096817225 4281759456
-0.34693122 -0.010001556 -0.096322589 4281757660
-0.34674406 -0.0091063287 -0.095828898 4281627612
-0.34677818 -0.0081447195 -0.095678836 4281626313
-0.34681231 -0.0071830512 -0.095528759 4281757637
-0.34662545 -0.006290935 -0.095036171 4281757896
-0.34688053 -0.0052595073 -0.095228605 4281955016
-0.34691465 -0.0042976057 -0.095078491 4282020550
-0.34739211 -0.003190909 -0.095614478 4282152645
-0.34787124 -0.0020801376 -0.096152321 4282219992
-0.34835216 -0.00096533837 -0.096692152 4285568733
-0.34861043 7.7718832e-05 -0.096887261 4286686965
-0.34909394 0.0011995839 -0.097429797 4283729917
-0.34935358 0.002247557 -0.097626068 4282610655
-0.34983978 0.0033764939 -0.098171391 4282280660
-0.35010079 0.0044294191 -0.098368831 4282078622
-0.35036227 0.0054843039 -0.098566584 4283577733
-0.35085207 0.0066234414 -0.099115588 4284298328
-0.35157269 0.0078503508 -0.1000192 4286134593
-0.3520669 0.0089991149 -0.10057329 4287117637
-0.35395673 0.010671348 -0.10327274 4286986055
-0.35445985 0.011835969 -0.10383788 4286921541
-0.35496482 0.013004959 -0.10440508 4286462275
-0.35570818 0.014269159 -0.10533743 4286134855
