# .PCD v0.7 - Point Cloud Data file format
VERSION 0.7
FIELDS x y z rgba
SIZE 4 4 4 4
TYPE F F F U
COUNT 1 1 1 1
WIDTH 1012
HEIGHT 1
VIEWPOINT 0 0 0 1 0 0 0
POINTS 1012
DATA ascii
-0.36742124 0.0030909514 -0.10196503 4286862758
-0.36705089 0.0041092737 -0.10185985 4287204519
-0.36644059 0.0051830155 -0.10139713 4287352011
-0.36607215 0.0061967745 -0.10129277 4291017933
-0.36594385 0.0071535408 -0.10154544 4291027710
-0.36533725 0.0082189674 -0.10108464 4291938302
-0.36497074 0.0092273969 -0.10098092 4291945983
-0.36389408 0.010390407 -0.099814564 4292199679
-0.36329499 0.01144337 -0.099359892 4292208126
-0.36293271 0.012442671 -0.099258438 4291872254
-0.36257103 0.013440215 -0.099157169 4291879644
-0.36197653 0.014484067 -0.098705418 4291670747
-0.36184967 0.015430114 -0.098955259 4291671738
-0.36125749 0.016468596 -0.0985047 4283471289
-0.36089897 0.017458284 -0.098404668 4283187091
-0.36077243 0.018401995 -0.09865389 4282399377
-0.36041459 0.019389194 -0.098553821 4282355931
-0.36005741 0.020374667 -0.098453954 4289487841
-0.35993108 0.02131688 -0.098702781 4289939565
-0.35980472 0.022259146 -0.098951623 4288102753
-0.35967839 0.023201482 -0.099200465 4287908181
-0.36001298 0.02406566 -0.10014959 4286015571
-0.36011735 0.024971453 -0.1007502 4285820035
-0.36068574 0.025803575 -0.10205812 4285360266
-0.36172509 0.026565935 -0.10408632 4285294976
-0.36230204 0.027408659 -0.10541295 4284900734
-0.36288214 0.028256062 -0.10674692 4284835453
-0.3634654 0.029108217 -0.10808828 4284899965
-0.36429122 0.029930593 -0.10980345 4284899188
-0.36488217 0.030793024 -0.11116197 4284504179
-0.36523464 0.031693488 -0.1121571 4284436065
-0.36558846 0.032597393 -0.11315592 4283513181
-0.36618683 0.033473089 -0.1145327 4283314241
-0.36654404 0.034384664 -0.11554069 4285804089
-0.36690256 0.03529967 -0.11655243 4286461500
-0.36750853 0.036188975 -0.11794784 4286985789
-0.36787054 0.037111804 -0.11896891 4287117890
-0.36823386 0.038038202 -0.11999378 4287052612
-0.36884758 0.038941313 -0.12140821 4287053636
-0.36946476 0.039849587 -0.12283063 4287905604
-0.37008542 0.04076314 -0.12426122 4288232772
-0.37096301 0.041657414 -0.12609366 4286592580
-0.3715921 0.042582404 -0.12754314 4285872198
-0.37196875 0.04353562 -0.12860219 4286199878
-0.37234685 0.044492584 -0.12966534 4286393916
-0.37324235 0.045411002 -0.13153803 4282655799
-0.37336597 0.046397548 -0.13220811 4280361020
-0.37374926 0.047366709 -0.13328539 4279900992
-0.37387371 0.048358161 -0.13395913 4279639608
-0.37373814 0.049369071 -0.13422608 4280430899
-0.37386268 0.05036357 -0.1349014 4281083943
-0.37398741 0.051360048 -0.13557804 4280161309
-0.37385157 0.052373163 -0.13584557 4279374619
-0.3737157 0.053386338 -0.13611314 4279506458
-0.37384042 0.054386925 -0.13679166 4279572250
-0.37396535 0.05538955 -0.13747153 4279703322
-0.37461466 0.056372706 -0.13898122 4279834910
-0.37579677 0.057341915 -0.14133689 4280033059
-0.37539491 0.058374252 -0.14118794 4280363049
-0.37605286 0.059373092 -0.14271896 4280955444
-0.37644768 0.060384836 -0.1438351 4281940545
-0.37684405 0.061400659 -0.14495566 4282203484
-0.37670597 0.062430441 -0.14522761 4282862686
-0.3771036 0.063452452 -0.14635319 4283125344
-0.37804249 0.064472623 -0.14834403 4283780451
-0.37953469 0.06549713 -0.15122241 4283652716
-0.38187721 0.066531211 -0.15546611 4283126891
-0.383697 0.067583941 -0.15888228 4283788901
-0.38203642 -0.022324465 -0.11521047 4288045953
-0.38190177 -0.021320669 -0.11547559 4286069620
-0.38176712 -0.020316811 -0.11574073 4286463307
-0.38109934 -0.019146018 -0.11522871 4287645003
-0.38043416 -0.017979633 -0.11471871 4287380812
-0.37924498 -0.016656507 -0.11344138 4286594126
-0.3785871 -0.0155014 -0.11293775 4286333268
-0.37793174 -0.01435062 -0.11243601 4284959073
-0.37727883 -0.013204137 -0.11193625 4285101723
-0.3763704 -0.011986568 -0.11105968 4285698719
-0.37546706 -0.010775842 -0.11018807 4285427637
-0.37482372 -0.0096445484 -0.10969639 4283844256
-0.3736757 -0.0083746267 -0.10845967 4283516465
-0.37303931 -0.0072540585 -0.10797404 4281279794
-0.37190437 -0.0060000522 -0.10675075 4281214006
-0.37102616 -0.0048226295 -0.10590348 4280560963
-0.37015277 -0.003651689 -0.10506096 4281032349
-0.36928427 -0.0024871635 -0.10422313 4285761702
-0.36842057 -0.0013290765 -0.10338999 4286174719
-0.36780435 -0.00023966555 -0.10292184 4291352831
-0.36743265 0.00078436488 -0.10281544 4291221503
-0.36706159 0.0018065968 -0.10270923 4289186559
-0.36693272 0.0027675254 -0.10296302 4289173503
-0.36656243 0.0037871397 -0.10285681 4288664319
-0.36619285 0.004804939 -0.10275084 4288589823
-0.36582392 0.0058209598 -0.10264506 4287484159
-0.36545563 0.0068351696 -0.10253949 4287401983
-0.36508805 0.0078476099 -0.10243416 4286497023
-0.36448294 0.0089118667 -0.1019718 4286483455
-0.36340699 0.01007711 -0.10080077 4286890751
-0.36257333 0.011182854 -0.099990807 4286878975
-0.36221164 0.012182403 -0.099888831 4287814655
-0.36185062 0.013180233 -0.099787027 4287805951
-0.36125737 0.014224576 -0.099334158 4291362303
-0.36113051 0.015170673 -0.099584028 4291419903
-0.36077139 0.016163291 -0.099482827 4288862719
-0.3604129 0.017154194 -0.099381849 4288780732
-0.36028621 0.018098781 -0.099631332 4284498615
-0.36015952 0.019043425 -0.099880822 4284189435
-0.35980192 0.020031037 -0.099779636 4289489919
-0.35944495 0.021016926 -0.099678621 4289808233
-0.35931844 0.021960096 -0.099927716 4288036698
-0.35919192 0.022903321 -0.10017684 4287907664
-0.35929546 0.023807205 -0.10077697 4286080591
-0.35939917 0.024712812 -0.10137818 4285951359
-0.35996556 0.02554428 -0.10268784 4285229190
-0.36100161 0.026305484 -0.10471894 4285163389
-0.3615765 0.027147533 -0.10604736 4284834684
-0.36215457 0.027994238 -0.1073831 4284835198
-0.36273584 0.028845726 -0.10872624 4284768638
-0.36355892 0.029667143 -0.11044381 4284767088
-0.36414778 0.030528894 -0.11180415 4284174701
-0.36449888 0.031428922 -0.11280049 4283973970
-0.36509311 0.032299705 -0.11417372 4284231244
-0.36544758 0.033207361 -0.11517916 4284297022
-0.3660472 0.034087356 -0.11656553 4286132538
-0.3664051 0.035002708 -0.11758018 4286658622
-0.36676434 0.035921559 -0.11859863 4287052095
-0.36737159 0.036815189 -0.12000379 4287118401
-0.36773428 0.037741948 -0.12103166 4287118401
-0.36834714 0.0386451 -0.12245037 4287053377
-0.36896342 0.039553437 -0.12387715 4287446337
-0.36958322 0.040467031 -0.12531209 4287642179
-0.37045971 0.041361082 -0.1271503 4286395204
-0.37108791 0.042286124 -0.12860425 4285871686
-0.37146395 0.043239743 -0.12966639 4286002247
-0.37184137 0.044197105 -0.13073261 4286065205
-0.37247777 0.045136768 -0.13220672 4282457642
-0.372859 0.046102516 -0.13328305 4280231508
-0.37324166 0.047072101 -0.13436352 4280034161
-0.37336567 0.048064269 -0.13503897 4279835972
-0.37322998 0.049076181 -0.13530622 4280294433
-0.37335405 0.050071403 -0.13598326 4280620828
-0.37321821 0.051084444 -0.13625081 4280030232
-0.37308231 0.052097578 -0.13651839 4279440411
-0.37320638 0.053096905 -0.13719735 4279506461
-0.37333068 0.054098237 -0.13787761 4279637788
-0.37319452 0.055113547 -0.13814577 4279703579
-0.37410361 0.056084864 -0.14007357 4279835683
-0.37501982 0.057063852 -0.1420165 4280099118
-0.37488255 0.058087319 -0.14228679 4280494134
-0.37580538 0.059078164 -0.14424606 4281086530
-0.3762005 0.060091339 -0.14536743 4282201667
-0.37659714 0.061108612 -0.14649326 4282401349
-0.37645873 0.062140457 -0.14676581 4282995279
-0.37712556 0.063159697 -0.14832704 4283124585
-0.37833881 0.064178541 -0.15076667 4283712108
-0.37956411 0.065207645 -0.15323062 4283651703
-0.38219333 0.066241056 -0.15795408 4283190392
-0.38345677 0.067296349 -0.16049188 4283855229
-0.38074014 -0.022428442 -0.11510113 4287976811
-0.38060573 -0.021426521 -0.11536577 4286069091
-0.38047132 -0.020424573 -0.11563043 4286398026
-0.37980732 -0.019255772 -0.11511967 4287249993
-0.37914583 -0.01809139 -0.11461087 4287117637
-0.37822509 -0.016850758 -0.11371987 4286789189
-0.37756974 -0.01569636 -0.1132162 4286397512
-0.37691689 -0.014546265 -0.11271449 4284758352
-0.37626648 -0.013400473 -0.11221468 4284893297
-0.37561858 -0.012258972 -0.11171681 4285493623
-0.37471735 -0.011047421 -0.11084338 4285763737
-0.37407541 -0.0099155949 -0.11035049 4287130773
-0.37343583 -0.0087879337 -0.10985944 4286148223
-0.37254664 -0.0075939167 -0.10899705 4280831866
-0.37166247 -0.0064065186 -0.10813952 4280754516
-0.37078324 -0.0052257138 -0.10728682 4280100954
-0.3699089 -0.0040514353 -0.10643887 4280501626
-0.36903942 -0.0028836217 -0.10559569 4284317830
-0.36817476 -0.0017222372 -0.10475722 4284993791
-0.36755788 -0.00063007261 -0.10428575 4291353087
-0.36694324 0.00045813707 -0.10381598 4291354111
-0.36657226 0.0014816533 -0.10370883 4291218685
-0.36620194 0.0025033494 -0.10360187 4291152608
-0.3658323 0.0035232289 -0.10349509 4289892061
-0.36546335 0.0045413193 -0.10338857 4289696441
-0.36533466 0.0055006994 -0.10364199 4284322490
-0.36496645 0.0065161907 -0.10353544 4284237285
-0.36459893 0.0075298697 -0.10342911 4281637093
-0.36375663 0.0086495848 -0.10260676 4281613556
-0.36268333 0.0098158335 -0.10143346 4282160884
-0.3618516 0.010922304 -0.1006218 4282142176
-0.36149055 0.011922147 -0.10051927 4284259296
-0.36089736 0.012969675 -0.10006467 4284256970
-0.36053815 0.01396509 -0.099962965 4291015113
-0.36041126 0.014911207 -0.10021286 4291231220
-0.36005273 0.015904102 -0.10011114 4293650933
-0.35992593 0.016849507 -0.10036086 4293715421
-0.35979909 0.017794963 -0.1006106 4286349275
-0.35967225 0.018740512 -0.10086035 4285827562
-0.35931471 0.019729313 -0.10075819 4289490411
-0.35895783 0.020716403 -0.10065629 4289742182
-0.3588312 0.021660442 -0.10090564 4288036441
-0.35870454 0.02260457 -0.10115502 4287841362
-0.35880768 0.023509052 -0.10175659 4286275921
-0.35891098 0.024415221 -0.10235929 4286017151
-0.35947657 0.025246652 -0.10367285 4285163654
-0.36027804 0.026045024 -0.10535164 4285032062
-0.36085093 0.026886383 -0.10668182 4284834428
-0.36142698 0.027732421 -0.10801934 4284769657
-0.36200619 0.028583176 -0.10936426 4284636792
-0.36282656 0.029403675 -0.11108421 4284634730
-0.36341336 0.030264748 -0.11244636 4283712871
-0.36400342 0.031130658 -0.11381611 4283511368
-0.36435518 0.03203439 -0.11481901 4285017153
-0.3649506 0.032909431 -0.1162018 4285411645
-0.36530581 0.033820849 -0.11721388 4286591803
-0.36566228 0.034735758 -0.11822977 4286921280
-0.36602008 0.035654154 -0.11924949 4287117889
-0.36662519 0.036547083 -0.12065652 4287184195
-0.36698645 0.037473351 -0.12168565 4287118148
-0.36759716 0.038375758 -0.12310626 4287118404
-0.36846107 0.039256703 -0.12492567 4286856004
-0.36908001 0.040170372 -0.12636499 4286723395
-0.36995536 0.041064166 -0.12820902 4286132546
-0.3705827 0.041989285 -0.12966745 4285871427
-0.37095809 0.042943265 -0.13073269 4285674052
-0.37133488 0.043901 -0.13180202 4285540146
-0.37197042 0.044840764 -0.13328068 4282260520
-0.37209284 0.045827784 -0.13395314 4280039237
-0.37247398 0.046796851 -0.13503493 4280168540
-0.37259725 0.047788788 -0.13571104 4280293948
-0.37272072 0.048782695 -0.13638848 4279965987
-0.3728444 0.049778618 -0.13706729 4279702813
-0.37296838 0.050776541 -0.13774739 4279636759
-0.37257233 0.051806848 -0.13760303 4279571996
-0.37295622 0.052792683 -0.13869725 4279638048
-0.37281987 0.053808961 -0.13896571 4279768863
-0.37268353 0.054825313 -0.13923416 4279834653
-0.37385386 0.055785093 -0.14158657 4279903269
-0.37477088 0.05676486 -0.14353922 4280298801
-0.37436914 0.05779982 -0.1433879 4280889145
-0.37529084 0.058790535 -0.14535342 4281613639
-0.37595227 0.059796661 -0.14690588 4282989383
-0.37608123 0.060821939 -0.14760725 4283124807
-0.37674761 0.061838232 -0.14917257 4283453520
-0.37714764 0.062865175 -0.15031269 4283452008
-0.37836453 0.063885644 -0.15276951 4283384426
-0.37986904 0.064913884 -0.15569471 4283453041
-0.38195077 0.065951534 -0.15955698 4283781492
-0.38293296 0.067008041 -0.16165194 4284252542
-0.37944883 -0.02253204 -0.11499228 4287449420
-0.37957874 -0.021617509 -0.11564393 4286002507
-0.37918046 -0.020531952 -0.11552064 4285937737
-0.37878293 -0.019448405 -0.11539758 4285871430
-0.37812403 -0.018284718 -0.11488879 4285673787
-0.37720707 -0.017044669 -0.11399788 4284951866
-0.37655422 -0.015890984 -0.11349421 4284690744
-0.3759039 -0.014741589 -0.11299247 4283706938
-0.37551323 -0.013673439 -0.11287308 4284037442
-0.37486672 -0.01253137 -0.11237402 4285219404
-0.37396759 -0.011319024 -0.11149874 4285298041
-0.3735809 -0.010259958 -0.11138153 4285764232
-0.3726888 -0.0090584503 -0.11051241 4285431256
-0.372053 -0.007934412 -0.11002205 4284254156
-0.37141961 -0.006814538 -0.10953357 4283913333
-0.37053937 -0.0056303567 -0.10867538 4281869937
-0.36966404 -0.0044527105 -0.10782201 4282072918
-0.36879358 -0.0032815512 -0.10697342 4283726182
-0.36792797 -0.0021168848 -0.1061296 4284468479
-0.36731037 -0.0010219153 -0.10565475 4291221759
-0.36669505 6.9035195e-05 -0.10518166 4291090943
-0.36608192 0.0011560543 -0.10471031 4289579515
-0.36595273 0.0021188208 -0.10496464 4289440960
-0.36558264 0.0031409813 -0.10485649 4287712187
-0.36521322 0.0041613183 -0.10474853 4287594099
-0.36484441 0.0051798671 -0.10464077 4283389558
-0.36447632 0.0061965943 -0.10453328 4283320267
-0.36387059 0.0072668223 -0.10406584 4281364940
-0.36326712 0.0083331829 -0.10360015 4281352680
-0.36219457 0.0095016723 -0.10242219 4282608360
-0.36136338 0.010610057 -0.10160713 4282606273
-0.36100242 0.011611135 -0.10150365 4283521729
-0.36017749 0.012709889 -0.10069405 4283532436
-0.35981888 0.013705579 -0.10059182 4290733715
-0.35969192 0.014651707 -0.10084178 4291031784
-0.35933405 0.015644867 -0.10073949 4293458155
-0.359438 0.016544234 -0.10134172 4293521150
-0.35931104 0.017490603 -0.10159171 4288395519
-0.35918403 0.018437019 -0.10184173 4288053465
-0.35882655 0.019427033 -0.10173863 4289359830
-0.35846975 0.020415319 -0.10163574 4289479779
-0.35834298 0.021360256 -0.10188537 4287839575
-0.35821617 0.022305254 -0.102135 4287710291
-0.35831895 0.023210336 -0.10273805 4286340691
-0.35842189 0.024117101 -0.10334224 4286147199
-0.35898662 0.024948496 -0.10465969 4285228933
-0.35978696 0.025746524 -0.10634363 4285097342
-0.36012527 0.026625177 -0.10731634 4284899965
-0.36093423 0.027433891 -0.10901932 4284834420
-0.36151257 0.028284648 -0.11036828 4284504690
-0.36233181 0.029104862 -0.11209352 4284435811
-0.36291775 0.029965919 -0.11345976 4283970911
-0.36350697 0.030831829 -0.11483362 4283838269
-0.3638581 0.031735886 -0.11583944 4285410867
-0.36421055 0.032643408 -0.11684898 4285870907
-0.36480722 0.03352268 -0.11824138 4286789181
-0.36491936 0.0344688 -0.11887944 4287052354
-0.36552024 0.035356652 -0.12028282 4287117892
-0.36587873 0.036278915 -0.1213093 4287184199
-0.36623856 0.03720472 -0.12233971 4287117384
-0.3670949 0.038078703 -0.12415112 4287118153
-0.36795774 0.038959373 -0.12597629 4286921289
-0.36857578 0.03987309 -0.12741999 4286788930
-0.36945 0.040766641 -0.12926987 4286132799
-0.37007645 0.041691814 -0.13073276 4285805630
-0.37045118 0.042646192 -0.13180107 4285541950
-0.37082735 0.043604322 -0.13287355 4285342766
-0.37146199 0.044544153 -0.13435677 4282128932
-0.37184191 0.045510739 -0.13543935 4279905577
-0.37196451 0.04650135 -0.13611588 4280035373
-0.37234646 0.047474679 -0.13720508 4280097322
-0.3724699 0.048470262 -0.13788533 4279900456
-0.37259355 0.049467836 -0.13856691 4279702558
-0.37271744 0.050467439 -0.13924985 4279702548
-0.37232089 0.051500082 -0.13910376 4279638046
-0.37270498 0.052487243 -0.1402031 4279769897
-0.3728292 0.05349195 -0.14088899 4279900711
-0.3724317 0.054523889 -0.14074114 4279900964
-0.37334046 0.055495825 -0.14268477 4279969326
-0.37425628 0.056475423 -0.14464371 4280364604
-0.37385464 0.057511739 -0.1444912 4280955720
-0.3747752 0.058502309 -0.14646301 4281482847
-0.37543568 0.059508618 -0.1480203 4282727770
-0.37556425 0.060534667 -0.14872351 4282993231
-0.37649885 0.061545294 -0.15072784 4283451987
-0.37716973 0.062568903 -0.15231027 4283453024
-0.37866408 0.063587107 -0.15522692 4283322715
-0.37989953 0.064620554 -0.15773062 4283454793
-0.38142699 0.065662667 -0.16071256 4283986514
-0.38240805 0.066719107 -0.16281433 4284383876
-0.37882203 -0.023808133 -0.11539321 4286863735
-0.37868783 -0.022808164 -0.1156574 4286592585
-0.3785536 -0.021808133 -0.11592162 4285804870
-0.37815666 -0.020723399 -0.11579818 4285346369
-0.37749892 -0.019557321 -0.11528867 4283903550
-0.3771041 -0.018477699 -0.11516622 4283509047
-0.3761909 -0.017238269 -0.11427543 4282329400
-0.37554061 -0.016085258 -0.11377174 4282328893
-0.37489277 -0.014936537 -0.11326998 4282395965
-0.3745034 -0.013869202 -0.11315051 4282855740
-0.37385935 -0.012727812 -0.11265136 4284887876
-0.37321773 -0.011590663 -0.11215419 4284761187
-0.37283176 -0.010531282 -0.11203637 4283921517
-0.37219387 -0.0094013605 -0.11154177 4284580767
-0.37155837 -0.0082756057 -0.11104905 4288052894
-0.37092525 -0.0071539828 -0.11055819 4287534486
-0.37004554 -0.0059676897 -0.10969637 4283913620
-0.3694182 -0.0048555024 -0.10921036 4283775106
-0.36854678 -0.0036810271 -0.10835639 4283067789
-0.36768022 -0.0025129986 -0.10750716 4283811831
-0.36706188 -0.0014152677 -0.10702888 4291023864
-0.36644584 -0.00032151674 -0.1065524 4290827775
-0.36583206 0.00076827634 -0.10607772 4287743997
-0.36546132 0.0017935351 -0.10596832 4287599070
-0.36509129 0.0028169607 -0.10585914 4285296345
-0.36472195 0.0038385794 -0.10575023 4285229468
-0.36435321 0.0048584035 -0.10564152 4282404251
-0.36398518 0.0058763898 -0.10553299 4282338185
-0.36337981 0.0069482033 -0.10506335 4281097098
-0.36277664 0.0080161756 -0.10459544 4281091746
-0.36170489 0.0091869393 -0.10341279 4282996898
-0.36087427 0.010297242 -0.10259434 4283004858
-0.36028054 0.011350566 -0.10213476 4282740410
-0.35968897 0.012400175 -0.10167693 4282743202
-0.35933045 0.013397048 -0.1015737 4290484641
-0.35897255 0.014392221 -0.10147072 4290767602
-0.35884556 0.015338458 -0.10172072 4293129972
-0.35871854 0.016284779 -0.10197075 4293261054
-0.35882199 0.017185662 -0.10257463 4290821887
-0.35846451 0.018177666 -0.10247082 4290606019
-0.35833749 0.019124189 -0.10272089 4289290175
-0.35821044 0.020070799 -0.102971 4289151582
-0.3580834 0.021017475 -0.10322109 4287642708
-0.35795632 0.02196423 -0.10347123 4287513683
-0.35805899 0.022870654 -0.1040766 4286470483
-0.35816187 0.023778787 -0.10468311 4286342522
-0.35849565 0.024649767 -0.10564838 4285359488
-0.35906261 0.025485756 -0.10697699 4285228156
-0.35963264 0.02632641 -0.10831296 4284964987
-0.36044046 0.027134793 -0.11002117 4284898416
-0.36101794 0.027985558 -0.11137415 4284305774
-0.36183611 0.02880544 -0.11310478 4284170325
-0.36242118 0.029666506 -0.11447514 4284297296
-0.36276966 0.030566696 -0.11547839 4284297019
-0.36336002 0.031436805 -0.11686178 4286066741
-0.36371186 0.032344624 -0.11787423 4286527036
-0.36406496 0.033255897 -0.11889046 4287051327
-0.3644194 0.034170676 -0.11991052 4287248707
-0.36477515 0.035088945 -0.1209344 4287183428
-0.36537722 0.035981182 -0.12234758 4287118407
-0.36573642 0.036907334 -0.12338091 4287117640
-0.36634409 0.037809063 -0.12480772 4287118664
-0.36720404 0.038688757 -0.12663545 4286986823
-0.36781988 0.039601747 -0.12808105 4286920257
-0.36869121 0.040494319 -0.12993349 4286132798
-0.36931545 0.041418731 -0.13139832 4285674045
-0.36994326 0.04234853 -0.13287157 4285213757
-0.37031877 0.043307066 -0.13394715 4284949037
-0.37095249 0.044246957 -0.13543494 4281800738
-0.37107411 0.045235384 -0.13611086 4279637798
-0.37145394 0.046205278 -0.137199 4279572521
-0.37183526 0.047178995 -0.1382914 4279573545
-0.37195829 0.048175283 -0.13897337 4279704104
-0.37234169 0.049155816 -0.14007245 4279768095
-0.37220505 0.050173901 -0.14034142 4279768085
-0.37206841 0.051192079 -0.14061043 4279835423
-0.37245271 0.052180622 -0.14171486 4280033065
-0.37231576 0.053200901 -0.14198442 4280228904
-0.37191835 0.054234158 -0.14183533 4280229670
-0.37282592 0.055205949 -0.14378522 4280295981
-0.37374064 0.056185439 -0.1457504 4280559418
-0.37307593 0.057233084 -0.14517233 4281086790
-0.3739934 0.058222603 -0.14714688 4281220703
-0.37491804 0.059220001 -0.14913701 4281483099
-0.37504619 0.060246781 -0.14984208 4282011217
-0.37651899 0.061245017 -0.15272665 4283582292
-0.37746385 0.062265623 -0.15476091 4283449952
-0.37869078 0.063290335 -0.15725733 4282929244
-0.38020781 0.064322285 -0.16023041 4283519308
-0.38118196 0.065371081 -0.16232602 4286870610
-0.37806097 -0.024084343 -0.11605838 4286396521
-0.37740278 -0.022910889 -0.11554781 4285936194
-0.37753037 -0.021998433 -0.11619879 4284886590
-0.37713477 -0.020914523 -0.11607531 4284428083
-0.37647954 -0.019749135 -0.11556575 4283312946
-0.37556812 -0.018506128 -0.11467379 4283053104
-0.374919 -0.01735072 -0.11416938 4282265140
-0.37427229 -0.016199667 -0.11366688 4282267972
-0.37362811 -0.015052885 -0.11316632 4282331713
-0.37324059 -0.013987409 -0.11304718 4282661172
-0.37285388 -0.012923887 -0.11292831 4283967799
-0.37246785 -0.01186232 -0.11280967 4283905347
-0.37208253 -0.010802659 -0.11269127 4283777862
-0.37144601 -0.0096721835 -0.11219548 4284245334
-0.37106273 -0.0086174374 -0.11207804 4286604647
-0.3704299 -0.0074940962 -0.11158481 4286349505
-0.36979949 -0.0063748853 -0.11109349 4284520384
-0.36917138 -0.0052598082 -0.110604 4284504250
-0.36805284 -0.0040152357 -0.10937338 4284373951
-0.36743146 -0.0029106387 -0.10888989 4284916717
-0.36681241 -0.0018100814 -0.1084082 4290039535
-0.36619565 -0.00071351451 -0.1079283 4289909503
-0.36558115 0.00037903673 -0.10745023 4288924415
-0.36496893 0.0014676152 -0.10697393 4288720127
-0.36483943 0.0024322893 -0.10722882 4286486524
-0.36446956 0.0034562009 -0.10711844 4286342346
-0.36410037 0.004478259 -0.10700827 4281549510
-0.36373189 0.0054985438 -0.10689837 4281547326
-0.36312583 0.0065730535 -0.10642534 4281877055
-0.3622852 0.0076985755 -0.10559256 4281878354
-0.36121419 0.0088715982 -0.10440528 4281942866
-0.36038411 0.0099838004 -0.10358337 4281948339
-0.35979071 0.0110387 -0.10312163 4282418611
-0.35919949 0.01208985 -0.10266161 4282414001
-0.35884106 0.013087954 -0.10255745 4289713073
-0.35848323 0.014084336 -0.10245349 4289916157
-0.3581261 0.015078967 -0.10234976 4292998655
-0.35822895 0.015978711 -0.10295402 4293260287
-0.35833201 0.016880112 -0.10355943 4291151359
-0.35820472 0.017828345 -0.10380998 4291001000
-0.35784742 0.018820774 -0.10370497 4288630178
-0.35772023 0.019768264 -0.10395531 4288364376
-0.35759303 0.02071584 -0.10420569 4287707472
-0.35769546 0.021621913 -0.10481233 4287644242
-0.35756814 0.022570463 -0.10506296 4286469202
-0.35767063 0.023479197 -0.10567094 4286342004
-0.3580038 0.024350477 -0.10663892 4285293177
-0.35856986 0.025186451 -0.10797151 4285096569
-0.35913903 0.026027072 -0.10931145 4284833145
-0.35971132 0.026872411 -0.11065876 4284765546
-0.36075845 0.027649229 -0.11275112 4284105831
-0.36133942 0.028505461 -0.11411798 4283971906
-0.36192364 0.029366516 -0.11549246 4284689721
-0.3625111 0.030232439 -0.11687459 4284886841
-0.36286098 0.031137133 -0.11788612 4286329657
-0.36321214 0.032045294 -0.11890145 4286723903
-0.36356461 0.032956883 -0.11992057 4287117121
-0.36391839 0.033872001 -0.12094356 4287314500
-0.36427355 0.034790587 -0.12197039 4287183429
-0.36462992 0.035712715 -0.12300109 4287183944
-0.3649877 0.036638409 -0.12403569 4287118153
-0.36559319 0.037539423 -0.12546441 4287118662
-0.36645028 0.038418118 -0.12729463 4286789956
-0.36706394 0.039330356 -0.12874217 4286657598
-0.36793232 0.040221944 -0.13059717 4285935675
-0.36855435 0.041145582 -0.13206396 4285608251
-0.36917993 0.04207468 -0.13353917 4285147707
-0.36980915 0.043009166 -0.13502292 4284882985
-0.37044197 0.043949153 -0.13651532 4281800221
-0.37056318 0.044938304 -0.13719293 4279637790
-0.37094238 0.045908585 -0.13828427 4279638046
-0.37132299 0.046882689 -0.13937984 4279638819
-0.37170514 0.047860671 -0.14047973 4279704104
-0.37182835 0.048860643 -0.14116587 4279702305
-0.37195182 0.049862646 -0.14185342 4279768345
-0.37181488 0.050882827 -0.14212297 4279769888
-0.37219939 0.051872738 -0.14323257 4279967786
-0.37206215 0.052895065 -0.14350268 4280164140
-0.37166417 0.053930685 -0.14335191 4280229935
-0.37257251 0.054903187 -0.14531156 4280296751
-0.3732239 0.055894811 -0.14685936 4280559662
-0.37255952 0.056944106 -0.14627858 4281087548
-0.37347582 0.057933494 -0.14825945 4281222236
-0.37439933 0.058930777 -0.15025599 4281551454
-0.37479424 0.059950918 -0.15139721 4282011746
-0.37653917 0.060942907 -0.15473749 4283518048
-0.37748688 0.061965425 -0.15678594 4283448923
-0.37899357 0.062987246 -0.15975018 4282925408
-0.37996078 0.064028502 -0.16183965 4283520885
-0.3774341 -0.025360553 -0.11645935 4287776876
-0.37703821 -0.024272563 -0.11633542 4285281119
-0.37664306 -0.023186572 -0.1162118 4284625221
-0.37650907 -0.022188375 -0.11647555 4283184713
-0.37585503 -0.021020619 -0.11596522 4282922324
-0.37520346 -0.019857237 -0.1154569 4282139221
-0.37429735 -0.018616214 -0.11456701 4282143070
-0.37365183 -0.017462796 -0.11406377 4282076260
-0.3727544 -0.016234301 -0.1131821 4282147191
-0.37211484 -0.015090691 -0.11268391 4282275700
-0.37172985 -0.014028179 -0.11256561 4282338413
-0.37159768 -0.013043522 -0.1128258 4282464107
-0.37121353 -0.011983828 -0.11270753 4282657358
-0.37108144 -0.010999957 -0.11296753 4283643725
-0.37069809 -0.0099430028 -0.11284926 4283776073
-0.37031549 -0.0088879699 -0.11273121 4284567124
-0.36968404 -0.0077641103 -0.11223681 4284698258
-0.36930344 -0.0067139571 -0.11211974 4285365394
-0.36867568 -0.0055971462 -0.11162792 4285500053
-0.36780381 -0.0044172197 -0.11076481 4286274456
-0.36718172 -0.0033097896 -0.11027784 4286541268
-0.36656195 -0.002206387 -0.10979269 4288788696
-0.36594445 -0.001107038 -0.1093094 4288925181
-0.36532927 -1.1696671e-05 -0.10882787 4290362875
-0.36495757 0.0010181444 -0.10871563 4290235369
-0.36458656 0.0020461779 -0.10860357 4287991013
-0.36421621 0.0030723596 -0.10849176 4287716777
-0.36384657 0.0040967069 -0.10838019 4280498341
-0.36347756 0.0051192469 -0.10826883 4280558906
-0.36263284 0.0062528918 -0.10742791 4282857531
-0.36202934 0.0073251603 -0.10695443 4282861916
-0.36072254 0.0085556656 -0.10539963 4280564572
-0.35989305 0.0096697658 -0.10457427 4280562052
-0.3595323 0.010674523 -0.1044679 4281951364
-0.35870904 0.011778936 -0.10364814 4282018493
-0.35835069 0.012778277 -0.10354304 4288658366
-0.35799301 0.013775865 -0.10343812 4288867581
-0.35786569 0.014723907 -0.10368866 4292932351
-0.35773841 0.015672019 -0.1039392 4293193727
-0.35784104 0.016574008 -0.10454606 4291611903
-0.35748377 0.017568441 -0.10444032 4291462066
-0.35735646 0.018516779 -0.10469092 4287777197
-0.35722911 0.019465148 -0.10494152 4287381082
-0.35710174 0.020413626 -0.10519218 4287707729
-0.35697439 0.021362141 -0.10544281 4287775059
-0.35707632 0.022269731 -0.10605117 4286533716
-0.35717839 0.023179064 -0.10666063 4286341746
-0.35751095 0.024050605 -0.10763135 4285096310
-0.35784471 0.024925388 -0.10860559 4284833908
-0.35841185 0.025765343 -0.10994731 4284634996
-0.35921589 0.026572468 -0.11166319 4284566370
-0.36002582 0.027385633 -0.11339174 4283776094
-0.36060476 0.028241158 -0.11476041 4283576128
-0.36118692 0.029101534 -0.11613669 4285344824
-0.36177227 0.029966757 -0.11752068 4285805113
-0.36212072 0.030870982 -0.11853343 4286723129
-0.36247048 0.031778663 -0.11955 4286986558
-0.36282155 0.032689799 -0.12057039 4287313728
-0.3631739 0.033604439 -0.12159462 4287380291
-0.3635276 0.034522574 -0.12262272 4287314500
-0.36388257 0.035444248 -0.12365467 4287315270
-0.36423889 0.036369447 -0.12469056 4287118151
-0.36484221 0.037269752 -0.12612116 4287052612
-0.36569643 0.038147479 -0.1279539 4286396483
-0.36630791 0.039058965 -0.12940335 4286001212
-0.36717337 0.039949536 -0.13126092 4285607480
-0.3677932 0.040872451 -0.13272962 4285410874
-0.36841655 0.041800771 -0.13420682 4285081914
-0.36929846 0.042710703 -0.13610083 4284817193
-0.36993039 0.043650784 -0.13759781 4281931037
-0.37005118 0.044640623 -0.13827716 4279638816
-0.37042969 0.045611281 -0.13937171 4279835682
-0.3708097 0.046585813 -0.14047047 4279966244
-0.37119114 0.047564186 -0.14157358 4279769127
-0.37131396 0.048564892 -0.14226153 4279571232
-0.37143698 0.049567599 -0.14295085 4279571481
-0.37129989 0.050588831 -0.14322071 4279572768
-0.37168375 0.051579162 -0.14433354 4279704872
-0.37154633 0.052602533 -0.14460398 4279967531
-0.37140891 0.053625975 -0.14487441 4280164398
-0.37205562 0.054611836 -0.14641793 4280427822
-0.37270609 0.05560359 -0.14797057 4280690990
-0.37204203 0.056654539 -0.14738706 4281284924
-0.37295717 0.057643808 -0.14937431 4281551963
-0.37414604 0.058632236 -0.15181197 4282140764
-0.37454113 0.059653822 -0.15295853 4282337633
-0.37628776 0.06064577 -0.15631641 4282928480
-0.37723637 0.061669167 -0.15837535 4282860122
-0.37846828 0.062696099 -0.16090259 4282534239
-0.37943432 0.063737296 -0.16299888 4283270517
-0.37759376 -0.026908459 -0.11802965 4288111477
-0.37615141 -0.025458507 -0.11634826 4286922820
-0.37575746 -0.024372464 -0.11622475 4284494150
-0.37510547 -0.023201751 -0.11571538 4284039755
-0.37523043 -0.022292092 -0.11636475 4282862434
-0.37458006 -0.021126352 -0.11585567 4282666395
-0.3736757 -0.019881746 -0.11496466 4282214050
-0.37277651 -0.018644167 -0.11407875 4282213813
-0.37213567 -0.017493919 -0.11357788 4282217406
-0.37124506 -0.016268797 -0.11270012 4282284503
-0.37061012 -0.015128305 -0.11220429 4282423767
-0.37022761 -0.014068737 -0.1120868 4282407641
-0.37009573 -0.013086845 -0.1123463 4282209474
-0.36996385 -0.012104867 -0.11260582 4282333279
-0.37008214 -0.011196923 -0.11324327 4283052631
-0.36970007 -0.010140729 -0.1131249 4283121714
-0.36956817 -0.0091585694 -0.11338446 4283576885
-0.36918694 -0.0081051392 -0.11326611 4283776324
-0.36880642 -0.0070536574 -0.11314799 4284497734
-0.36817893 -0.0059351497 -0.11265384 4284640598
-0.36755377 -0.0048207636 -0.11216149 4285489761
-0.36693096 -0.0037104588 -0.11167105 4285685424
-0.36631048 -0.0026042277 -0.11118242 4287469495
-0.36569226 -0.0015020382 -0.11069566 4287674105
-0.36507636 -0.00040388788 -0.11021073 4289701878
-0.3644627 0.00069027842 -0.10972761 4289576392
-0.36409181 0.0017195849 -0.10961457 4287528643
-0.36372155 0.0027470409 -0.10950175 4287326072
-0.36311266 0.0038315402 -0.10902181 4281084790
-0.36274433 0.0048543564 -0.10890985 4281083955
-0.3621389 0.0059321178 -0.10843237 4281870901
-0.36129937 0.0070615485 -0.10759259 4281875306
-0.36046445 0.0081848158 -0.10675745 4280430698
-0.35963407 0.0093020126 -0.10592692 4280429376
-0.3592729 0.010308998 -0.10581914 4281415488
-0.35868037 0.011365377 -0.10535258 4281428173
-0.35808998 0.012417977 -0.10488772 4287666386
-0.35773182 0.013417745 -0.10478146 4287883006
-0.35737434 0.014415762 -0.10467539 4292603647
-0.35747674 0.015317398 -0.10528348 4292931071
-0.35734916 0.016267329 -0.10553454 4291549183
-0.35699198 0.01726299 -0.10542785 4291465412
-0.35663539 0.018256864 -0.10532136 4287710142
-0.35650802 0.019205313 -0.10557201 4287315037
-0.35638064 0.020153819 -0.10582267 4287707731
-0.356482 0.021060266 -0.1064314 4287710294
-0.35658351 0.021968432 -0.10704122 4286597462
-0.35645586 0.022918863 -0.10729239 4286406767
-0.35678709 0.023789981 -0.10826429 4285030258
-0.35735029 0.024625257 -0.10960261 4284766828
-0.35791653 0.025465168 -0.11094832 4284370283
-0.35871947 0.026271982 -0.11266951 4284302164
-0.35929316 0.027122023 -0.11403241 4284100687
-0.35963413 0.028013321 -0.11503027 4284100156
-0.36021301 0.028872279 -0.11640608 4285607991
-0.36055729 0.029771077 -0.11741303 4286067513
-0.36114138 0.030639088 -0.11880191 4286854457
-0.3612496 0.031578984 -0.11943826 4287117630
-0.36159769 0.032488067 -0.12045656 4287248447
-0.36194706 0.03340067 -0.1214787 4287314752
-0.36229774 0.034316719 -0.12250468 4287314241
-0.36289221 0.035206068 -0.12392107 4287315011
-0.36324629 0.036129974 -0.1249565 4287117636
-0.36384624 0.037028771 -0.12638655 4286986561
-0.36469579 0.037904799 -0.12821859 4286592063
-0.3655518 0.038787547 -0.13006461 4286394423
-0.36641437 0.039677098 -0.13192472 4285672498
-0.36728349 0.040573552 -0.13379914 4285279542
-0.36815932 0.041476976 -0.13568793 4284950840
-0.36878669 0.042411633 -0.13718084 4284751657
-0.36941773 0.043351777 -0.13868245 4281866013
-0.36979502 0.044319898 -0.13977781 4279638823
-0.37017375 0.045291882 -0.14087738 4279835952
-0.37029532 0.046288323 -0.14156333 4279966505
-0.3706761 0.047267124 -0.14266966 4279769378
-0.3707985 0.048268538 -0.14335938 4279571229
-0.37118134 0.049254231 -0.14447249 4279571223
-0.37104392 0.050277468 -0.14474292 4279572251
-0.37168956 0.051253323 -0.14628603 4279704095
-0.37155169 0.052279718 -0.14655729 4279966498
-0.37115261 0.053320035 -0.14640298 4280098599
-0.37206241 0.054294057 -0.14838241 4280427049
-0.37218717 0.05531181 -0.14908399 4280690989
-0.37204874 0.056342557 -0.1493564 4281284917
-0.37243739 0.0573535 -0.15049136 4281551686
-0.37362483 0.058341507 -0.15293704 4282139719
-0.37401929 0.0593636 -0.15408704 4282336843
-0.37576395 0.06035452 -0.15745622 4282925640
-0.37698475 0.061371725 -0.15997124 4282861885
-0.37794185 0.062404353 -0.1620574 4282541642
-0.37862915 0.063449495 -0.16370323 4283270540
-0.37630701 -0.027003806 -0.11791526 4285814646
-0.37513235 -0.025645129 -0.1166246 4284692565
-0.3742238 -0.024384312 -0.1157288 4282599259
-0.37357655 -0.02321687 -0.11522187 4282473826
-0.37395668 -0.022395469 -0.11625444 4282080118
-0.37305406 -0.021147287 -0.11536232 4282149793
-0.37215659 -0.019906146 -0.1144753 4282347179
-0.37126422 -0.018671986 -0.1135933 4282414274
-0.370628 -0.017524902 -0.11309484 4282481096
-0.36974412 -0.016303131 -0.11222095 4282549721
-0.36911374 -0.015165736 -0.11172743 4282749143
-0.36898211 -0.01418573 -0.11198645 4282543309
-0.36885044 -0.013205673 -0.1122455 4281687741
-0.36896744 -0.012300484 -0.11288144 4281751928
-0.3693341 -0.011467846 -0.11389714 4281877105
-0.36920205 -0.010484771 -0.11415697 4281880918
-0.36906999 -0.0095016342 -0.11441681 4281744471
-0.36893791 -0.0085184099 -0.11467668 4281937761
-0.36855689 -0.0074645057 -0.11455704 4283121504
-0.36792865 -0.0063430979 -0.11405931 4283251290
-0.36730281 -0.0052258112 -0.11356349 4284239968
-0.36667922 -0.0041126455 -0.1130695 4284369034
-0.3658137 -0.0029377618 -0.11220329 4285298575
-0.36519584 -0.0018339024 -0.11171421 4285632704
-0.36482245 -0.00079755485 -0.11159877 4288580800
-0.36420813 0.0002993969 -0.11111221 4288456893
-0.36359605 0.0013923389 -0.11062746 4286810555
-0.36298627 0.0024813183 -0.11014456 4286478498
-0.36237869 0.0035663589 -0.10966346 4282013601
-0.36201099 0.0045894305 -0.10955096 4281937777
-0.36117023 0.0057246326 -0.10870659 4280240753
-0.36056936 0.0067979125 -0.10823081 4280231029
-0.35997063 0.0078673372 -0.10775679 4280168821
-0.35937411 0.0089329267 -0.10728455 4280164923
-0.35901245 0.0099421032 -0.10717539 4280496699
-0.3584193 0.01100111 -0.10670552 4280510143
-0.35782829 0.012056336 -0.10623739 4285960899
-0.35746971 0.013058272 -0.10612974 4286177533
-0.35688201 0.014107034 -0.10566396 4292013055
-0.35675439 0.01505693 -0.10591502 4292406015
-0.35662678 0.016006881 -0.10616611 4291549183
-0.35627025 0.0170028 -0.10605887 4291469515
-0.35591429 0.017996959 -0.10595185 4287645381
-0.35555899 0.018989412 -0.10584502 4287248732
-0.35543168 0.019937072 -0.1060955 4287576402
-0.35576016 0.020800216 -0.10706256 4287645782
-0.35586095 0.021708189 -0.107673 4286727767
-0.35596198 0.022617906 -0.10828456 4286602858
-0.35629255 0.023489282 -0.10925919 4284897902
-0.35662434 0.024363905 -0.11023739 4284567396
-0.35718855 0.025203152 -0.11158488 4283843682
-0.35798877 0.026009021 -0.11330843 4283708492
-0.35856044 0.026858382 -0.11467313 4284755270
-0.35890001 0.027749211 -0.11567223 4285018171
-0.35924086 0.028643427 -0.11667503 4286328888
-0.35958299 0.029541016 -0.11768162 4286722618
-0.35992631 0.030441992 -0.11869192 4287182139
-0.36027095 0.031346418 -0.119706 4287314750
-0.36037832 0.032287084 -0.12034324 4287248703
-0.36072475 0.033197597 -0.12136328 4287183681
-0.36131254 0.034080438 -0.1227712 4287248706
-0.3616623 0.034998722 -0.12380063 4287315011
-0.3620134 0.035920557 -0.12483391 4286986308
-0.36260867 0.036817122 -0.12626095 4286854721
-0.36369699 0.037662547 -0.12848286 4287247168
-0.36430159 0.038570996 -0.12993115 4287443770
-0.36565527 0.039404638 -0.13258858 4285739062
-0.36652148 0.040300101 -0.13446556 4284689974
-0.36739433 0.041202489 -0.13635698 4284557623
-0.36827391 0.042111963 -0.13826305 4284423977
-0.36890402 0.043052167 -0.13976927 4281800221
-0.36902398 0.044043411 -0.14045215 4279704103
-0.36940119 0.045014903 -0.14155307 4279901487
-0.36977983 0.045990232 -0.14265834 4280032041
-0.37015998 0.046969429 -0.14376794 4279900451
-0.37054154 0.047952544 -0.14488186 4279702557
-0.37066415 0.048957679 -0.14557582 4279636759
-0.37078694 0.049964864 -0.14627117 4279571994
-0.37143302 0.050941732 -0.14782184 4279638047
-0.37129486 0.051970199 -0.14809367 4279769890
-0.37115669 0.052998725 -0.14836553 4279967015
-0.37154284 0.054000907 -0.14949627 4280296233
-0.37193045 0.055007126 -0.1506315 4280625965
-0.37179172 0.056039963 -0.15090449 4281284148
-0.37218061 0.057052355 -0.15204482 4281681478
-0.37310252 0.058050193 -0.15406437 4282729287
-0.37376377 0.059064426 -0.15565848 4282532683
-0.37523904 0.060062673 -0.15859829 4282008392
-0.37618524 0.06108585 -0.16067061 4282731325
-0.37713909 0.062117413 -0.16275965 4286146119
-0.37685359 -0.027737683 -0.12054402 4285154939
-0.37567109 -0.026369633 -0.11923708 4284238993
-0.37475663 -0.025100641 -0.11832951 4282475417
-0.37410527 -0.023926226 -0.11781525 4282344872
-0.37345633 -0.022756208 -0.11730295 4282084011
-0.3715367 -0.021168152 -0.11487184 4282150579
-0.37039438 -0.019847857 -0.11360868 4282349249
-0.36951032 -0.018618466 -0.11273251 4282349796
-0.36887977 -0.017475782 -0.11223758 4282351075
-0.36825162 -0.016337289 -0.11174451 4282349278
-0.36787269 -0.015280563 -0.11162799 4282478548
-0.36774129 -0.014302345 -0.11188655 4282281137
-0.36785695 -0.013399925 -0.11252096 4281689520
-0.36797285 -0.012495746 -0.11315659 4281688494
-0.36833724 -0.011664208 -0.11417187 4281819308
-0.36870301 -0.010829488 -0.11519105 4281817764
-0.3685708 -0.0098453714 -0.11545117 4281751970
-0.36868787 -0.0089332629 -0.11609262 4281876631
-0.36830631 -0.0078769429 -0.11597151 4282666640
-0.36792547 -0.0068225386 -0.11585058 4282728801
-0.3672978 -0.0057011717 -0.11534999 4283512157
-0.36667249 -0.0045839273 -0.11485131 4283647297
-0.36580449 -0.0034044061 -0.1139777 4284497219
-0.36494139 -0.0022313986 -0.11310899 4284772436
-0.36456755 -0.0011927241 -0.11299207 4287192156
-0.36371106 -3.0130635e-05 -0.11212935 4287138216
-0.36309934 0.0010644859 -0.11164232 4286160045
-0.36248985 0.00215513 -0.11115713 4286020339
-0.3618826 0.0032417756 -0.1106737 4283870451
-0.36151502 0.0042661661 -0.11056025 4283849960
-0.36067483 0.0054032994 -0.10971233 4283403237
-0.36007422 0.0064782356 -0.10923427 4283390091
-0.35947585 0.0075492421 -0.10875805 4282856331
-0.3591131 0.0085624317 -0.10864722 4282860082
-0.35851812 0.0096268291 -0.1081734 4281018930
-0.35815722 0.010635479 -0.10806347 4280965027
-0.35756558 0.011693347 -0.10759205 4285695655
-0.35697606 0.01274739 -0.10712235 4285913852
-0.3566182 0.013748803 -0.10701396 4291749631
-0.35649034 0.014700481 -0.10726552 4292143103
-0.3559044 0.01574642 -0.10679772 4291352575
-0.35554844 0.016742583 -0.10668997 4291337943
-0.35519311 0.017737031 -0.10658241 4287777235
-0.35483843 0.018729761 -0.10647506 4287380315
-0.35471109 0.01967744 -0.10672556 4288296783
-0.35503823 0.020540165 -0.10769379 4288435799
-0.35513836 0.021447917 -0.10830484 4286923096
-0.35523865 0.02235741 -0.10891702 4286731362
-0.3555679 0.02322837 -0.10989282 4284435556
-0.35612819 0.024062926 -0.11123694 4284106322
-0.35646054 0.024941107 -0.11222149 4283773775
-0.35725805 0.025746064 -0.11394741 4283707448
-0.3578276 0.026594711 -0.11531393 4285082675
-0.35793173 0.027521988 -0.11594112 4285411385
-0.35827047 0.028414968 -0.11694359 4286459963
-0.35861042 0.029311325 -0.11794972 4286722879
-0.3589516 0.030211091 -0.11895964 4287182144
-0.35929409 0.031114295 -0.11997333 4287315007
-0.35940036 0.032053884 -0.12061024 4287249471
-0.35998282 0.032930989 -0.1220121 4287183939
-0.36032909 0.033844545 -0.12303723 4287183940
-0.36067668 0.034761582 -0.12406623 4287183939
-0.36102557 0.035682157 -0.12509912 4287051843
-0.36161745 0.036577225 -0.12652557 4286985796
-0.36245611 0.037449099 -0.12835303 4287312964
-0.36330116 0.038327679 -0.13019438 4287509828
-0.36464781 0.039159194 -0.13285081 4286068036
-0.3655093 0.040052842 -0.13472706 4285018682
-0.36662927 0.040928006 -0.13702609 4284623667
-0.36750588 0.041836411 -0.13893476 4284358440
-0.36838928 0.042751949 -0.14085826 4281865759
-0.36850879 0.043743916 -0.14154285 4279704100
-0.36888534 0.044715788 -0.14264704 4279901224
-0.36926329 0.045691531 -0.14375557 4280032039
-0.36964276 0.046671152 -0.1448684 4279900454
-0.3700237 0.04765467 -0.14598563 4279702559
-0.37040609 0.048642125 -0.14710723 4279636758
-0.37052885 0.049651008 -0.14780547 4279571737
-0.37117541 0.050628919 -0.14936376 4279637789
-0.37129939 0.051643874 -0.15006703 4279769119
-0.37142354 0.052660905 -0.15077166 4279967011
-0.371548 0.053680025 -0.15147772 4280296230
-0.37193677 0.05468864 -0.15262032 4280560173
-0.37179759 0.055724554 -0.15289414 4281283634
-0.37218761 0.056739353 -0.15404181 4281681216
-0.37284547 0.057748634 -0.15563428 4282728256
-0.37323946 0.058772657 -0.15679315 4282597695
-0.37498382 0.059762497 -0.16019151 4282006342
-0.37565798 0.060793288 -0.16182177 4282667118
-0.37833822 -0.029772241 -0.12413073 4285290869
-0.37714082 -0.028385749 -0.12279981 4282144129
-0.37621501 -0.027101144 -0.12187491 4282081941
-0.37529454 -0.0258239 -0.12095539 4281886622
-0.3743794 -0.024553921 -0.12004115 4281953454
-0.37346947 -0.023291185 -0.11913221 4282084786
-0.3710368 -0.021525674 -0.11591313 4282151867
-0.36989528 -0.020202732 -0.11464491 4282284231
-0.3687624 -0.01888969 -0.11338623 4282153955
-0.36788538 -0.017666364 -0.11251321 4281890528
-0.36701328 -0.016449856 -0.11164514 4281821396
-0.36663619 -0.015394941 -0.11152892 4281625802
-0.36650497 -0.014418541 -0.11178705 4281624496
-0.36686525 -0.013593843 -0.11279599 4281624496
-0.36698008 -0.012690668 -0.11343128 4281624496
-0.36758977 -0.011934927 -0.11482524 4281689262
-0.36795413 -0.011100655 -0.11584567 4281689513
-0.36807057 -0.010189779 -0.11648752 4281820585
-0.36843681 -0.0093497159 -0.117514 4281754278
-0.36830416 -0.0083626453 -0.11777496 4281555615
-0.36792222 -0.0073047411 -0.11765202 4281621368
-0.36729273 -0.0061792531 -0.1171467 4281942645
-0.36666563 -0.0050579272 -0.11664324 4282076512
-0.3657952 -0.0038736986 -0.11576215 4282859617
-0.36468595 -0.0026304296 -0.11450904 4282987367
-0.36406896 -0.0015249199 -0.11401481 4284108907
-0.36345422 -0.0004234839 -0.11352248 4284170636
-0.36284176 0.00067392888 -0.11303193 4284710799
-0.36223161 0.0017673468 -0.11254327 4284903358
-0.3616237 0.0028567614 -0.11205647 4287335870
-0.361018 0.0039422475 -0.11157143 4287409856
-0.36041456 0.0050237766 -0.11108824 4289496767
-0.35981333 0.0061014057 -0.11060685 4289510558
-0.35921425 0.0071751275 -0.11012722 4287977630
-0.35885108 0.0081905378 -0.110015 4287987825
-0.35825542 0.009257623 -0.10953781 4282012273
-0.35789409 0.010268508 -0.10942648 4281810093
-0.35730183 0.011329007 -0.10895173 4285101487
-0.35671169 0.012385689 -0.10847872 4285254622
-0.35635337 0.013389285 -0.10836889 4291156449
-0.35599568 0.014391167 -0.10825929 4291551741
-0.35541007 0.015438632 -0.10778933 4291021567
-0.35505423 0.016436031 -0.1076806 4290943183
-0.35447189 0.017477078 -0.10721301 4288039115
-0.35411781 0.018470066 -0.10710511 4287709020
-0.35399047 0.019417793 -0.10735565 4289870928
-0.35431623 0.020280056 -0.10832508 4290213717
-0.35441568 0.021187624 -0.10893673 4287316565
-0.35474309 0.022055611 -0.10991172 4286922584
-0.35507166 0.02292683 -0.11089025 4283580760
-0.35540146 0.023801289 -0.1118724 4282921803
-0.35596281 0.024639834 -0.11322568 4283641159
-0.35652721 0.025483081 -0.11458646 4283772215
-0.35709476 0.026331024 -0.11595477 4285738036
-0.35719815 0.027258072 -0.1165826 4286329146
-0.35730177 0.028186917 -0.11721165 4286656828
-0.35763958 0.029082067 -0.1182174 4286789439
-0.35797864 0.02998062 -0.11922695 4287182656
-0.3580834 0.030916503 -0.1198614 4287315264
-0.35842422 0.031821102 -0.12087681 4287249473
-0.35900334 0.032696776 -0.12227817 4287183939
-0.35934746 0.03360907 -0.12330285 4286987332
-0.35993183 0.03449402 -0.1247176 4286856004
-0.36027929 0.0354141 -0.12575176 4287182661
-0.36062801 0.036337715 -0.12678975 4287379013
-0.36146215 0.037207909 -0.12861656 4287640901
-0.36254701 0.038056962 -0.13085392 4287838789
-0.36388928 0.038886935 -0.13351417 4287248709
-0.36499721 0.039753091 -0.13579863 4286789948
-0.36586416 0.040653475 -0.13769524 4285215030
-0.36699119 0.041535843 -0.14001982 4283965737
-0.36761814 0.042475387 -0.14153269 4281669408
-0.36799252 0.043443806 -0.14263579 4279703844
-0.36836839 0.044416096 -0.1437432 4279901224
-0.36874571 0.045392234 -0.14485496 4280032295
-0.36912447 0.046372242 -0.14597107 4279966502
-0.36950472 0.047356188 -0.1470916 4279834143
-0.36988646 0.048344053 -0.14821649 4279702806
-0.37026969 0.04933589 -0.14934586 4279506201
-0.37091669 0.050314818 -0.15091179 4279571741
-0.37130383 0.051315598 -0.1520521 4279637791
-0.37169251 0.052320398 -0.15319695 4279835427
-0.37155318 0.05335724 -0.15347104 4280165158
-0.37194303 0.054368243 -0.15462096 4280494381
-0.3720687 0.055395305 -0.15533516 4281216562
-0.37219456 0.056424487 -0.15605079 4281283904
-0.37285435 0.057435863 -0.15765406 4281351232
-0.3732495 0.058462393 -0.15882045 4281808190
-0.3741858 0.059477113 -0.16088957 4283450182
-0.37957641 -0.03174153 -0.12736638 4286801567
-0.3786335 -0.03043339 -0.12641814 4284899994
-0.3776961 -0.029132837 -0.12547551 4282147489
-0.37649998 -0.027747361 -0.1241381 4282017453
-0.3755751 -0.026463252 -0.12320849 4281953975
-0.37491637 -0.025275944 -0.12268043 4282019785
-0.3737413 -0.02391707 -0.12136538 4282086096
-0.37104282 -0.022054076 -0.11772804 4282152158
-0.36914453 -0.020475022 -0.11530111 4282218463
-0.3677662 -0.019079346 -0.11366133 4282086625
-0.36689276 -0.017856615 -0.11278839 4281887444
-0.36602423 -0.016640659 -0.11192039 4281821105
-0.36564842 -0.015586542 -0.11180408 4281624752
-0.36576176 -0.01468788 -0.11243669 4281690285
-0.36612058 -0.013863664 -0.11344688 4281690799
-0.36648074 -0.013036245 -0.11446082 4281690548
-0.3670896 -0.012280748 -0.11585904 4281822133
-0.36770189 -0.011520906 -0.11726519 4281953464
-0.36806774 -0.010682582 -0.11829414 4282741947
-0.36843503 -0.0098410146 -0.11932704 4282608331
-0.36855254 -0.0089235781 -0.11997592 4281757127
-0.36791888 -0.0077897259 -0.11946381 4281820340
-0.36753651 -0.0067302459 -0.11933908 4282016948
-0.36641127 -0.0054657822 -0.11806186 4282079152
-0.36553988 -0.0042781201 -0.11717512 4282604462
-0.3644295 -0.0030309802 -0.11591438 4282662809
-0.36356932 -0.0018577967 -0.11503951 4283580817
-0.36271402 -0.00069107919 -0.11416957 4283581508
-0.3621029 0.00040687333 -0.11367787 4283970372
-0.36149406 0.0015008071 -0.11318804 4284111177
-0.36088747 0.0025907657 -0.11270008 4286333514
-0.36052004 0.0036177342 -0.11258457 4286418024
-0.35991693 0.0047008768 -0.1120991 4287984491
-0.35931599 0.0057801236 -0.11161539 4287994567
-0.35871729 0.0068554678 -0.11113355 4287146439
-0.35835418 0.0078721642 -0.11102029 4287134716
-0.35799176 0.0088870404 -0.11090731 4283476220
-0.35762993 0.0099001396 -0.11079453 4283323842
-0.35703704 0.010963305 -0.11031644 4285551296
-0.3564463 0.01202261 -0.10984011 4285640354
-0.35585767 0.013078124 -0.10936555 4289706912
-0.3555001 0.014081226 -0.10925497 4289973497
-0.35491481 0.015130255 -0.10878282 4289964799
-0.35455903 0.016128898 -0.10867309 4289889980
-0.35397702 0.017171456 -0.10820334 4287644853
-0.35362306 0.018165668 -0.10809449 4287446624
