# .PCD v0.7 - Point Cloud Data file format
VERSION 0.7
FIELDS x y z rgba
SIZE 4 4 4 4
TYPE F F F U
COUNT 1 1 1 1
WIDTH 1005
HEIGHT 1
VIEWPOINT 0 0 0 1 0 0 0
POINTS 1005
DATA ascii
-0.38027477 0.049861971 -0.11741503 4282263355
-0.38100246 0.051005837 -0.11874299 4280884265
-0.3820053 0.052190881 -0.12048471 4279835430
-0.38383821 0.053492963 -0.12347276 4279769635
-0.38514027 0.054738123 -0.12566778 4279638303
-0.38589594 0.055918161 -0.12704507 4279638043
-0.3863757 0.057065349 -0.1280095 4279637531
-0.38742077 0.058299553 -0.12982436 4279637530
-0.38818997 0.059501063 -0.13122642 4279637785
-0.38867861 0.060665905 -0.13220786 4279703320
-0.38974226 0.061925914 -0.13405585 4279769371
-0.3905254 0.06314943 -0.1354834 4279966751
-0.39189532 0.064476632 -0.13779673 4280295713
-0.39298493 0.065767638 -0.13968988 4280625700
-0.39378747 0.067018047 -0.14115199 4281546030
-0.39519083 0.068381548 -0.14352265 4282733386
-0.39600676 0.069650427 -0.14500856 4286214743
-0.38491943 -0.023191938 -0.10959271 4286594376
-0.38484216 -0.02215299 -0.10971414 4285149766
-0.38368082 -0.020968519 -0.10826813 4285281339
-0.3822608 -0.019758143 -0.10644612 4286265149
-0.38138473 -0.018626515 -0.10540927 4286200136
-0.38077801 -0.017533822 -0.1047613 4286004300
-0.38017362 -0.016445192 -0.1041158 4286076020
-0.37957153 -0.015360631 -0.10347278 4287074429
-0.3789717 -0.014280114 -0.10283215 4287076818
-0.37863475 -0.01323188 -0.10257233 4286816977
-0.37829843 -0.012185533 -0.102313 4286418379
-0.37744427 -0.011088621 -0.1013006 4281684420
-0.37685236 -0.010022918 -0.10066835 4281677151
-0.37600628 -0.0089370869 -0.099665388 4281608029
-0.37465647 -0.007811436 -0.097927846 4281618493
-0.37382275 -0.0067397165 -0.096940003 4282011456
-0.37274319 -0.0056531201 -0.095592484 4282084522
-0.37192017 -0.0045941779 -0.094617538 4283067052
-0.37110174 -0.0035410079 -0.093648002 4283277276
-0.37078071 -0.0025289624 -0.093403444 4290367965
-0.37021405 -0.0015019324 -0.092799723 4290368511
-0.36989471 -0.00049440551 -0.092556663 4290297855
-0.36982104 0.00049646228 -0.09267246 4290283418
-0.36974734 0.0014874456 -0.092788301 4280491674
-0.36967364 0.0024784633 -0.092904128 4280491305
-0.36935502 0.0034817455 -0.092661187 4280098345
-0.369037 0.0044832206 -0.092418663 4280099884
-0.36847612 0.0054932437 -0.091819622 4280164140
-0.36791733 0.0064996104 -0.091222748 4280164909
-0.36784399 0.0074856072 -0.091338009 4280361005
-0.3675288 0.0084791835 -0.091097862 4280361773
-0.36721411 0.0094710002 -0.090858176 4280295469
-0.36690006 0.010461106 -0.090618916 4280295980
-0.36682692 0.01144468 -0.090733871 4280492332
-0.36675376 0.012428343 -0.090848863 4280559152
-0.36692128 0.013409072 -0.091318466 4281673008
-0.36684805 0.014393785 -0.091433555 4281740596
-0.36677483 0.015378589 -0.091548659 4282724660
-0.36622107 0.016364055 -0.090954579 4282790743
-0.36590841 0.017346593 -0.090715721 4284038491
-0.36559635 0.018327434 -0.090477325 4284169554
-0.36528486 0.019306581 -0.090239391 4287053393
-0.3649739 0.020284012 -0.090001874 4287383631
-0.36466348 0.021259731 -0.089764781 4289807695
-0.36435366 0.022233771 -0.089528166 4290201173
-0.36404434 0.023206132 -0.089291975 4287578454
-0.36420816 0.024190351 -0.089756884 4287257712
-0.36413538 0.025168763 -0.089871243 4285228405
-0.36453658 0.026164383 -0.090689212 4284900985
-0.36493924 0.027163686 -0.091510147 4284965754
-0.36534339 0.028166715 -0.092334121 4284966264
-0.36719581 0.029242178 -0.095312588 4284703607
-0.36809528 0.030283377 -0.096876465 4284638070
-0.36949414 0.031359468 -0.099185504 4284703094
-0.3701621 0.032403763 -0.10040832 4284702837
-0.37133366 0.033485252 -0.10238302 4284570741
-0.37201178 0.034543522 -0.103624 4284503662
-0.37269372 0.035607781 -0.10487195 4283779179
-0.37312526 0.036659382 -0.1057474 4283578439
-0.37381354 0.037734818 -0.10700728 4285478203
-0.37424922 0.038795527 -0.10789093 4286266438
-0.3746866 0.039860353 -0.10877793 4286987338
-0.3748678 0.040906321 -0.10928254 4287316296
-0.37530756 0.041978333 -0.11017478 4286792775
-0.37574899 0.043054517 -0.11107033 4286538066
-0.37593204 0.044108752 -0.11157958 4286348888
-0.37663686 0.045219421 -0.11287182 4286149502
-0.3776086 0.046364918 -0.11456603 4284578197
-0.37805864 0.047460128 -0.11547866 4283526773
-0.37904146 0.04862104 -0.11719273 4282138975
-0.38003185 0.049791031 -0.11892002 4281147965
-0.38076016 0.050936926 -0.12025499 4280556067
-0.38176402 0.052124076 -0.12200604 4280097056
-0.38277569 0.053320561 -0.12377079 4279900445
-0.38407123 0.054563705 -0.12596515 4279703581
-0.38482296 0.0557421 -0.12734199 4279637532
-0.38530007 0.056887869 -0.12830611 4279506458
-0.38633978 0.058120206 -0.13012032 4279638040
-0.38710499 0.059319973 -0.13152191 4279834649
-0.38759094 0.060483392 -0.13250306 4279834650
-0.38836372 0.061696436 -0.13391882 4279835165
-0.38914108 0.062916838 -0.13534307 4279966754
-0.39050123 0.064240254 -0.13765101 4280164899
-0.391583 0.065527752 -0.13953984 4280625957
-0.39237958 0.066774927 -0.14099857 4281743150
-0.39377287 0.068134472 -0.14336361 4282667592
-0.39458275 0.069400012 -0.14484607 4285755987
-0.3836019 -0.023252627 -0.10950514 4287119683
-0.38352475 -0.02221562 -0.10962637 4285215043
-0.38237065 -0.021033155 -0.1081835 4285412674
-0.38149172 -0.019894658 -0.10713874 4286723906
-0.3806178 -0.018762581 -0.10609993 4286593353
-0.38001254 -0.017669572 -0.10545067 4285872715
-0.37940958 -0.016580656 -0.10480389 4285942620
-0.37880889 -0.015495816 -0.1041596 4286870886
-0.37821046 -0.014414955 -0.10351771 4286812100
-0.37787423 -0.013366566 -0.10325727 4285960639
-0.37753859 -0.012320065 -0.10299731 4285695633
-0.37694484 -0.011249059 -0.10236011 4281481612
-0.37635326 -0.010182023 -0.10172527 4281409594
-0.37550774 -0.0090946974 -0.10071839 4280887099
-0.37441272 -0.0079902746 -0.099345431 4280893765
-0.37357813 -0.0069159977 -0.098351799 4281087046
-0.37249741 -0.0058267047 -0.096996583 4281166460
-0.37142467 -0.0047453893 -0.095651403 4283199358
-0.37085426 -0.0037096455 -0.095040798 4283406273
-0.37028587 -0.0026776297 -0.094432399 4290301123
-0.36971962 -0.001649357 -0.093826309 4290303487
-0.36915547 -0.00062480493 -0.093222447 4290562303
-0.36908174 0.00036614461 -0.093338303 4290550992
-0.36900803 0.0013571279 -0.093454137 4280691152
-0.3689343 0.0023482286 -0.093570009 4280688178
-0.36837256 0.0033638689 -0.092967726 4280165938
-0.36829895 0.0043533007 -0.093083404 4280165448
-0.36773938 0.0053635589 -0.092483163 4280239688
-0.3671819 0.0063702459 -0.091885112 4280231280
-0.36686724 0.0073648021 -0.091644496 4280505966
-0.36655319 0.0083576022 -0.091404334 4280493944
-0.36647996 0.0093419813 -0.0915194 4280305784
-0.3661665 0.010332224 -0.091279589 4280296782
-0.36609334 0.011315855 -0.091394573 4280428619
-0.36578056 0.012303548 -0.091155134 4280427833
-0.36618698 0.013280205 -0.091979831 4280625208
-0.36611372 0.014264975 -0.09209495 4280624959
-0.36580059 0.015251119 -0.091854662 4280954688
-0.36548802 0.01623553 -0.09161482 4281019219
-0.3649376 0.017217766 -0.091021687 4282004053
-0.36462665 0.018197855 -0.090783283 4282136411
-0.36431628 0.019176258 -0.090545289 4286858843
-0.36400643 0.020152973 -0.09030775 4287319165
-0.36369717 0.02112798 -0.090070657 4290606210
-0.36338845 0.022101317 -0.089833975 4291054684
-0.36331573 0.023078712 -0.089948259 4287581015
-0.36347884 0.02406284 -0.090413772 4287063159
-0.36364222 0.025048841 -0.090880111 4285228670
-0.36404288 0.026045205 -0.091700703 4284900730
-0.36492178 0.027064113 -0.093235716 4285030777
-0.36532694 0.028069768 -0.094065115 4285032055
-0.36718434 0.029147511 -0.097064592 4284703606
-0.36808622 0.030191299 -0.098639295 4284638071
-0.3692416 0.031256378 -0.1005948 4284636791
-0.36966193 0.032287888 -0.10145256 4284637041
-0.37083223 0.033369869 -0.103434 4284569712
-0.37150952 0.034428824 -0.10467912 4284502365
-0.37193802 0.035476178 -0.10555264 4283317335
-0.37236813 0.036527563 -0.10642939 4282921540
-0.37305424 0.037602685 -0.10769123 4285871165
-0.37348849 0.038663205 -0.10857617 4286986819
-0.374181 0.039749607 -0.10985008 4287380549
-0.3743619 0.040796522 -0.11035625 4287512902
-0.3745431 0.041845515 -0.11086337 4287119942
-0.37498301 0.042921472 -0.11176029 4286926933
-0.37542462 0.044001587 -0.11266065 4286869597
-0.37612861 0.045113031 -0.11395727 4286868579
-0.37709928 0.046259277 -0.11565728 4285754730
-0.37781286 0.04738488 -0.11697127 4285029715
-0.37879658 0.048547797 -0.11869445 4282201412
-0.37951988 0.049687829 -0.12002619 4279967549
-0.38024738 0.050834604 -0.12136568 4280164407
-0.38125017 0.052022532 -0.12312281 4280360490
-0.38198772 0.053184152 -0.1244806 4280096797
-0.38300422 0.054389626 -0.12626199 4279768603
-0.38375202 0.055566404 -0.12763844 4279571993
-0.3842265 0.056710716 -0.12860216 4279375898
-0.38498166 0.057900358 -0.12999238 4279638554
-0.38574123 0.059097152 -0.13139087 4280031515
-0.38622344 0.060257845 -0.13236973 4279965980
-0.38699055 0.061467856 -0.13378234 4279900702
-0.38776225 0.062685192 -0.13520339 4279901474
-0.38882533 0.063957319 -0.13706911 4279968549
-0.38960797 0.065190919 -0.13851009 4280626478
-0.39068609 0.066482387 -0.14040244 4282202932
-0.3917729 0.067784406 -0.14231011 4282798408
-0.39286858 0.069097146 -0.14423333 4284837715
-0.38228932 -0.02331306 -0.10941795 4286265664
-0.38194403 -0.022240583 -0.10914778 4285674049
-0.3813321 -0.021133795 -0.10848831 4285807173
-0.38045698 -0.019996038 -0.10744368 4286658374
-0.37985083 -0.018898629 -0.10679066 4286593353
-0.37924701 -0.017805332 -0.1061401 4286069066
-0.37864545 -0.016716139 -0.10549206 4285875281
-0.37804621 -0.015630979 -0.10484647 4284377179
-0.37744915 -0.014549838 -0.10420333 4284579006
-0.37711361 -0.013501265 -0.10394227 4286679735
-0.37677866 -0.012454609 -0.10368168 4286284919
-0.37618628 -0.011383329 -0.10304324 4282593138
-0.37559614 -0.010315982 -0.10240714 4282458409
-0.3750082 -0.0092525873 -0.10177346 4280231467
-0.37391397 -0.0081464853 -0.10039531 4280299848
-0.37307999 -0.007070743 -0.099397846 4280428618
-0.37200007 -0.0059798337 -0.098037466 4280500327
-0.37117681 -0.0049169241 -0.097053081 4282544490
-0.37035808 -0.0038598869 -0.096074156 4282813367
-0.36979011 -0.0028266178 -0.095463365 4290234809
-0.36922422 -0.0017970669 -0.094854839 4290302975
-0.3689051 -0.00078732759 -0.094609447 4290825471
-0.36858657 0.00022064539 -0.094364494 4290818021
-0.36826864 0.0012268228 -0.094120063 4281937381
-0.36819488 0.0022179498 -0.094235957 4281944629
-0.36763448 0.0032338849 -0.093632475 4284623157
-0.36756083 0.004223343 -0.093748182 4284648018
-0.36700261 0.0052338941 -0.093146749 4286994771
-0.36644641 0.0062408401 -0.092547528 4287076490
-0.36637303 0.0072268914 -0.092662834 4287459980
-0.36605909 0.0082207806 -0.092421547 4287536538
-0.36574572 0.0092129149 -0.092180699 4287585946
-0.36567244 0.010197406 -0.092295825 4287598685
-0.36559919 0.011181986 -0.092410967 4285411929
-0.3652865 0.012170761 -0.092170365 4285286462
-0.36545262 0.013151332 -0.092641242 4281215804
-0.36537933 0.014136123 -0.092756405 4280954692
-0.36506683 0.01512241 -0.092515536 4281217093
-0.36451665 0.016107531 -0.091920249 4281282897
-0.36396846 0.017089158 -0.091327183 4281544018
-0.36342221 0.018067285 -0.090736233 4281549151
-0.36334938 0.019046189 -0.090850689 4287056736
-0.36304069 0.020022161 -0.090613142 4287846293
-0.3627325 0.020996457 -0.090376005 4289891740
-0.36265978 0.021973824 -0.090490282 4290203488
-0.36258703 0.022951277 -0.090604596 4286795863
-0.36274946 0.023935346 -0.091070734 4286145915
-0.36291212 0.024921251 -0.091537714 4285228674
-0.36354816 0.025925819 -0.092714109 4285032314
-0.36466488 0.026954612 -0.094612218 4284899449
-0.36507028 0.027961928 -0.09544567 4284900471
-0.36717272 0.029052302 -0.098826356 4284769142
-0.36783174 0.030086266 -0.10004369 4284768632
-0.36874101 0.031139474 -0.10163826 4284570744
-0.36940867 0.032186184 -0.10287143 4284570223
-0.37008005 0.033238795 -0.1041115 4284175724
-0.37075523 0.034297444 -0.10535853 4284105554
-0.37118229 0.035344601 -0.10623336 4284428617
-0.37161094 0.036395766 -0.10711142 4284559681
-0.37229487 0.037470542 -0.10837521 4286461246
-0.37272763 0.038530834 -0.1092615 4287183680
-0.37367439 0.039638638 -0.11092438 4287315009
-0.37385491 0.040686503 -0.11143205 4287315780
-0.37429351 0.041760214 -0.11233007 4287119430
-0.37473378 0.042838082 -0.11323153 4287055960
-0.37517571 0.043920156 -0.11413646 4285425506
-0.37561932 0.045006465 -0.11504485 4284443469
-0.37658897 0.04615343 -0.11675071 4283917374
-0.37730169 0.047279861 -0.11806917 4283648562
-0.37828436 0.048443526 -0.11979827 4281607721
-0.37900683 0.049584415 -0.12113454 4280035644
-0.37946475 0.050698981 -0.12207066 4280300365
-0.38046446 0.051886436 -0.12383057 4280493109
-0.38092789 0.053012185 -0.12477746 4280096284
-0.38221303 0.054252688 -0.1269747 4279702809
-0.38268307 0.055390995 -0.12793432 4279637525
-0.38315496 0.056533899 -0.12889773 4279507225
-0.38390616 0.057721872 -0.13028745 4279704350
-0.38466176 0.058917008 -0.13168545 4279966494
-0.38514134 0.060076255 -0.13266404 4279966239
-0.3859044 0.061284538 -0.13407613 4279966752
-0.38638881 0.062454425 -0.1350643 4280164129
-0.38715941 0.063676067 -0.13649069 4280494121
-0.38793465 0.064905159 -0.1379257 4280955967
-0.38900271 0.066191599 -0.13980992 4282336065
-0.39007938 0.067488551 -0.14170948 4282797639
-0.39116478 0.068796106 -0.14362444 4284901715
-0.38079196 -0.02436691 -0.10882019 4285678950
-0.38071513 -0.023334891 -0.1089409 4285740093
-0.38037229 -0.022265447 -0.10867201 4285936446
-0.37976512 -0.021161729 -0.10801537 4286069572
-0.37942412 -0.020097241 -0.10774814 4286656580
-0.37855771 -0.01896666 -0.10670966 4286593349
-0.37821916 -0.017908188 -0.10644472 4286132804
-0.37762013 -0.016819768 -0.10579671 4285742654
-0.37728342 -0.015766159 -0.10553343 4283058499
-0.37668779 -0.014684737 -0.10488901 4283462001
-0.37661186 -0.013664732 -0.1050083 4287068535
-0.37627706 -0.01261688 -0.10474654 4286679727
-0.37568504 -0.011544216 -0.10410544 4283133100
-0.37509525 -0.010475541 -0.10346682 4282917502
-0.37450764 -0.0094107939 -0.1028306 4279971449
-0.37366804 -0.0083264839 -0.10182165 4279970358
-0.37258086 -0.0072258203 -0.10044589 4280099640
-0.37175211 -0.0061545097 -0.099450201 4280167500
-0.37067908 -0.0050689164 -0.098092213 4282278224
-0.36986098 -0.0040104184 -0.097109526 4282549951
-0.36929336 -0.0029758597 -0.096496284 4290234561
-0.3687278 -0.0019450588 -0.095885284 4290237439
-0.36816436 -0.00091796328 -0.095276587 4290957311
-0.36809045 7.4863266e-05 -0.095392697 4290951414
-0.36777261 0.0010821549 -0.095147088 4282550519
-0.36745539 0.0020876571 -0.094901964 4282539712
-0.3668963 0.0031038884 -0.09429729 4286683578
-0.36682263 0.0040933671 -0.094413042 4286692548
-0.36626571 0.0051042126 -0.093810417 4290031300
-0.36571085 0.006111423 -0.093210004 4290170839
-0.36587784 0.0070887455 -0.093683094 4290690263
-0.36556402 0.0080836937 -0.093440682 4290696668
-0.36549062 0.0090699513 -0.093556032 4290889180
-0.36517742 0.010062356 -0.093313992 4290889671
-0.36510405 0.011047862 -0.09342926 4287674310
-0.36479151 0.012037684 -0.093187548 4287455677
-0.36447951 0.01302579 -0.092946298 4281500860
-0.36440626 0.014009707 -0.09306138 4281088892
-0.36409491 0.014995268 -0.092820503 4281415542
-0.36331022 0.015980428 -0.09187109 4281414741
-0.36300099 0.01696077 -0.091632165 4281281618
-0.36245698 0.017938269 -0.091041252 4281288313
-0.36214933 0.018914327 -0.090803728 4287254652
-0.36207658 0.019891603 -0.090918019 4288109955
-0.36200383 0.020868933 -0.091032334 4289553796
-0.36169684 0.021841696 -0.090795077 4289742940
-0.36162415 0.022818293 -0.090909302 4286273878
-0.36201999 0.023807805 -0.091727763 4285622139
-0.36241728 0.024801001 -0.092549168 4285163137
-0.36281601 0.025797898 -0.093373582 4285097853
-0.36416793 0.026835417 -0.095633946 4284899963
-0.36481261 0.027853711 -0.096831374 4284834682
-0.36691681 0.028945226 -0.10022987 4284833658
-0.36757627 0.029980863 -0.1014534 4284833910
-0.3682394 0.031022331 -0.10268376 4284570484
-0.36865857 0.032055408 -0.10354704 4284503911
-0.36932784 0.033107705 -0.10478905 4283975523
-0.36975101 0.034149669 -0.10566034 4283774282
-0.37042648 0.035212982 -0.10691415 4285280322
-0.37085366 0.036263954 -0.10779352 4285871170
-0.37153542 0.03733838 -0.10905928 4286854978
-0.37222105 0.03841899 -0.11033219 4287315268
-0.37291056 0.039505813 -0.11161239 4287249733
-0.37334689 0.040576231 -0.11250991 4287184455
-0.37378493 0.041650813 -0.1134109 4287119176
-0.3742246 0.042729553 -0.11431532 4287119695
-0.37466598 0.04381251 -0.11522321 4283914579
-0.37536976 0.044926696 -0.11653098 4281951818
-0.37581539 0.046019189 -0.11744751 4282077763
-0.37678948 0.047174629 -0.11916924 4282133553
-0.37777108 0.048339035 -0.12090427 4281015332
-0.37822568 0.049449019 -0.1218382 4280171315
-0.37895006 0.050596256 -0.12318435 4280433985
-0.37967867 0.051750336 -0.1245384 4280622894
-0.38014054 0.052875843 -0.12548669 4280161562
-0.38114873 0.054079048 -0.12727039 4279637273
-0.3816162 0.055215959 -0.12822969 4279637528
-0.38208553 0.056357421 -0.12919278 4279703834
-0.38283274 0.057543762 -0.13058203 4279769885
-0.38330677 0.058695626 -0.13155457 4279835422
-0.38406128 0.059894968 -0.13295779 4279966496
-0.38426042 0.061013378 -0.13351126 4280163618
-0.38502082 0.062224597 -0.1349259 4280558632
-0.38578576 0.063443132 -0.13634905 4281545264
-0.38627133 0.064621106 -0.13734481 4281811270
-0.38761556 0.065952048 -0.13966064 4282598982
-0.38897339 0.067296557 -0.14199993 4283059273
-0.39005318 0.068602063 -0.14391416 4285099346
-0.37956771 -0.025455015 -0.10861435 4287319644
-0.37896264 -0.024346456 -0.10795846 4285411926
-0.37888607 -0.023318352 -0.10807873 4285346875
-0.37880948 -0.022290152 -0.10819902 4285084220
-0.37846971 -0.021225672 -0.1079319 4284952900
-0.37813056 -0.020163124 -0.10766529 4284295748
-0.37753052 -0.019068446 -0.10701376 4284230722
-0.37719324 -0.018010825 -0.1067488 4283837504
-0.37659666 -0.016923191 -0.10610091 4283772212
-0.3762612 -0.015870454 -0.10583759 4283053366
-0.37592635 -0.014819647 -0.10557475 4283190345
-0.37585041 -0.013799585 -0.10569406 4284444245
-0.37577441 -0.012779434 -0.10581341 4284578508
-0.37518278 -0.011705428 -0.10516977 4285895114
-0.37459335 -0.010635415 -0.10452858 4285885354
-0.37400609 -0.0095693041 -0.10388977 4283708322
-0.3731671 -0.0084835021 -0.10287689 4283447597
-0.37233278 -0.0074037123 -0.10186972 4279902254
-0.37125257 -0.0063083996 -0.10049642 4279969854
-0.37042898 -0.0052415575 -0.099502459 4281489730
-0.36961004 -0.004180559 -0.098514058 4281765059
-0.3690418 -0.0031437462 -0.097897112 4290168773
-0.36847565 -0.0021106766 -0.097282469 4290171647
-0.36791158 -0.0010813508 -0.096670032 4290892031
-0.36759332 -7.1174276e-05 -0.096422866 4290890495
-0.36727566 0.00093720824 -0.096176095 4287869439
-0.36695853 0.0019437935 -0.095929794 4287866367
-0.3661581 0.0029738781 -0.094962165 4288664575
-0.36608437 0.0039634136 -0.095077939 4288657151
-0.36552882 0.0049745222 -0.094474122 4288731903
-0.365215 0.0059722159 -0.094230801 4288721407
-0.36514151 0.0069592507 -0.094346263 4289192191
-0.36482835 0.0079543712 -0.094103292 4289253375
-0.36475489 0.0089406511 -0.094218664 4292016127
-0.36444235 0.0099332063 -0.093976028 4292210175
-0.36436895 0.010918733 -0.094091341 4292410879
-0.36381897 0.011913094 -0.093492121 4292397823
-0.36374572 0.012897006 -0.093607225 4289903103
-0.36343491 0.01388354 -0.093365885 4289768090
-0.36288813 0.014870008 -0.092769645 4284434063
-0.36234334 0.015852982 -0.092175595 4283905112
-0.36180052 0.016832482 -0.091583721 4281543762
-0.36149344 0.017809508 -0.09134572 4281361286
-0.36118689 0.018784821 -0.091108195 4288239501
-0.36111417 0.019761235 -0.09122242 4289221497
-0.36104146 0.020737737 -0.09133666 4288957302
-0.36096871 0.021714298 -0.091450907 4288956250
-0.36089596 0.022690946 -0.091565169 4286013269
-0.36152473 0.023686618 -0.092738479 4285491066
-0.36168641 0.024673274 -0.093207479 4285097345
-0.36231959 0.025678158 -0.094389565 4285031806
-0.36367002 0.026715992 -0.096657589 4284703613
-0.36431387 0.027734948 -0.09785895 4284637820
-0.36617228 0.028815296 -0.10090047 4284702076
-0.36682963 0.029850625 -0.1021259 4284701812
-0.36749068 0.030891759 -0.10335816 4284439154
-0.36790842 0.03192465 -0.10422272 4284369506
-0.36857557 0.032976635 -0.10546666 4283971676
-0.36899728 0.034018379 -0.10633926 4283904837
-0.36942059 0.035064116 -0.10721514 4285805116
-0.36984545 0.036113843 -0.10809431 4286593090
-0.37077594 0.037206206 -0.10974339 4287183429
-0.37145936 0.0382865 -0.11101829 4287446343
-0.37214667 0.039373003 -0.11230047 4287380552
-0.3728379 0.040465761 -0.11358992 4287381065
-0.37327531 0.041541182 -0.11449385 4286988106
-0.37371442 0.042620804 -0.11540125 4286792262
-0.37415519 0.043704618 -0.11631209 4284763972
-0.37485811 0.044819612 -0.11762428 4283389766
-0.37556514 0.045941103 -0.11894404 4282071112
-0.3762762 0.047069147 -0.12027145 4281146416
-0.37725675 0.048234362 -0.1220125 4280557085
-0.37771073 0.049345214 -0.12294948 4280037672
-0.37816656 0.050460514 -0.12389013 4280232754
-0.37889281 0.051614184 -0.12524629 4280358950
-0.37935311 0.052739527 -0.126196 4280030232
-0.37981522 0.053869322 -0.12714949 4279637018
-0.38027912 0.055003624 -0.12810668 4279637533
-0.38101804 0.056181274 -0.12948729 4279638044
-0.38148656 0.057325877 -0.13045385 4279703835
-0.38223273 0.058516376 -0.13184828 4279834909
-0.38270599 0.059671469 -0.13282433 4279966753
-0.38290334 0.060787477 -0.13337655 4280295720
-0.38337934 0.061950646 -0.1343586 4280692790
-0.38413706 0.063164815 -0.13577583 4281745726
-0.38489932 0.064386301 -0.13720156 4282009174
-0.38680398 0.065812074 -0.14039172 4282798420
-0.38786954 0.067104965 -0.14228983 4283257166
-0.38923413 0.068460904 -0.14465199 4285430870
-0.37800875 -0.025470721 -0.10814195 4286854217
-0.37767002 -0.024404414 -0.10787512 4285214790
-0.37759355 -0.023378216 -0.10799521 4285084215
-0.3775171 -0.022351919 -0.1081153 4284492599
-0.37717918 -0.021289347 -0.10784879 4284229944
-0.37710276 -0.020263903 -0.10796878 4282918457
-0.3765052 -0.019170051 -0.10731734 4282852411
-0.37616917 -0.018113278 -0.10705236 4282459705
-0.37583378 -0.017058453 -0.10678794 4282524464
-0.37549904 -0.016005559 -0.10652399 4283050545
-0.37516487 -0.014954568 -0.10626053 4283052860
-0.37508884 -0.013934456 -0.10637992 4282861890
-0.37501284 -0.012914279 -0.1064993 4283329403
-0.37442258 -0.01183996 -0.10585438 4287526017
-0.37383458 -0.010769635 -0.10521193 4287403705
-0.37324876 -0.0097032757 -0.10457185 4285690550
-0.37266511 -0.008640836 -0.10393421 4285285006
-0.37183139 -0.0075595356 -0.10292318 4279843209
-0.37100235 -0.0064842342 -0.10191779 4279903549
-0.36992905 -0.0053942683 -0.1005469 4281094977
-0.36935809 -0.0043513803 -0.099923901 4281372883
-0.36854282 -0.0032937268 -0.098935291 4290103509
-0.36797702 -0.0022593953 -0.098318145 4290106111
-0.36741334 -0.0012287914 -0.0977033 4290891007
-0.3670952 -0.00021751839 -0.097454928 4290892797
-0.36653471 0.00080662477 -0.096843429 4290617853
-0.36621821 0.0018133863 -0.096596539 4290628278
-0.36541978 0.0028438508 -0.095627114 4289624246
-0.36534607 0.0038334168 -0.095742896 4289638304
-0.36503184 0.0048339507 -0.095497996 4288052383
-0.36447865 0.0058426531 -0.094893999 4287995314
-0.36464459 0.0068207085 -0.095369115 4288448178
-0.36409259 0.0078250067 -0.094765939 4288465077
-0.3640191 0.0088113397 -0.094881363 4292581813
-0.36346927 0.0098103294 -0.094280161 4292868315
-0.36339587 0.010795012 -0.094395392 4294825950
-0.36284819 0.011788744 -0.093796231 4294966525
-0.36253846 0.012775358 -0.093554907 4294960895
-0.36222929 0.013760233 -0.093314067 4294962905
-0.36192071 0.014743417 -0.093073659 4286296021
-0.36137813 0.015725784 -0.092479609 4285349513
-0.36107114 0.016704658 -0.092240654 4281740927
-0.36053154 0.017680934 -0.091649733 4281366214
-0.36045879 0.018657308 -0.091763996 4288830929
-0.36038604 0.019633776 -0.09187825 4289875319
-0.3603133 0.020610303 -0.091992512 4288562538
-0.36024052 0.021586912 -0.092106804 4288366682
-0.36040056 0.022568896 -0.092573956 4285816919
-0.36079448 0.023558939 -0.093396209 4285359993
-0.36118984 0.024552688 -0.09422151 4285031551
-0.36182222 0.025558151 -0.095407471 4284965501
-0.3631711 0.026596338 -0.097683176 4284572028
-0.36381418 0.027615922 -0.098888509 4284440951
-0.3654277 0.028685356 -0.10157111 4284570741
-0.36608297 0.029720346 -0.10279845 4284570221
-0.36674187 0.030761203 -0.10403262 4284305002
-0.3671582 0.031793844 -0.10489848 4284234833
-0.36757606 0.032830458 -0.1057676 4284036169
-0.36824349 0.033887073 -0.10701823 4283970367
-0.36866534 0.034932595 -0.10789542 4286329916
-0.36908877 0.035982132 -0.10877589 4287248963
-0.37001634 0.037074048 -0.11042759 4287446087
-0.37069759 0.038153965 -0.11170445 4287511624
-0.37138271 0.039240144 -0.11298861 4287511368
-0.37207171 0.040332586 -0.11428007 4287511879
-0.37276465 0.041431364 -0.11557893 4286791239
-0.37320316 0.042511828 -0.1164893 4286399306
-0.37390268 0.043622267 -0.11780076 4285550924
-0.37434545 0.044712279 -0.11871976 4284960322
-0.37505162 0.045834593 -0.12004401 4282068539
-0.37576187 0.046963476 -0.12137592 4279834923
-0.37674132 0.048129443 -0.12312296 4279901213
-0.37719473 0.049241226 -0.12406301 4279901476
-0.37764993 0.050357435 -0.12500677 4279965996
-0.37810689 0.051478054 -0.12595424 4279965218
-0.3782967 0.052568119 -0.12649111 4279767832
-0.37875623 0.053696547 -0.12744428 4279571738
-0.37948844 0.054866843 -0.12881891 4279571996
-0.37995261 0.056005456 -0.12978132 4279572252
-0.38041857 0.057148643 -0.13074756 4279638043
-0.38116077 0.058337484 -0.13214147 4279769373
-0.3816314 0.059491102 -0.13311718 4280033058
-0.3818275 0.060605876 -0.13366921 4280560170
-0.38257828 0.061812349 -0.1350802 4281089344
-0.38305452 0.062980033 -0.13606755 4282336581
-0.38437453 0.064294808 -0.13836318 4282534999
-0.38599232 0.065672122 -0.14112288 4283323222
-0.38734192 0.06701529 -0.14346962 4283848788
-0.38899589 0.068424784 -0.14629142 4286611034
-0.37705663 -0.026592847 -0.10832509 4285871979
-0.37671915 -0.02552652 -0.10805836 4285542715
-0.37638226 -0.024462137 -0.10779219 4284034618
-0.37630591 -0.023437865 -0.10791208 4283838004
-0.37596977 -0.022376316 -0.10764628 4282985011
-0.37589344 -0.021352831 -0.10776608 4282856496
-0.37555799 -0.020294115 -0.10750069 4282329137
-0.37522316 -0.019237321 -0.10723586 4282334774
-0.37488896 -0.018182462 -0.1069715 4282263349
-0.37455535 -0.01712954 -0.10670765 4282334765
-0.37447932 -0.016109554 -0.10682702 4282589998
-0.37414646 -0.015059402 -0.1065636 4282591540
-0.37432724 -0.014069336 -0.10706581 4282396726
-0.37425122 -0.013049132 -0.10718521 4282730826
-0.37391853 -0.012001658 -0.10692148 4285357653
-0.37333083 -0.010929962 -0.10627642 4285427906
-0.37274539 -0.0098622404 -0.1056338 4286094018
-0.37190908 -0.0087744817 -0.10461511 4285952968
-0.37132901 -0.0077156629 -0.10397867 4284041919
-0.37050056 -0.0066388617 -0.10296941 4284039996
-0.36967674 -0.0055680266 -0.10196581 4281291073
-0.3688575 -0.0045031067 -0.10096781 4281573853
-0.36828902 -0.0034626946 -0.10034465 4289972446
-0.36747745 -0.0024084018 -0.099355817 4289974271
-0.36691412 -0.0013765524 -0.098738566 4290038527
-0.3665961 -0.00036415266 -0.098489024 4290030075
-0.36603597 0.00066123129 -0.097875074 4287207419
-0.36571965 0.001669109 -0.097627051 4287204490
-0.36492184 0.0027009745 -0.096653916 4284695178
-0.36460766 0.0037034012 -0.096407935 4284714087
-0.3645339 0.00469311 -0.096523769 4284826470
-0.36398107 0.005703019 -0.095917389 4284842883
-0.36414668 0.006681894 -0.096393935 4285353860
-0.36359507 0.0076874248 -0.09578833 4285437832
-0.36328325 0.00868202 -0.0955441 4286995848
-0.36273471 0.0096812947 -0.094941743 4287407814
-0.3626613 0.010666003 -0.095056996 4287544010
-0.36211491 0.011659995 -0.094456658 4287536892
-0.36180583 0.012646778 -0.094214775 4289525503
-0.36149731 0.013631833 -0.093973339 4289721087
-0.360955 0.014617042 -0.093377173 4290309119
-0.36064807 0.015597775 -0.093137167 4290286247
-0.3603417 0.016576819 -0.092897654 4283841438
-0.3600359 0.017554156 -0.092658512 4282942451
-0.3597306 0.01852978 -0.092419855 4288504319
-0.35965785 0.019506274 -0.092534132 4289350262
-0.35958505 0.020482853 -0.092648439 4288102754
-0.35974446 0.021463798 -0.09311612 4287842394
-0.35967159 0.022441413 -0.093230531 4285489240
-0.36029753 0.023437381 -0.094409533 4285097335
-0.36069229 0.024431845 -0.095237397 4284900222
-0.36132386 0.025437946 -0.096427262 4284834428
-0.36290956 0.026485451 -0.099074379 4284571771
-0.36331347 0.027496692 -0.099920034 4284505714
-0.36468306 0.028555432 -0.10224184 4284504944
-0.36533624 0.029590089 -0.10347106 4284502630
-0.36599302 0.030630605 -0.10470714 4284039523
-0.3664079 0.03166306 -0.10557429 4283905603
-0.36682436 0.032699455 -0.10644469 4284887608
-0.36724234 0.033739783 -0.10731838 4285281594
-0.36791003 0.034801055 -0.10857575 4286723643
-0.368332 0.035850406 -0.10945753 4287314757
-0.36950797 0.036960948 -0.11149753 4287315273
-0.37018839 0.038041621 -0.11277865 4287315784
-0.37087268 0.039128538 -0.11406711 4287511624
-0.37181669 0.040244158 -0.1157563 4287576901
-0.37225297 0.041321293 -0.11666615 4286528579
-0.37294906 0.042427238 -0.1179769 4285939534
-0.37364912 0.04353961 -0.1192952 4285025878
-0.37409222 0.044631589 -0.12021887 4284499005
-0.37479898 0.045755897 -0.12155001 4281803562
-0.37550983 0.046886761 -0.1228889 4279703587
-0.37595999 0.047993977 -0.12382676 4280294173
-0.37641186 0.049105525 -0.12476823 4280818463
-0.37686548 0.050221525 -0.12571338 4280293409
-0.37732089 0.051341914 -0.12666225 4279768093
-0.37724227 0.052397076 -0.12678574 4279702552
-0.37769926 0.053524096 -0.12773854 4279571737
-0.37842762 0.05469276 -0.12911274 4279571994
-0.3788892 0.055829972 -0.13007483 4279572250
-0.37935254 0.056971755 -0.13104069 4279638043
-0.37981772 0.058118094 -0.13201039 4279835422
-0.38028479 0.059269037 -0.13298391 4280165924
-0.38075367 0.060424622 -0.13396133 4280956979
-0.38150048 0.061629422 -0.13537182 4281418075
-0.38225174 0.062841482 -0.13679072 4282730843
-0.38413018 0.06425073 -0.1399653 4282863194
-0.38632113 0.065729432 -0.14363007 4283520349
-0.38767776 0.067078404 -0.14599912 4283981161
-0.38904828 0.068441227 -0.14839227 4286743918
-0.37551066 -0.026605329 -0.10785541 4284690773
-0.37517554 -0.025541976 -0.10758993 4284428872
-0.3750993 -0.024519652 -0.10770961 4283120718
-0.37476492 -0.023459131 -0.10744456 4282855524
-0.37443113 -0.022400558 -0.10718001 4281811813
-0.37435505 -0.021379957 -0.10729949 4281811817
-0.37402192 -0.020324167 -0.10703532 4281880176
-0.37368944 -0.019270319 -0.10677171 4281948287
-0.37335762 -0.018218393 -0.10650856 4282142848
-0.37328172 -0.017200373 -0.10662775 4282144141
-0.37320578 -0.016182262 -0.10674694 4282270598
-0.37312987 -0.015164083 -0.10686612 4282262613
-0.37330952 -0.014174997 -0.10736821 4282133075
-0.37348947 -0.013183972 -0.10787123 4282331449
-0.3731575 -0.012136344 -0.10760686 4283908158
-0.3728261 -0.011090606 -0.10734301 4284109173
-0.37224105 -0.010021518 -0.10669781 4286343032
-0.3714053 -0.0089322636 -0.1056752 4286420385
-0.37082562 -0.0078720916 -0.10503615 4286869152
-0.36999777 -0.0067938217 -0.10402303 4286535055
-0.36942342 -0.005742447 -0.10339008 4281358736
-0.36860335 -0.0046750037 -0.10238632 4281641928
-0.36778784 -0.0036134461 -0.10138812 4289905098
-0.36722183 -0.0025755307 -0.10076477 4289908223
-0.36665788 -0.0015414353 -0.10014378 4289513727
-0.36609605 -0.00051103614 -0.099525087 4289499133
-0.36553627 0.00051559397 -0.098908626 4285180413
-0.36522007 0.0015245832 -0.098659508 4285163165
-0.36442289 0.0025577915 -0.097682655 4281753501
-0.36410886 0.0035613577 -0.097435541 4281759878
-0.36379543 0.0045631425 -0.097188883 4282857605
-0.36348256 0.0055631516 -0.096942708 4282938471
-0.36364779 0.0065428163 -0.097420648 4283581798
-0.36309657 0.0075495453 -0.096812665 4283595671
-0.36278489 0.0085452311 -0.096567303 4283724697
-0.36247379 0.0095391572 -0.096322402 4283724516
-0.36216325 0.010531358 -0.096077949 4282550761
-0.36161721 0.011526558 -0.095475204 4282473726
-0.36107314 0.012518192 -0.094874673 4285842943
-0.36076525 0.013503384 -0.094632685 4286181375
-0.36022425 0.01448888 -0.09403535 4292998143
-0.35991794 0.015469785 -0.093794778 4293707993
-0.35961223 0.016448973 -0.093554683 4285229013
-0.35930702 0.017426446 -0.093314998 4283994593
-0.35923412 0.018403785 -0.093429416 4288305123
-0.35916126 0.019381212 -0.09354385 4288890221
-0.35908836 0.020358698 -0.093658283 4287643484
-0.35924748 0.021340484 -0.09412732 4287448927
-0.35917449 0.022319002 -0.09424188 4285226847
-0.35979962 0.023315597 -0.095424719 4284834935
-0.36019379 0.024310766 -0.09625522 4284768636
-0.36106008 0.025325384 -0.097809866 4284768633
-0.36264697 0.026374115 -0.10047078 4284637304
-0.36305109 0.027387068 -0.10132056 4284570735
-0.36417979 0.028436311 -0.1032832 4284437101
-0.36483213 0.029471653 -0.10451648 4284434776
-0.36524409 0.030499997 -0.10538172 4283775313
-0.36565754 0.031532258 -0.10625017 4283511616
-0.36607257 0.032568432 -0.10712186 4285674042
-0.36648911 0.033608574 -0.10799684 4286527804
-0.36690724 0.034652706 -0.1088751 4287117629
-0.36757517 0.035718657 -0.11013925 4287380805
-0.36899859 0.036847625 -0.1125695 4287184200
-0.36993101 0.037949175 -0.11424506 4287054156
-0.37061584 0.039037954 -0.11554015 4287511886
-0.37181723 0.040177781 -0.11763456 4287707461
-0.37225473 0.041257914 -0.11855065 4286265152
-0.37295279 0.042366918 -0.1198706 4285347653
-0.37365487 0.043482352 -0.12119823 4284431433
-0.37383798 0.044550583 -0.12172382 4283771959
-0.37454534 0.045676857 -0.12306193 4281538855
-0.37525678 0.046809733 -0.12440786 4279573301
-0.37544265 0.047888692 -0.12494013 4280952640
-0.37562892 0.048969813 -0.12547348 4282327855
-0.37608099 0.050085574 -0.12642004 4280948512
-0.37653482 0.051205792 -0.12737033 4279440413
-0.37645614 0.052260939 -0.12749387 4279506201
-0.37691155 0.053387746 -0.12844808 4279637529
-0.37736878 0.054519035 -0.12940608 4279637530
-0.37782776 0.055654816 -0.13036782 4279572252
-0.3782886 0.056795157 -0.13133335 4279703838
-0.37875122 0.057940084 -0.13230272 4279967522
-0.3792156 0.059089597 -0.13327585 4280560939
-0.37968189 0.060243718 -0.13425291 4282138425
-0.38070008 0.061491236 -0.13609284 4282535519
-0.38228285 0.062840648 -0.13881695 4283780447
-0.38445008 0.064302012 -0.14245777 4283847520
-0.38636503 0.065737449 -0.14570799 4284110946
-0.38801631 0.067141995 -0.14854926 4284509548
-0.38910091 0.068457738 -0.15050614 4287333743
-0.3745645 -0.027722182 -0.10803816 4285482044
-0.37423059 -0.026658818 -0.10777281 4283445825
-0.37389731 -0.025597373 -0.10750795 4283189076
-0.37356463 -0.024537876 -0.10724358 4282404191
-0.37348858 -0.023518369 -0.10736295 4282272399
-0.37315661 -0.022461688 -0.10709903 4281752721
-0.37282524 -0.021406909 -0.10683558 4281752732
-0.37249452 -0.02035406 -0.10657265 4281953184
-0.3721644 -0.019303139 -0.10631026 4282018487
-0.37208861 -0.018287078 -0.10642923 4282348219
-0.37201282 -0.017270921 -0.10654822 4282412760
-0.37219104 -0.016285818 -0.10704903 4282933451
-0.37211514 -0.015268578 -0.10716815 4282860399
-0.37254849 -0.014309807 -0.10805357 4282066537
-0.37247247 -0.013290456 -0.10817294 4282134828
-0.37239641 -0.012271043 -0.10829231 4282592046
-0.37206569 -0.01122512 -0.10802784 4282791745
-0.37148204 -0.010155751 -0.10738137 4284759877
-0.37090054 -0.0090903509 -0.10673732 4284835206
-0.37032118 -0.0080288323 -0.10609572 4285171594
-0.36974406 -0.006971268 -0.10545656 4285097927
-0.36916909 -0.0059175654 -0.10481974 4284177863
-0.36834815 -0.0048475815 -0.10381013 4284318138
-0.36753178 -0.0037835119 -0.10280614 4288330684
-0.36696517 -0.0027433259 -0.10217904 4288333567
-0.36640063 -0.0017069422 -0.10155428 4289578751
-0.3658382 -0.0006743024 -0.10093185 4289572863
-0.36527786 0.00035457639 -0.10031174 4287411711
-0.36471951 0.0013797556 -0.099693865 4287392426
-0.36392289 0.0024143644 -0.098713316 4281562026
-0.36360908 0.0034190086 -0.098465085 4281551771
-0.36353508 0.0044106129 -0.09858121 4281610394
-0.36298302 0.0054229791 -0.097969957 4281625171
-0.36314794 0.006403469 -0.098449342 4282203729
-0.36259708 0.0074114329 -0.097838946 4282212255
-0.36228552 0.0084081804 -0.097592443 4282941860
-0.36173776 0.0094098644 -0.096985303 4282941689
-0.36142787 0.010402208 -0.096740268 4282936319
-0.36088312 0.011397664 -0.096136361 4282947327
-0.36034036 0.012389589 -0.09553466 4289114111
-0.36003312 0.013374954 -0.095292091 4289786879
-0.3594934 0.014360707 -0.094693586 4293131007
-0.35918772 0.015341749 -0.094452463 4293449471
-0.35911471 0.016320767 -0.094567098 4287071999
-0.35880968 0.017299298 -0.09432634 4286021331
-0.35873669 0.018277576 -0.094440892 4288039885
-0.35866374 0.019255914 -0.094555445 4288299626
-0.35859075 0.020234313 -0.094670005 4287774296
-0.35874948 0.021216895 -0.09514039 4287712355
-0.35890853 0.02220135 -0.095611684 4285423461
-0.3593007 0.023193551 -0.09644179 4284900215
-0.3599284 0.024196288 -0.097634993 4284767867
-0.36055955 0.025204586 -0.098834768 4284768118
-0.36190635 0.026244771 -0.10113786 4284506229
-0.3625482 0.027267244 -0.10235728 4284503660
-0.36367556 0.028316962 -0.10432657 4283976041
-0.36408457 0.029341217 -0.10518984 4283842121
-0.3647384 0.030382087 -0.10643192 4284428606
-0.36490712 0.031401444 -0.1069261 4284625469
-0.36532068 0.032437433 -0.1077991 4286133308
-0.3657358 0.033477355 -0.10867537 4286724671
-0.3661525 0.034521267 -0.10955492 4287183424
-0.36681828 0.035586905 -0.11082102 4287381061
-0.3687394 0.036753055 -0.11403277 4287184455
-0.36967257 0.037856366 -0.11571706 4287119696
-0.37035793 0.038946979 -0.11701886 4287053397
-0.37156039 0.040088616 -0.11912442 4286986565
-0.37225643 0.041194186 -0.12044606 4286001723
-0.37269682 0.042281579 -0.12137198 4285345593
-0.37339947 0.04339901 -0.12270651 4283704887
-0.37358269 0.044469245 -0.12323461 4282457388
-0.37402815 0.045569569 -0.12417135 4281015075
-0.37447536 0.046674192 -0.12511173 4279641170
-0.37492427 0.047783226 -0.12605576 4280696187
-0.37511018 0.048865322 -0.12659076 4281807951
-0.37529638 0.049949646 -0.12712678 4280751390
-0.37574869 0.051069621 -0.12807848 4279571484
-0.37566996 0.052124832 -0.12820204 4279637786
-0.37612382 0.053251401 -0.12915766 4279703322
-0.37657946 0.05438244 -0.1301171 4279703323
-0.37703687 0.055518016 -0.13108025 4279637791
-0.37749609 0.056658149 -0.13204724 4279835943
-0.37795711 0.05780283 -0.13301805 4280165679
-0.37841991 0.05895213 -0.13399263 4280825153
-0.37915757 0.060148977 -0.1353991 4282402636
-0.38100314 0.061530918 -0.13854507 4282667371
-0.38259405 0.062886067 -0.1412949 4283717486
-0.38505754 0.064401917 -0.14541808 4283847802
-0.38785702 0.065996051 -0.15007392 4284176250
-0.38923681 0.06736169 -0.15250279 4284575867
-0.37387723 -0.028880162 -0.10860606 4283848055
-0.37354395 -0.027815739 -0.10834021 4283516514
-0.37346774 -0.026794489 -0.10845982 4282206311
-0.37313512 -0.025732893 -0.10819435 4282079866
-0.37280312 -0.024673209 -0.10792935 4281621891
-0.372217 -0.023577368 -0.10728176 4281622687
-0.37188679 -0.022522604 -0.10701843 4281689250
-0.37155727 -0.021469733 -0.10675562 4281757618
-0.37097564 -0.020383803 -0.10611267 4282020534
-0.37089998 -0.019369688 -0.10623144 4282087116
-0.37082428 -0.018355517 -0.10635024 4282546382
-0.37074858 -0.017341249 -0.10646903 4282679505
-0.37092528 -0.016358014 -0.10696887 4283459273
-0.37110227 -0.015372862 -0.10746969 4283261069
-0.37153327 -0.014415164 -0.10835484 4282073737
-0.37145725 -0.013396751 -0.10847412 4282004582
-0.37138125 -0.012378244 -0.1085934 4281614181
-0.37130526 -0.011359675 -0.1087127 4281804127
-0.37072298 -0.01029 -0.10806499 4283577694
-0.37014288 -0.0092242882 -0.10741968 4283579226
-0.36956492 -0.008162492 -0.10677683 4283784029
-0.3689892 -0.0071046194 -0.10613642 4283987074
-0.36841556 -0.0060506449 -0.10549837 4286403972
-0.36784407 -0.0050004888 -0.10486274 4286406574
-0.36727473 -0.0039542206 -0.10422949 4287080881
-0.36646208 -0.0028934856 -0.10322531 4287152120
-0.36589795 -0.0018558365 -0.10259807 4289638392
-0.36533588 -0.00082191231 -0.10197318 4289644770
-0.36477587 0.00020822027 -0.10135056 4289175778
-0.36445948 0.0012203776 -0.10109853 4289162655
-0.36342201 0.0022706587 -0.099745981 4281423519
-0.36334786 0.0032640537 -0.099862337 4281411426
-0.36303416 0.0042689554 -0.099612825 4280560224
-0.36248252 0.0052825646 -0.098999195 4280574566
-0.36264709 0.006263854 -0.099479973 4281154150
-0.36233461 0.0072643659 -0.099231318 4281158257
-0.36178523 0.0082708662 -0.098619521 4282275953
-0.36123782 0.0092737703 -0.098009981 4282353904
-0.36092806 0.010267172 -0.097763807 4283263992
-0.360149 0.011268791 -0.096797563 4283352318
-0.35960755 0.012260975 -0.096194685 4291744255
-0.35906807 0.013249611 -0.095594041 4292606975
-0.35876253 0.014232522 -0.095351882 4293195519
-0.3586894 0.01521239 -0.095466658 4293254911
-0.35838443 0.016192779 -0.09522485 4288449279
-0.35831133 0.017171906 -0.095339537 4287785660
-0.35800701 0.018149782 -0.095098116 4287775922
-0.35816517 0.019130344 -0.095568918 4287774563
-0.3580921 0.020109685 -0.095683604 4287905364
-0.35825053 0.0210931 -0.096155405 4287909985
-0.35864151 0.022083249 -0.09698654 4285489251
-0.35880083 0.023071295 -0.097460806 4284965750
-0.35942769 0.024074636 -0.098657928 4284767866
-0.36005804 0.025083577 -0.099861622 4284702323
-0.36140323 0.026124075 -0.10217252 4284438897
-0.36204422 0.027147215 -0.10339595 4284370528
-0.36292931 0.028186722 -0.10499872 4283514459
-0.36333692 0.029210793 -0.10586327 4283183426
-0.36398864 0.030251358 -0.10710726 4285148987
-0.36415663 0.031270623 -0.10760208 4285936701
-0.36456877 0.032306392 -0.10847637 4286723390
-0.36498246 0.033346124 -0.10935394 4286986817
-0.36564371 0.034406397 -0.11061713 4287183682
-0.36655644 0.035490401 -0.11227275 4287315783
-0.36822769 0.03663918 -0.11511031 4287249993
-0.36941314 0.037763193 -0.11719475 4287184459
-0.37009901 0.038855679 -0.11850332 4286397260
-0.37130249 0.039999094 -0.12062 4285937732
-0.37199908 0.041106552 -0.12194854 4285608254
-0.3724398 0.042195927 -0.12287922 4285409333
-0.37314305 0.043315303 -0.12422074 4282525230
-0.37332627 0.044387575 -0.12475134 4280230443
-0.37377208 0.0454899 -0.12569289 4279966503
-0.37421966 0.046596572 -0.12663804 4279775557
-0.37440482 0.047677506 -0.12717363 4280238690
-0.37459034 0.048760634 -0.12771025 4280691266
-0.37477621 0.049845908 -0.12824795 4280292638
-0.37496248 0.050933428 -0.12878668 4279834654
-0.37514904 0.052023131 -0.12932648 4279835422
-0.37533599 0.053115033 -0.12986735 4279835165
-0.37579009 0.054245867 -0.13082817 4279835166
-0.37597817 0.055343341 -0.13137211 4279900961
-0.37643483 0.056482047 -0.13233873 4280230696
-0.37689328 0.057625279 -0.13330917 4280954416
-0.37762415 0.058814622 -0.13470943 4281615684
-0.37863213 0.060053993 -0.13654761 4283320398
-0.38047585 0.061436713 -0.13970473 4283388267
-0.38290769 0.062931813 -0.14379281 4283586925
-0.38538402 0.064454295 -0.14795558 4283784311
-0.38819829 0.066055521 -0.1526566 4284636280
-0.38929024 0.067374915 -0.15464252 4284907645
-0.37370428 -0.030127112 -0.10994826 4285424747
-0.37285727 -0.028972691 -0.10890761 4282930804
-0.37252522 -0.02790916 -0.10864173 4282667918
-0.37244907 -0.026888819 -0.10876124 4282015123
-0.37211767 -0.025828112 -0.10849574 4281951140
-0.37178695 -0.024769321 -0.1082308 4281755814
-0.37145683 -0.023712432 -0.10796633 4281755055
-0.37062174 -0.022583298 -0.1069382 4281756084
-0.37029397 -0.021532325 -0.10667595 4281823687
-0.36971578 -0.020448297 -0.10603443 4282152907
-0.3696402 -0.019436033 -0.106153 4282152417
-0.36956462 -0.018423712 -0.1062716 4282152926
-0.36948904 -0.017411292 -0.10639019 4282217163
-0.36966416 -0.01642995 -0.10688908 4282542023
-0.36983964 -0.015446694 -0.10738888 4282409639
-0.37026742 -0.014490888 -0.10827228 4281883557
-0.37019151 -0.013474341 -0.10839138 4281813401
-0.37036794 -0.012485259 -0.10889402 4281554070
-0.37003973 -0.011441027 -0.10862957 4281614201
-0.36971211 -0.010398701 -0.1083656 4282592885
-0.36913443 -0.0093337623 -0.10772038 4282597171
-0.36855891 -0.0082727 -0.10707759 4282986805
-0.36823422 -0.0072380179 -0.10681635 4283125581
-0.36766198 -0.0061837379 -0.10617706 4284829520
-0.36709186 -0.0051333113 -0.10554021 4284895141
-0.36652389 -0.004086738 -0.10490572 4285831847
-0.36595803 -0.0030439708 -0.10427361 4285965555
-0.36539426 -0.0020050206 -0.10364387 4288781810
-0.36483258 -0.00096983317 -0.10301646 4288787403
-0.36451522 4.6162211e-05 -0.1027622 4287140043
-0.36395669 0.0010748358 -0.10213815 4287126423
-0.36340025 0.0020997685 -0.10151647 4280893591
-0.36284584 0.0031210121 -0.10089709 4280886070
-0.36253232 0.0041270265 -0.10064644 4280362803
-0.36221933 0.0051312512 -0.10039624 4280371829
-0.36214525 0.0061239693 -0.10051253 4281677687
-0.36159515 0.0071343742 -0.099897318 4281743693
-0.3612839 0.0081332857 -0.09964852 4281284682
-0.36050099 0.0091443015 -0.098673604 4281298408
-0.35995692 0.010143897 -0.098065101 4282738930
-0.35941482 0.011139905 -0.097458832 4282826494
-0.35887465 0.012132348 -0.096854791 4291619327
-0.3585687 0.013118021 -0.09661109 4292540415
-0.35803154 0.01410435 -0.096010268 4292866815
-0.35795841 0.015084247 -0.096125044 4292925695
-0.35788524 0.016064199 -0.09623985 4288383999
-0.35781208 0.017044241 -0.096354663 4287782311
-0.35750785 0.018023172 -0.096112095 4287578010
-0.35766572 0.019004567 -0.096584305 4287577692
-0.35759255 0.019984853 -0.096699126 4287774288
-0.35798228 0.02097295 -0.097531274 4287779166
-0.35814098 0.021959947 -0.09800607 4285358177
-0.3583 0.022948805 -0.098481752 4284834165
-0.35916004 0.023959413 -0.10004603 4284636793
-0.35979074 0.024969913 -0.10125578 4284569712
-0.3606618 0.025994616 -0.10284033 4284108653
-0.36153933 0.027026955 -0.10443662 4283974484
-0.36218303 0.028056508 -0.10567091 4284100683
-0.36283031 0.029091857 -0.1069121 4284100411
-0.36323881 0.030120589 -0.10778265 4285673526
-0.36340606 0.03113975 -0.10827815 4286264893
-0.36381677 0.032175332 -0.10915373 4286789440
-0.36447349 0.033230327 -0.11041401 4287052867
-0.36513385 0.03429132 -0.11168142 4287184197
-0.36579797 0.035358369 -0.11295594 4287250506
-0.36796618 0.036543891 -0.11658271 4286987596
-0.36915258 0.037669647 -0.11867814 4286921539
-0.36983901 0.038763978 -0.11999349 4286264894
-0.37104353 0.039909203 -0.12212148 4285871426
-0.3717407 0.041018602 -0.12345695 4285345348
-0.37218171 0.042109966 -0.12439233 4284949550
-0.37288553 0.043231282 -0.12574086 4282396445
-0.37333089 0.044332363 -0.12668522 4280363815
-0.37351498 0.045409951 -0.12722033 4280097584
-0.37396288 0.046518672 -0.12817037 4279773998
-0.37414813 0.047601663 -0.12870853 4280101675
-0.37433374 0.048686858 -0.12924774 4280423972
-0.37425497 0.049742002 -0.12937135 4280228381
-0.374706 0.050863832 -0.13032931 4279901729
-0.37462705 0.051921196 -0.13045317 4279901479
-0.37454811 0.05297865 -0.13057706 4279901478
-0.3750006 0.054109279 -0.13153933 4279967013
-0.3751879 0.055206649 -0.132084 4280033576
-0.37564296 0.056345105 -0.13305205 4280429101
-0.37609982 0.057488162 -0.1340239 4281219639
-0.37682831 0.058677129 -0.13542633 4281681232
-0.37783313 0.059915986 -0.13726738 4283256661
-0.37994739 0.06134231 -0.14086682 4283322729
-0.38294098 0.062931202 -0.14586297 4283652200
-0.38600165 0.064555869 -0.15097123 4283850853
-0.38795519 0.066013895 -0.1543296 4284839274
-0.38904837 0.067335911 -0.15632655 4285104524
-0.3732729 -0.031333063 -0.11090604 4283525519
-0.37242627 -0.030174145 -0.10986168 4282998142
-0.37183917 -0.029065084 -0.10920861 4281752709
-0.37176296 -0.028044786 -0.10932817 4281753241
-0.37168676 -0.027024392 -0.10944774 4281688992
-0.3713561 -0.025963495 -0.1091816 4281756080
-0.37077263 -0.024865227 -0.1085317 4281953203
-0.37044376 -0.023809224 -0.10826724 4281953213
