# .PCD v0.7 - Point Cloud Data file format
VERSION 0.7
FIELDS x y z rgba
SIZE 4 4 4 4
TYPE F F F U
COUNT 1 1 1 1
WIDTH 985
HEIGHT 1
VIEWPOINT 0 0 0 1 0 0 0
POINTS 985
DATA ascii
-0.37286246 0.0043381019 -0.067832507 4285018943
-0.3725031 0.0049153087 -0.066913158 4285280575
-0.37214506 0.0054905759 -0.065997019 4285347136
-0.3720291 0.0062132976 -0.065358594 4285544511
-0.37167281 0.0067849397 -0.064447492 4285612091
-0.37179789 0.0076552019 -0.064085022 4286076732
-0.37192297 0.0085255392 -0.063722521 4286069821
-0.37228897 0.0095481174 -0.063632824 4286266173
-0.37265563 0.010572562 -0.063542947 4286265409
-0.37350816 0.011908138 -0.064000644 4285740353
-0.37436518 0.013250786 -0.064460725 4285740608
-0.37571922 0.014917341 -0.065477394 4286068800
-0.37708527 0.016598666 -0.066503011 4286070855
-0.37871492 0.018458195 -0.067819811 4286530888
-0.38061684 0.020503741 -0.069436014 4286598734
-0.38254279 0.02257514 -0.071072571 4284695632
-0.38449308 0.02467283 -0.072729819 4284041551
-0.38593876 0.026447775 -0.073818088 4285814862
-0.38739768 0.028238969 -0.074916266 4286609759
-0.38886994 0.030046666 -0.076024503 4285365353
-0.39254797 0.033336975 -0.079573937 4284509543
-0.39546937 0.036139287 -0.08227285 4285295717
-0.39787337 0.038608555 -0.084389813 4286022760
-0.40060458 0.041312236 -0.086859629 4285699947
-0.40191004 0.043061145 -0.087749235 4285307244
-0.40381783 0.04522796 -0.089297168 4285636973
-0.40514833 0.047008991 -0.090204738 4286226032
-0.40618783 0.04859649 -0.090788953 4286882939
-0.40693077 0.049984105 -0.09104529 4289308804
-0.36923501 -0.059944596 -0.10510349 4286013367
-0.36813945 -0.059527408 -0.10314765 4282082999
-0.36729547 -0.059019215 -0.10152176 4282016943
-0.36621726 -0.058609314 -0.099597327 4281492911
-0.36562544 -0.058013424 -0.098304369 4281491881
-0.36503673 -0.057420623 -0.097018227 4281623465
-0.36516273 -0.056543745 -0.096653037 4281623477
-0.36505103 -0.055763457 -0.095982835 4281558197
-0.36517692 -0.054887217 -0.095617905 4281557422
-0.36770132 -0.053021014 -0.098320335 4281493167
-0.36880016 -0.051732831 -0.099193014 4281493443
-0.36941645 -0.050640747 -0.099446595 4282425795
-0.3697893 -0.049648337 -0.099388406 4282417373
-0.37040898 -0.048549455 -0.099642955 4284508125
-0.3705371 -0.0476579 -0.099271655 4284512416
-0.37066522 -0.046766292 -0.098900326 4286014368
-0.37054691 -0.045981597 -0.098217145 4286022009
-0.37018308 -0.045305632 -0.097224675 4285622649
-0.36982054 -0.044631984 -0.096235722 4285625998
-0.36945933 -0.043960694 -0.095250323 4283261327
-0.36812997 -0.043724179 -0.093049243 4283196057
-0.36705396 -0.043382682 -0.091171809 4281688217
-0.36622509 -0.042936604 -0.089608841 4281621425
-0.36516589 -0.042601053 -0.087761194 4281424562
-0.36529106 -0.041729912 -0.08739838 4281425840
-0.36541626 -0.040858708 -0.087035552 4281164976
-0.36577794 -0.039877657 -0.086967327 4281163707
-0.36685377 -0.03856143 -0.087786704 4281426876
-0.36817771 -0.037122767 -0.088910528 4281425575
-0.37000012 -0.035440944 -0.09064801 4281359270
-0.37086093 -0.034206871 -0.091188118 4281359780
-0.37172636 -0.032966096 -0.091731131 4281359268
-0.37185422 -0.032076538 -0.091360644 4281359520
-0.3722291 -0.031067049 -0.091294721 4281360032
-0.37186307 -0.030417763 -0.090315901 4281359516
-0.37199083 -0.029528808 -0.089945666 4281490076
-0.37162593 -0.028883249 -0.088970996 4281491363
-0.37150764 -0.028117977 -0.088300258 4281556900
-0.37138963 -0.027353965 -0.087630719 4281556132
-0.37127179 -0.026591243 -0.086962365 4281490852
-0.37115416 -0.025829829 -0.086295083 4281491356
-0.37152627 -0.024820516 -0.086224899 4281490587
-0.37189898 -0.023809355 -0.086154491 4281488528
-0.37227234 -0.02279634 -0.086083934 4281680782
-0.37264642 -0.021781441 -0.086013295 4281744971
-0.37302116 -0.020764675 -0.085942455 4283054907
-0.37339658 -0.019746048 -0.085871436 4283388541
-0.37352443 -0.018856307 -0.085500889 4284972688
-0.37340438 -0.018097848 -0.084831789 4285493121
-0.37328455 -0.017340664 -0.08416383 4282732157
-0.37316492 -0.016584786 -0.08349701 4281828541
-0.37279907 -0.015962947 -0.082535975 4286752722
-0.37243447 -0.015343252 -0.081578247 4288393959
-0.37182662 -0.014858855 -0.08033172 4288854255
-0.37146536 -0.014243705 -0.079382062 4289051125
-0.3711054 -0.013630669 -0.078435719 4288265463
-0.37074673 -0.013019728 -0.077492699 4287863805
-0.37087288 -0.012141849 -0.077127092 4286752255
-0.37075692 -0.011399289 -0.076474436 4286157037
-0.37088296 -0.010522074 -0.076109104 4286028003
-0.37100902 -0.0096447533 -0.075743727 4285962719
-0.37137756 -0.008629703 -0.075664386 4286685660
-0.37150377 -0.0077514779 -0.07529863 4287079127
-0.37187305 -0.0067337416 -0.075218759 4287078611
-0.37175617 -0.0059948945 -0.07456708 4287010763
-0.37163949 -0.0052573113 -0.073916472 4286089668
-0.37152305 -0.0045209229 -0.073267013 4285365148
-0.37140685 -0.0037857438 -0.072618663 4284632948
-0.37153277 -0.0029094773 -0.072253734 4283576912
-0.3714166 -0.002176261 -0.071606763 4282133288
-0.37154245 -0.0013006179 -0.071242072 4280360743
-0.37191057 -0.00028024538 -0.071158737 4280294950
-0.37227932 0.00074194378 -0.071075171 4280295207
-0.37240538 0.001619322 -0.07070978 4280951336
-0.37253147 0.0024967734 -0.070344336 4282328880
-0.37265757 0.0033742611 -0.0699789 4283051843
-0.37254044 0.0041030813 -0.069333203 4284821826
-0.37193891 0.0045329602 -0.068131194 4284953152
-0.3718228 0.0052583436 -0.067489289 4285215040
-0.37146592 0.0058330721 -0.066572137 4285281857
-0.37135056 0.0065555475 -0.06593319 4285543744
-0.37147582 0.0074273227 -0.065570138 4285544764
-0.37112048 0.0079969643 -0.064658642 4286002236
-0.37124556 0.0088673467 -0.064296149 4286004032
-0.37161097 0.0098902825 -0.064206943 4286001984
-0.37221831 0.011068854 -0.064391576 4286068800
-0.37307039 0.012406942 -0.064851917 4285871680
-0.37417144 0.013909347 -0.065591335 4285872965
-0.37552699 0.015581812 -0.066614769 4286135877
-0.37689456 0.017269097 -0.067647256 4286204505
-0.37903106 0.019464629 -0.06954129 4286011996
-0.38094181 0.021523898 -0.071174167 4285943374
-0.38339683 0.02395118 -0.073411584 4285021770
-0.38589215 0.026418332 -0.075685717 4284632661
-0.38735482 0.028214317 -0.076795511 4285690457
-0.39489576 0.034065355 -0.084692053 4286284124
-0.3964451 0.035951775 -0.085877784 4285427293
-0.39829633 0.038049031 -0.08739464 4284836454
-0.39987808 0.039974347 -0.08860559 4285366894
-0.40176862 0.042117007 -0.090154082 4285961835
-0.40249595 0.043478575 -0.090406902 4285766503
-0.40322602 0.044845439 -0.090660669 4285439596
-0.40395886 0.046217628 -0.090915367 4285834101
-0.40529376 0.048007745 -0.091831855 4286621062
-0.40633669 0.049602851 -0.0924225 4287212465
-0.37063262 -0.059634488 -0.10896488 4286204014
-0.36927521 -0.059310842 -0.10665473 4285945419
-0.36817649 -0.058895331 -0.1046867 4282005327
-0.3670876 -0.058483414 -0.10273618 4281951362
-0.3660084 -0.058075104 -0.10080301 4281427076
-0.36541608 -0.057479542 -0.099504553 4281426359
-0.36458912 -0.056982812 -0.09790574 4281623735
-0.36447781 -0.056201454 -0.097233914 4281623737
-0.36389369 -0.055614818 -0.095953949 4281558201
-0.36378339 -0.054837279 -0.095286101 4281557432
-0.36390895 -0.053963233 -0.09492211 4281426104
-0.36379877 -0.053187683 -0.094255731 4281427374
-0.36392424 -0.05231427 -0.093892001 4281756846
-0.36381415 -0.051540732 -0.093227074 4281754532
-0.36417523 -0.050567251 -0.093164466 4283464356
-0.36430073 -0.049693651 -0.092800662 4283464019
-0.36419034 -0.048922196 -0.092136607 4287004755
-0.36408013 -0.048152056 -0.091473646 4287007306
-0.36397013 -0.0473832 -0.090811856 4286546250
-0.36362574 -0.046719417 -0.089853995 4286545232
-0.36375073 -0.045849282 -0.089491636 4283792721
-0.36340734 -0.045189213 -0.08853773 4283721324
-0.36329842 -0.044426031 -0.087881237 4281753964
-0.36365697 -0.043451689 -0.08781416 4281686945
-0.36308125 -0.042903412 -0.086571679 4281424290
-0.36320573 -0.042036768 -0.086210772 4281426082
-0.36379731 -0.040953513 -0.086435132 4281097378
-0.36439097 -0.039866377 -0.086660296 4281097640
-0.36569595 -0.038442288 -0.087772354 4281360296
-0.36749172 -0.036779027 -0.089492068 4281359528
-0.36955327 -0.034979235 -0.091536283 4281294248
-0.37041363 -0.033742752 -0.092079282 4281293993
-0.37127861 -0.032499589 -0.092625156 4281293993
-0.37091425 -0.03184782 -0.091644011 4281293990
-0.37079635 -0.031078722 -0.090969875 4281360038
-0.37043384 -0.030431082 -0.089994229 4281359522
-0.37007266 -0.029785655 -0.089022107 4281556641
-0.36995602 -0.029021604 -0.08835312 4281557146
-0.36983967 -0.028258836 -0.087685354 4281555353
-0.3697235 -0.027497359 -0.087018743 4281555869
-0.36960754 -0.026737176 -0.08635322 4281556382
-0.36997724 -0.025731366 -0.086283289 4281557153
-0.37010407 -0.024848254 -0.085915536 4281557922
-0.37047455 -0.023839761 -0.085845061 4281555613
-0.37084562 -0.022829423 -0.085774444 4281357468
-0.37146252 -0.021689624 -0.086001948 4281287805
-0.37183553 -0.020674553 -0.085931212 4282728563
-0.37220922 -0.019657563 -0.085860372 4283057246
-0.37258357 -0.018638736 -0.085789345 4284569944
-0.3727113 -0.017749665 -0.085419096 4284969610
-0.37283906 -0.016860541 -0.085048825 4282742169
-0.37271971 -0.016104354 -0.084380671 4281962942
-0.37235424 -0.01548277 -0.083417162 4286751691
-0.37199008 -0.014863317 -0.082457021 4288590050
-0.37138289 -0.014379728 -0.081207067 4288853483
-0.37102208 -0.013764815 -0.080255017 4288917999
-0.37066257 -0.013152028 -0.079306357 4287476721
-0.37030432 -0.012541329 -0.07836096 4286810612
-0.37018874 -0.011797767 -0.077706702 4285105397
-0.3703149 -0.010919775 -0.077341065 4284184003
-0.37044105 -0.010041724 -0.076975413 4284706472
-0.37032545 -0.0093008373 -0.076322839 4285039261
-0.37069336 -0.0082854154 -0.076244012 4286479254
-0.37081954 -0.007407153 -0.07587827 4287467679
-0.37094572 -0.0065288353 -0.075512506 4288192425
-0.3710719 -0.005650463 -0.075146712 4288784832
-0.37095582 -0.004913114 -0.074495614 4288851413
-0.37083995 -0.0041769892 -0.073845655 4288914112
-0.37072429 -0.0034420635 -0.073196821 4287860141
-0.37060887 -0.0027084074 -0.072549038 4286603411
-0.37073466 -0.0018327641 -0.072184391 4283842670
-0.37086046 -0.00095707446 -0.071819723 4280364115
-0.37098625 -8.1301354e-05 -0.071455024 4280360492
-0.37111211 0.00079452177 -0.071090274 4280294954
-0.37123793 0.0016703975 -0.07072553 4280295464
-0.37136379 0.0025463609 -0.07036075 4280230700
-0.37148964 0.0034223632 -0.069995932 4281476918
-0.3716155 0.0042984579 -0.0696311 4284689721
-0.37125799 0.0048762793 -0.068707861 4284756544
-0.37114245 0.0056013982 -0.068065457 4285083968
-0.37102714 0.0063253497 -0.067424171 4285150785
-0.37115264 0.0071986387 -0.067060478 4285477952
-0.37103745 0.0079207001 -0.066420577 4285544253
-0.37116283 0.0087933354 -0.066057168 4285872445
-0.37104774 0.0095134834 -0.065418594 4285872703
-0.37141359 0.010538835 -0.065330274 4285609023
-0.37202159 0.011720641 -0.065517142 4285610049
-0.37311798 0.013219339 -0.066258326 4286069569
-0.3742221 0.014728604 -0.067004643 4286072143
-0.37558147 0.016409148 -0.068037041 4286400847
-0.37720305 0.018267699 -0.069362074 4286472284
-0.37934941 0.020478291 -0.071275212 4284700766
-0.38204345 0.023060517 -0.073799528 4284301648
-0.38478661 0.025689818 -0.076369829 4285940044
-0.39166695 0.031077305 -0.083588295 4286472791
-0.39374852 0.033307768 -0.08538834 4285626460
-0.39642641 0.035948165 -0.087850429 4285165151
-0.39799473 0.037857901 -0.08906018 4285687904
-0.39986902 0.039982196 -0.090606891 4286153831
-0.4011766 0.041732639 -0.091514409 4285831022
-0.40219855 0.043295465 -0.092099212 4285503852
-0.40263301 0.044462185 -0.0920268 4285833065
-0.40336543 0.045834951 -0.092284426 4286291311
-0.40410069 0.047213107 -0.092543013 4287537531
-0.40543997 0.049012374 -0.093468465 4290227335
-0.37129819 -0.05960878 -0.1118996 4285481581
-0.37042743 -0.059091192 -0.11021267 4281480809
-0.36931556 -0.058673669 -0.10821441 4281411885
-0.36796892 -0.058355961 -0.10591453 4280166194
-0.3671217 -0.057849601 -0.10427144 4280235126
-0.36603945 -0.057442956 -0.10232627 4281558138
-0.36520588 -0.05694373 -0.10070898 4281558971
-0.36414066 -0.056544192 -0.098794885 4281689275
-0.36379281 -0.055859149 -0.097814873 4281689786
-0.36250591 -0.055563089 -0.095621899 4281558202
-0.36216334 -0.054884441 -0.094654188 4281558203
-0.36322632 -0.053621963 -0.095501028 4281294522
-0.36171418 -0.053436324 -0.093028061 4281293736
-0.36160657 -0.052665848 -0.092367381 4282080680
-0.36149913 -0.051896673 -0.091707796 4282086292
-0.36185598 -0.050929382 -0.091644309 4286807956
-0.36174834 -0.050161589 -0.090985298 4286810686
-0.36187297 -0.049293958 -0.090623997 4288579646
-0.36176541 -0.048528139 -0.089966439 4288581949
-0.3616581 -0.047763567 -0.08930999 4287531069
-0.36155093 -0.047000255 -0.088654622 4287466047
-0.36167526 -0.046134621 -0.088294156 4286743871
-0.36156824 -0.045373272 -0.087640233 4286677087
-0.36192396 -0.044403166 -0.087573156 4282409568
-0.36228037 -0.043431304 -0.087506004 4282277788
-0.36147878 -0.042990711 -0.085976027 4281424286
-0.36183387 -0.042020027 -0.085907586 4281359262
-0.36218956 -0.04104761 -0.085838981 4281359006
-0.36277834 -0.039964378 -0.086062334 4281359267
-0.36407167 -0.038545646 -0.087167859 4281360035
-0.36537638 -0.037114382 -0.088283062 4281360040
-0.36741203 -0.035326447 -0.090307936 4281359784
-0.36826211 -0.034097392 -0.090844773 4281425066
-0.36863112 -0.033096876 -0.090778887 4281359530
-0.36900085 -0.032094497 -0.090712942 4281359784
-0.36864278 -0.031447358 -0.08974126 4281425832
-0.36828595 -0.030802455 -0.08877299 4281425316
-0.3681713 -0.030040223 -0.088106699 4281556899
-0.36781633 -0.029399382 -0.087143809 4281621399
-0.36770242 -0.028640246 -0.086480632 4281554837
-0.36806905 -0.027639739 -0.086411089 4281555866
-0.36795497 -0.026882054 -0.085748494 4281556635
-0.36832184 -0.025879866 -0.08567825 4281558947
-0.36868936 -0.024875855 -0.085607849 4283721637
-0.36929968 -0.023744814 -0.085834108 4284114338
-0.36966911 -0.022736093 -0.085763648 4282080673
-0.37028277 -0.021598106 -0.085990675 4281685137
-0.37089866 -0.02045599 -0.086218551 4281878157
-0.37127113 -0.019439707 -0.086147986 4282007632
-0.37164432 -0.018421501 -0.086077318 4283255103
-0.37201816 -0.017401453 -0.086006455 4283719052
-0.37214586 -0.016512278 -0.085636206 4284383397
-0.37202713 -0.015756348 -0.084967509 4284651455
-0.37190858 -0.015001684 -0.084299959 4286947528
-0.37154493 -0.014382475 -0.083337471 4287798496
-0.37118253 -0.013765425 -0.082378305 4288130025
-0.37057796 -0.013285019 -0.081129648 4288262892
-0.37021887 -0.012672488 -0.080178559 4288000238
-0.36986107 -0.012062063 -0.079230793 4287926511
-0.36974579 -0.011318233 -0.078575209 4284840943
-0.36963066 -0.010575618 -0.07792075 4283200169
-0.36975679 -0.0096975323 -0.077555105 4283587455
-0.36964181 -0.0089568822 -0.076902017 4283788400
-0.37000909 -0.0079411212 -0.076823704 4284440422
-0.36989388 -0.0072018821 -0.076171204 4284899193
-0.37001994 -0.0063242977 -0.075805768 4284842632
-0.37014598 -0.005446624 -0.075440317 4284975800
-0.37003082 -0.0047100233 -0.074789546 4286553570
-0.36991584 -0.0039746519 -0.074139908 4288131553
-0.36956087 -0.0033824618 -0.073208213 4288131039
-0.36992684 -0.0023649081 -0.073126726 4288125644
-0.36981219 -0.0016326945 -0.072479591 4286409396
-0.36969775 -0.0009017046 -0.071833581 4283777151
-0.36982334 -2.7431837e-05 -0.071469508 4282460721
-0.36994892 0.00084692647 -0.071105421 4280295214
-0.37007454 0.0017213383 -0.070741303 4280229672
-0.37044066 0.0027428407 -0.070657559 4280229927
-0.3705664 0.0036181477 -0.070293076 4280951846
-0.37069213 0.004493515 -0.069928564 4282984237
-0.37057701 0.0052196323 -0.069284596 4283379009
-0.37070265 0.0060943556 -0.068920329 4284887617
-0.37058759 0.0068185288 -0.068277717 4285019712
-0.37071314 0.0076926295 -0.067913741 4285543744
-0.37083873 0.0085668005 -0.067549706 4285610559
-0.37096429 0.0094410107 -0.067185685 4286005567
-0.37133101 0.010468996 -0.0670987 4286003774
-0.37121546 0.011189661 -0.066457525 4285674814
-0.37206635 0.012530485 -0.066924118 4285677124
-0.37316579 0.014036015 -0.067672201 4286006596
-0.37451923 0.015711982 -0.068706624 4286008933
-0.37613374 0.017565211 -0.070034117 4286080360
-0.37776554 0.019438291 -0.07137572 4286143845
-0.37992552 0.021667263 -0.073311932 4284695140
-0.38237667 0.024100149 -0.075570881 4284301399
-0.38539806 0.026924495 -0.078467153 4285880147
-0.39344183 0.033109892 -0.08703126 4286541152
-0.39555284 0.035372868 -0.08886943 4285689190
-0.3979803 0.037859708 -0.09105704 4285295467
-0.39956811 0.03979332 -0.09229143 4285759599
-0.40117118 0.041745588 -0.093537658 4286092910
-0.4013097 0.042710159 -0.09313602 4285897069
-0.40174329 0.043876301 -0.093064643 4285635699
-0.40247396 0.045247912 -0.093324304 4286030202
-0.40350559 0.04683027 -0.093917668 4286554254
-0.40514499 0.048838019 -0.095185004 4287604915
-0.37197107 -0.059582803 -0.11486656 4285348709
-0.37084204 -0.059159331 -0.11282904 4285017655
-0.36972329 -0.05873961 -0.11080994 4279902518
-0.36861455 -0.058323596 -0.10880901 4279900451
-0.36776048 -0.057814609 -0.10714678 4279639845
-0.36642691 -0.057502545 -0.10486075 4279773005
-0.36534774 -0.057097416 -0.10291295 4281625938
-0.36475557 -0.056502756 -0.10160546 4281624994
-0.36369136 -0.056104749 -0.099685706 4281690275
-0.36287194 -0.055613581 -0.098089047 4281690053
-0.36159098 -0.055319037 -0.095896557 4281560262
-0.361018 -0.05473813 -0.094627872 4281558486
-0.36067924 -0.054063145 -0.093665309 4281298901
-0.36034164 -0.053390451 -0.09270601 4281292972
-0.3600052 -0.052720036 -0.091750033 4282148268
-0.35967001 -0.052051887 -0.09079738 4282152800
-0.35979405 -0.051188078 -0.090437718 4287727200
-0.35991809 -0.050324224 -0.090078019 4287729469
-0.35981268 -0.049560823 -0.089423783 4289037373
-0.35970747 -0.04879868 -0.088770688 4289041214
-0.35960245 -0.048037801 -0.08811871 4287793470
-0.35949761 -0.047278181 -0.087467752 4287729227
-0.35985002 -0.046313975 -0.087400921 4287532364
-0.360203 -0.045348089 -0.087333918 4287530828
-0.3605566 -0.044380415 -0.087266766 4282540620
-0.36114147 -0.043305077 -0.087492317 4282409130
-0.36103499 -0.042546596 -0.086839572 4281424301
-0.3616212 -0.041466992 -0.087064475 4281359020
-0.36220947 -0.040383555 -0.087290205 4281425580
-0.36279982 -0.039296295 -0.08751668 4281424556
-0.3636266 -0.038093917 -0.088039242 4281359788
-0.36469391 -0.03677237 -0.088861622 4281360047
-0.36600712 -0.035326891 -0.0899892 4281425584
-0.36661145 -0.034217019 -0.090223081 4281425069
-0.36721799 -0.033103123 -0.090457805 4281359532
-0.36710426 -0.032338988 -0.089790091 4281360038
-0.36675107 -0.03169423 -0.088824332 4281425574
-0.36663806 -0.030933224 -0.088159762 4281425316
-0.36628667 -0.030292507 -0.087199375 4281622180
-0.3661744 -0.029534629 -0.086537935 4281620902
-0.36606228 -0.028778017 -0.085877597 4281556134
-0.3664262 -0.027781099 -0.0858078 4281556115
-0.3663139 -0.02702589 -0.085148051 4281557136
-0.36691678 -0.025904661 -0.085372366 4281559411
-0.36752176 -0.0247794 -0.085597448 4284577134
-0.3678883 -0.023775196 -0.085527003 4285099106
-0.36849663 -0.022643052 -0.085752897 4282408543
-0.36910713 -0.021506852 -0.085979566 4281818001
-0.36971977 -0.020366583 -0.086206973 4281554332
-0.3700906 -0.019351933 -0.08613658 4281483901
-0.37070665 -0.018204661 -0.086364813 4282728309
-0.37107933 -0.017185239 -0.086294308 4283061099
-0.37145266 -0.016163969 -0.086223617 4285295464
-0.37158036 -0.015274678 -0.085853338 4286025641
-0.37146211 -0.014519731 -0.085184425 4287012545
-0.37109885 -0.013900769 -0.084219478 4287402441
-0.37073687 -0.013283982 -0.083257921 4287727308
-0.37037626 -0.012669255 -0.082299761 4287866069
-0.36977434 -0.012192104 -0.081052355 4288324826
-0.36917564 -0.011717381 -0.079811536 4288581312
-0.3690609 -0.010973779 -0.079155445 4284840114
-0.3689464 -0.010231439 -0.078500465 4282545055
-0.36907253 -0.0093532894 -0.078134812 4282801298
-0.36895809 -0.0086128972 -0.077481247 4282934656
-0.36932477 -0.0075967684 -0.077403441 4282934132
-0.36921015 -0.0068577942 -0.076750435 4282929047
-0.36933616 -0.0059801377 -0.076385014 4282214068
-0.36946222 -0.0051024384 -0.076019548 4281560493
-0.3691074 -0.0045072893 -0.075083025 4284509098
-0.36899328 -0.003772686 -0.074433669 4287404217
-0.36887941 -0.0030393074 -0.073785439 4288329163
-0.36900505 -0.0021644155 -0.073421143 4289573836
-0.3688913 -0.0014329742 -0.072774343 4288781773
-0.36877772 -0.00070272031 -0.072128586 4287653289
-0.36866438 2.629858e-05 -0.07148397 4284889709
-0.36878973 0.0008991668 -0.071120523 4280231251
-0.36891508 0.0017721262 -0.070757061 4280229931
-0.36904043 0.002645104 -0.07039357 4280229674
-0.36940506 0.0036657683 -0.070309646 4280295720
-0.36953056 0.0045396467 -0.069945782 4280493101
-0.36965606 0.0054136198 -0.069581874 4281411130
-0.36978155 0.0062876283 -0.069217958 4284624443
-0.3701472 0.0073126308 -0.069132857 4284822590
-0.37051347 0.0083394684 -0.069047518 4285674815
-0.37063923 0.0092152171 -0.068682879 4285742401
-0.37100625 0.010244751 -0.068597071 4286266945
-0.37161618 0.011431215 -0.068790592 4286265667
-0.37125805 0.011998102 -0.067867011 4285873219
-0.37211129 0.013344631 -0.068338558 4285877327
-0.37370443 0.015175372 -0.069657072 4285943376
-0.37531459 0.017025687 -0.070989646 4285949033
-0.37669086 0.018731538 -0.072048977 4285292908
-0.37833291 0.020619353 -0.073407449 4285155169
-0.38076448 0.023037126 -0.075661115 4284563550
-0.38297379 0.025320813 -0.077653147 4284436824
-0.38681912 0.028705977 -0.081498221 4286014550
-0.39439622 0.034608271 -0.089567065 4286675809
-0.39652559 0.036894172 -0.091432653 4286150759
-0.39897451 0.039407041 -0.093652479 4285826412
-0.40057623 0.041359372 -0.094906531 4285829743
-0.4018966 0.043128692 -0.095837735 4285831023
-0.40144354 0.043693393 -0.094767034 4286225263
-0.40217498 0.045067322 -0.095030531 4286686326
-0.40261149 0.046241492 -0.09496063 4288195966
-0.37188855 -0.059847809 -0.11685434 4285152866
-0.3710084 -0.059325106 -0.11513546 4281607772
-0.36988473 -0.058903124 -0.11309857 4281409317
-0.36901906 -0.058387991 -0.11140729 4279704101
-0.36791348 -0.057973523 -0.10940367 4279770655
-0.36681789 -0.057562683 -0.10741804 4280951073
-0.36573207 -0.057155497 -0.1054501 4281230655
-0.36489588 -0.056655038 -0.10381457 4284903493
-0.36406562 -0.05615804 -0.10219062 4284835226
-0.36300445 -0.05576152 -0.10026829 4282673819
-0.36218742 -0.055271514 -0.098669611 4282673353
-0.36091003 -0.054978706 -0.096474059 4282085578
-0.36010748 -0.054495536 -0.094902545 4282091231
-0.35954034 -0.053918712 -0.093640849 4282414301
-0.35897616 -0.053344805 -0.092385709 4282408365
-0.35864297 -0.052676145 -0.09143278 4282214317
-0.35831097 -0.052009739 -0.090483159 4282217553
-0.35843468 -0.051148139 -0.090124436 4287858769
-0.35833076 -0.050386023 -0.089471869 4287860285
-0.35845441 -0.049525041 -0.089113384 4288054077
-0.35812363 -0.048865523 -0.088170141 4288057150
-0.35802028 -0.048107162 -0.087520868 4288186686
-0.35791716 -0.047350049 -0.086872727 4288254543
-0.35804039 -0.046491764 -0.086515389 4288057168
-0.35861737 -0.045426633 -0.086738355 4288055621
-0.35896832 -0.044462334 -0.086670913 4283458117
-0.35954842 -0.043390796 -0.086894661 4283327663
-0.35944366 -0.042634811 -0.086244643 4281686706
-0.36048436 -0.041344125 -0.08705169 4281621680
-0.3613008 -0.040153429 -0.087570377 4281229232
-0.36188897 -0.039066657 -0.087797113 4281228719
-0.36294648 -0.037753139 -0.088615835 4281425327
-0.36401138 -0.036430333 -0.089440227 4281425586
-0.36532155 -0.034983274 -0.090570375 4281425842
-0.36568597 -0.0339888 -0.090504654 4281425837
-0.36581224 -0.033109307 -0.090138473 4281425069
-0.36570004 -0.03234715 -0.089472808 4281426086
-0.36535022 -0.031704005 -0.088510178 4281491109
-0.36500168 -0.031063078 -0.087550886 4281491108
-0.36465436 -0.030424301 -0.086594954 4281425572
-0.36454386 -0.029668916 -0.085936323 4281425580
-0.36443359 -0.028914787 -0.085278846 4281556909
-0.36479476 -0.027921425 -0.085208751 4281556624
-0.36492023 -0.027047561 -0.084844917 4282212747
-0.36551905 -0.025929283 -0.085068114 4282348381
-0.36612001 -0.024806965 -0.085292071 4284906837
-0.36672303 -0.023680687 -0.085516758 4285492037
-0.36732823 -0.022550341 -0.085742243 4282474049
-0.3679356 -0.021415915 -0.085968494 4281819790
-0.36854509 -0.020277452 -0.086195529 4281884324
-0.36891413 -0.019264465 -0.08612521 4281947797
-0.36952704 -0.018119015 -0.086353078 4282204305
-0.36989793 -0.017101279 -0.086282641 4282335834
-0.37051421 -0.015948789 -0.086511336 4283915080
-0.3706418 -0.015060224 -0.086141385 4284446620
-0.37052447 -0.014306088 -0.085472777 4286420157
-0.3701632 -0.013687999 -0.084508225 4287142331
-0.36980319 -0.01307207 -0.083547011 4287002554
-0.36968717 -0.012322816 -0.082883634 4286935494
-0.36908704 -0.011846525 -0.081634656 4285630157
-0.36849013 -0.011372667 -0.080392323 4285101472
-0.36837599 -0.010629334 -0.079735734 4282870152
-0.36826208 -0.0098872334 -0.079080239 4281489303
-0.36838818 -0.0090090102 -0.078714602 4281616800
-0.36827433 -0.0082688909 -0.078060508 4281749901
-0.36864036 -0.0072523863 -0.07798323 4281818495
-0.36852634 -0.0065136789 -0.077329725 4281881775
-0.36865234 -0.0056359586 -0.076964296 4282474202
-0.36877838 -0.0047581964 -0.076598831 4282936486
-0.36866432 -0.0040221135 -0.075947076 4283848050
-0.3683112 -0.0034292736 -0.07501144 4284898450
-0.36795932 -0.0028384277 -0.074079096 4286026934
-0.36808482 -0.0019642347 -0.073715121 4287345611
-0.36797193 -0.0012335546 -0.073068596 4287803882
-0.36785924 -0.00050406234 -0.072423182 4288452052
-0.36798459 0.00036879437 -0.072059765 4286405296
-0.367872 0.0010963732 -0.071415767 4282264967
-0.36799723 0.0019685961 -0.071052611 4281672238
-0.36812249 0.0028409024 -0.070689425 4280229933
-0.36848596 0.0038608843 -0.070605829 4280295724
-0.36885005 0.0048827161 -0.070522092 4280623404
-0.36897555 0.005756727 -0.070158191 4281279022
-0.36910105 0.0066308002 -0.069794267 4284295216
-0.36970595 0.0078075952 -0.069989488 4284495163
-0.37007216 0.0088358195 -0.069904871 4285740092
-0.37043899 0.009865948 -0.069820099 4285807941
-0.37104842 0.011052755 -0.070015945 4286199366
-0.37165999 0.01224381 -0.070212483 4286202189
-0.37251803 0.013596904 -0.070692338 4285746253
-0.37264481 0.014479912 -0.070324697 4285748332
-0.37424782 0.016324852 -0.071659625 4285817966
-0.37586802 0.018189602 -0.073008813 4285817717
-0.37750563 0.020074496 -0.07437247 4284960374
-0.37890542 0.0218111 -0.075457543 4284760913
-0.38109323 0.024077596 -0.077440917 4284893513
-0.38331303 0.026377307 -0.079453252 4284898139
-0.38636896 0.029248312 -0.082412951 4286088802
-0.39394173 0.035170145 -0.090512857 4286680169
-0.3966442 0.037849318 -0.093040168 4286156396
-0.39910105 0.040376849 -0.095278777 4285829998
-0.40100345 0.042540524 -0.096879572 4285896559
-0.4020327 0.044117875 -0.097484589 4285963383
-0.40247029 0.045294464 -0.097416915 4286358400
-0.40320802 0.046679571 -0.097687118 4286951062
-0.37180555 -0.060114276 -0.11885308 4284890216
-0.37092322 -0.059589174 -0.1171222 4284426036
-0.37004739 -0.059067853 -0.11540393 4280098098
-0.36892912 -0.058647379 -0.11336769 4280031780
-0.36806762 -0.058133576 -0.11167695 4279639845
-0.36696738 -0.057720553 -0.10967395 4279772218
-0.36587697 -0.05731117 -0.1076889 4281427518
-0.36479631 -0.056905404 -0.10572151 4281694848
-0.36396414 -0.056406211 -0.10408646 4286019199
-0.36313787 -0.055910517 -0.10246295 4285817469
-0.36208171 -0.055515397 -0.10054113 4282992254
-0.36150283 -0.054929391 -0.099250205 4283001001
-0.35999718 -0.054735307 -0.096747868 4282216363
-0.35896856 -0.054350257 -0.094875969 4282225113
-0.35840535 -0.053774744 -0.093616538 4282738904
-0.35784507 -0.053202141 -0.092363648 4282736562
-0.35751444 -0.052534834 -0.091412455 4282215602
-0.35695893 -0.051967815 -0.090170614 4282217323
-0.35708228 -0.051108379 -0.089812815 4287924075
-0.35697979 -0.05034823 -0.089162216 4287925564
-0.35710305 -0.049489405 -0.08880467 4287727164
-0.35677543 -0.048831623 -0.087864377 4287729213
-0.35667351 -0.048075181 -0.087217048 4288383293
-0.3563475 -0.047421396 -0.086281843 4288386115
-0.3566947 -0.04646387 -0.086214438 4288187204
-0.3568176 -0.045607682 -0.085857995 4288186692
-0.35694051 -0.04475145 -0.085501514 4283786308
-0.35796627 -0.043475907 -0.086301133 4283655854
-0.35831642 -0.042510569 -0.086233392 4281820081
-0.35912293 -0.041329127 -0.086747289 4281687477
-0.36016342 -0.040032659 -0.087556697 4281229494
-0.36097971 -0.038837414 -0.088077135 4281163439
-0.36203304 -0.037524179 -0.088896103 4281426094
-0.36309379 -0.036201671 -0.089720823 4281425584
-0.36439875 -0.034754843 -0.090851143 4281426608
-0.36452475 -0.033876903 -0.090485655 4281426095
-0.36465079 -0.032998923 -0.090120122 4281426094
-0.3645398 -0.032238141 -0.089455642 4281426345
-0.36395669 -0.031713713 -0.088197693 4281491368
-0.36361149 -0.031074384 -0.087241471 4281491113
-0.36350197 -0.030319085 -0.086582921 4281361066
-0.36315846 -0.029683735 -0.085631974 4281360554
-0.36328357 -0.028812256 -0.085269161 4281557418
-0.36364311 -0.027820496 -0.0851992 4281556637
-0.36376834 -0.026948113 -0.084836021 4282540955
-0.36459994 -0.025709176 -0.085352585 4282742621
-0.36496189 -0.024711018 -0.085282326 4285098831
-0.36556184 -0.023586467 -0.08550664 4285621886
-0.36616388 -0.022457885 -0.085731685 4282542217
-0.36676809 -0.02132526 -0.085957527 4281821584
-0.36737445 -0.020188583 -0.086184144 4282083219
-0.36774176 -0.019177277 -0.08611393 4282147231
-0.36835149 -0.018033635 -0.086341374 4281947811
-0.36872068 -0.017017595 -0.086271055 4281876351
-0.36933377 -0.015866933 -0.086499333 4282991220
-0.36946109 -0.014979907 -0.086130053 4283458172
-0.36958843 -0.014092803 -0.085760728 4286020736
-0.36947227 -0.013340717 -0.085093684 4287010477
-0.36911345 -0.012725365 -0.084131435 4286549698
-0.36899799 -0.011976352 -0.083467543 4286341312
-0.36864102 -0.011364904 -0.082510673 4283717824
-0.36804473 -0.010891842 -0.081264913 4282340737
-0.36793083 -0.010148228 -0.080606937 4281288540
-0.3675777 -0.0095429951 -0.079660065 4280694118
-0.36770377 -0.0086647365 -0.079294436 4280760428
-0.36782983 -0.0077863964 -0.078928769 4280762258
-0.36795592 -0.0069080014 -0.078563079 4280896429
-0.36808202 -0.0060295267 -0.07819736 4280962722
-0.36796844 -0.0052917763 -0.077543646 4282670232
-0.36809444 -0.0044139395 -0.077178188 4284314014
-0.36798102 -0.0036780932 -0.076525919 4283394208
-0.36762905 -0.0030858202 -0.075589277 4282404256
-0.36727834 -0.0024955126 -0.07465592 4283454623
-0.36740381 -0.0016212717 -0.074291967 4284781232
-0.3670541 -0.0010344451 -0.073362403 4286558408
-0.36717939 -0.00016159513 -0.07299903 4289505992
-0.36706752 0.00056644547 -0.072354212 4288056517
-0.36695579 0.0012932554 -0.07171049 4285286809
-0.3670809 0.002164759 -0.071347654 4283835446
-0.36720601 0.0030363549 -0.070984803 4280230453
-0.36756837 0.0040557012 -0.070901573 4280361522
-0.36816949 0.0052257888 -0.071098469 4280754226
-0.36829495 0.0060998374 -0.070734575 4281278514
-0.36865926 0.0071247211 -0.070650823 4283641142
-0.36926389 0.00830347 -0.070847712 4283906121
-0.36987069 0.0094864452 -0.071045257 4285872201
-0.37047964 0.010673627 -0.071243495 4285873990
-0.37109068 0.011865042 -0.071442381 4286135367
-0.37194794 0.013218311 -0.071925938 4286141269
-0.37330192 0.014898059 -0.07298395 4285354837
-0.37342939 0.015785828 -0.072614349 4285360494
-0.37504515 0.017647684 -0.073968671 4285490288
-0.37667829 0.01952965 -0.075337537 4285486955
-0.37807435 0.021263788 -0.076426983 4283779436
-0.37948298 0.023013648 -0.077526234 4283450451
-0.38168496 0.025299311 -0.079533733 4286139979
-0.38365465 0.027441582 -0.081266627 4287004253
-0.3867254 0.030334134 -0.084255755 4286747747
-0.39405227 0.036114894 -0.092108652 4286617449
-0.39618742 0.038419735 -0.093998328 4286092396
-0.39893544 0.041153029 -0.096580215 4285700208
-0.40054467 0.043123353 -0.097854473 4286356593
-0.40157357 0.044703994 -0.098462895 4287013498
-0.40201113 0.045882348 -0.098396152 4288588162
-0.37146747 -0.060478996 -0.12052128 4285088357
-0.37058476 -0.059951618 -0.11878113 4281607519
-0.36970854 -0.059428032 -0.1170537 4281409314
-0.36883867 -0.058908172 -0.11533882 4279966242
-0.36772788 -0.058489125 -0.11330654 4280032803
-0.36687228 -0.057976738 -0.11161911 4281018150
-0.36577934 -0.05756516 -0.10961997 4281428292
-0.36493763 -0.057060104 -0.10795925 4285628489
-0.36410195 -0.056558579 -0.10631043 4285629337
-0.36327225 -0.056060582 -0.1046733 4286085271
-0.36244839 -0.055566072 -0.10304771 4285881457
-0.3613953 -0.05517241 -0.1011233 4283512946
-0.36081818 -0.054587238 -0.099830858 4283451805
-0.35931674 -0.054395188 -0.09732496 4282281631
-0.35852039 -0.053914398 -0.095751874 4282283479
-0.35795787 -0.053339455 -0.094489075 4281820374
-0.35739824 -0.052767456 -0.093232818 4281885363
-0.35684156 -0.052198365 -0.091983072 4282281651
-0.35651314 -0.051533837 -0.091034114 4282284404
-0.35663658 -0.050673623 -0.090676017 4286416756
-0.35653442 -0.049913112 -0.090024173 4286417468
-0.3566578 -0.049053509 -0.089666329 4287792956
-0.3563306 -0.048395861 -0.088723689 4287794237
-0.35600454 -0.047740422 -0.087784275 4287924541
-0.35590339 -0.046985466 -0.08713761 4287926079
-0.35602629 -0.046129301 -0.086781181 4287793471
-0.35614917 -0.045273051 -0.086424738 4287793731
-0.35627204 -0.044416774 -0.08606828 4283262019
-0.35729548 -0.043140039 -0.086869858 4283129514
-0.35764503 -0.04217435 -0.086802602 4281886129
-0.35890594 -0.040776238 -0.087902792 4281754040
-0.35971746 -0.039585017 -0.08842326 4281295032
-0.3605333 -0.038387496 -0.088946417 4281228719
-0.36135337 -0.037183639 -0.089472294 4281361070
-0.36171111 -0.036199763 -0.089406289 4281360559
-0.36253718 -0.034985811 -0.089935154 4281427119
-0.36266264 -0.034111656 -0.08957126 4281426607
-0.36302274 -0.033121463 -0.089504994 4281426607
-0.36291355 -0.032363202 -0.08884339 4281425835
-0.36233675 -0.031840213 -0.087591447 4281491370
-0.36222851 -0.031085594 -0.086933754 4281556652
-0.36212048 -0.030332206 -0.086277187 4281557932
-0.36201265 -0.029580066 -0.085621759 4281557161
-0.36237043 -0.028590739 -0.08555223 4281623208
-0.3627288 -0.027599592 -0.085482568 4281621411
-0.36308783 -0.026606655 -0.085412771 4282016674
-0.36368233 -0.025489442 -0.085636556 4282083676
-0.36427894 -0.024368247 -0.085861117 4283522892
-0.3648777 -0.023243032 -0.086086445 4283920028
-0.36524084 -0.022239886 -0.086016633 4284510383
-0.36584288 -0.021107845 -0.086242773 4284643985
-0.36620787 -0.020100035 -0.086172834 4284576137
-0.36681321 -0.018961038 -0.086399816 4284507812
-0.36718002 -0.017948555 -0.086329781 4282540461
-0.36754757 -0.016934151 -0.086259626 4281881494
-0.36815742 -0.015785359 -0.086487442 4282399630
-0.36828449 -0.014899843 -0.08611881 4282598502
-0.3684116 -0.014014247 -0.08575014 4284310614
-0.36829665 -0.013263525 -0.085084297 4285170084
-0.36842364 -0.012378601 -0.08471591 4286223559
-0.36830878 -0.011629862 -0.084051505 4286809531
-0.367953 -0.01101895 -0.083093613 4285354677
-0.36759847 -0.010410124 -0.082139052 4284366696
-0.36748487 -0.0096662277 -0.081479765 4281937977
-0.36737147 -0.0089236004 -0.080821581 4280296764
-0.36749774 -0.0080437316 -0.080455303 4280758846
-0.36738446 -0.0073030354 -0.079798579 4281090966
-0.36751065 -0.0064238044 -0.079432569 4281158363
-0.36739746 -0.0056850505 -0.078777261 4281288852
-0.36752355 -0.0048064571 -0.07841152 4282407766
-0.36741048 -0.0040696622 -0.07775759 4283528338
-0.36729762 -0.0033340554 -0.077104807 4283202005
-0.36694682 -0.0027423392 -0.076167174 4282737074
-0.36659729 -0.0021525663 -0.075232804 4283448452
-0.36648563 -0.001421673 -0.074584983 4284502670
-0.36637422 -0.00069198338 -0.073938295 4285698461
-0.366263 3.6501944e-05 -0.073292695 4287671477
-0.36615196 0.00076375651 -0.072648175 4287407076
-0.36627704 0.0016352533 -0.072285384 4286478258
-0.36640212 0.0025068321 -0.071922563 4284822083
-0.3665272 0.003378476 -0.071559697 4280558913
-0.36712599 0.0045463606 -0.071757622 4280689212
-0.36748889 0.0055689015 -0.071674868 4281147451
-0.36809093 0.0067438483 -0.071873441 4281805113
-0.36845562 0.0077711213 -0.071790546 4284823616
-0.36906099 0.0089531112 -0.07198979 4284890983
-0.36966845 0.010139356 -0.072189733 4286070884
-0.37027809 0.011329828 -0.072390288 4286071881
-0.37113315 0.012681673 -0.072876401 4285877066
-0.37199283 0.014040764 -0.073365107 4285880428
-0.37409416 0.016213195 -0.07530012 4285294188
-0.37547109 0.017923016 -0.076383628 4285293941
-0.37585098 0.018984774 -0.076302588 4285160054
-0.37775183 0.021052221 -0.07798709 4285157449
-0.37864813 0.022463823 -0.078500099 4284170049
-0.38006577 0.02422715 -0.079613768 4283909458
-0.38201967 0.026356716 -0.081342451 4286146647
-0.38373336 0.028335452 -0.082787097 4286941030
-0.38708439 0.03142805 -0.086112291 4286681453
-0.39302996 0.036297198 -0.092409939 4286551404
-0.39572972 0.038991291 -0.094958402 4286093420
-0.39818424 0.041532606 -0.097216159 4285766018
-0.39978981 0.043504834 -0.098493494 4286424214
-0.4008165 0.045086633 -0.099103786 4287081378
-0.36999249 -0.060411941 -0.1201059 4284295996
-0.36936837 -0.059789516 -0.11870952 4280098359
-0.36849818 -0.059267417 -0.11698548 4280097827
-0.36763427 -0.058749046 -0.11527398 4279902245
-0.36677665 -0.058234345 -0.11357487 4280100412
-0.36592525 -0.057723325 -0.11188795 4281689667
-0.36507997 -0.05721591 -0.11021318 4282024842
-0.36399993 -0.056809433 -0.10822924 4287269004
-0.36316833 -0.056309208 -0.10658094 4287203235
-0.36234263 -0.055812489 -0.10494425 4286087329
-0.36152282 -0.055319209 -0.10331921 4285946234
-0.36047471 -0.054926921 -0.1013953 4283707513
-0.35990053 -0.054342911 -0.10010327 4283645026
-0.3586362 -0.054055061 -0.097902119 4282340965
-0.35784224 -0.053575397 -0.096327014 4282346446
-0.35728142 -0.053001288 -0.09506274 4281493454
-0.35672355 -0.052430134 -0.093804993 4281492161
-0.3563945 -0.051763497 -0.092850447 4282281409
-0.35606655 -0.051099084 -0.091899171 4282284982
-0.35619012 -0.050238065 -0.091540754 4285825718
-0.35586315 -0.049577314 -0.090593383 4285827396
-0.35576171 -0.048818309 -0.089942075 4287791940
-0.35566047 -0.048060544 -0.089291923 4287793982
-0.35533553 -0.047405634 -0.088351555 4287727422
-0.35523495 -0.046650901 -0.087704398 4287729216
-0.3553578 -0.045794666 -0.087347984 4287596608
-0.35548064 -0.044938408 -0.086991556 4287597189
-0.35560352 -0.044082042 -0.086635083 4283064712
-0.35662463 -0.042804118 -0.087438621 4282931879
-0.35697359 -0.041838102 -0.087371863 4281884841
-0.35823157 -0.040438469 -0.088474512 4281819832
-0.35904133 -0.039246306 -0.088996463 4281361081
-0.35962504 -0.038158748 -0.089225546 4281294257
-0.36044201 -0.036955278 -0.089751698 4281361073
-0.36056688 -0.036085036 -0.089389451 4281360560
-0.36092359 -0.035100959 -0.089323379 4281426864
-0.36104858 -0.034229819 -0.088960759 4281426611
-0.36117357 -0.03335863 -0.088598125 4281426356
-0.36129859 -0.032487374 -0.088235438 4281425583
-0.360728 -0.031965844 -0.086989455 4281556911
-0.36062154 -0.031213665 -0.086334601 4281556397
-0.36074615 -0.030345246 -0.085973114 4281688749
-0.36087075 -0.029476745 -0.085611597 4281688223
-0.36122689 -0.028488984 -0.08554218 4281686429
-0.36181602 -0.027379036 -0.085765503 4281686168
-0.36194098 -0.026508076 -0.085402966 4281753496
-0.3627663 -0.025270056 -0.085920095 4281753991
-0.36336079 -0.024149382 -0.086144991 4282741892
-0.36395735 -0.023024751 -0.086370587 4282940033
-0.36455601 -0.021896059 -0.086596996 4285627520
-0.36491919 -0.020890756 -0.086527541 4286351203
-0.36504531 -0.020011736 -0.086161636 4286083933
-0.36564752 -0.018874552 -0.086388193 4285949843
-0.36577389 -0.017993873 -0.086021595 4282934693
-0.36637849 -0.01685098 -0.086248256 4281884833
-0.36674491 -0.015836436 -0.086178027 4281946270
-0.36711207 -0.014820017 -0.086107701 4282005875
-0.36723888 -0.013935941 -0.085739702 4283188578
-0.36736575 -0.013051794 -0.085371666 4283722369
-0.36749262 -0.012167581 -0.085003622 4285957267
-0.36737862 -0.011419669 -0.084339514 4287142068
-0.36726493 -0.010672975 -0.083676592 4286545862
-0.36691156 -0.010064715 -0.082721025 4286139543
-0.36703804 -0.0091833882 -0.082354158 4282462583
-0.36668575 -0.0085786982 -0.081402533 4279969618
-0.36681199 -0.0076987627 -0.081036247 4280757817
-0.36693826 -0.006818776 -0.08066994 4281354356
-0.36682546 -0.0060790293 -0.080013029 4281486242
-0.36671287 -0.0053405119 -0.079357207 4281549433
-0.36683893 -0.0044618854 -0.078991465 4282077008
-0.36672643 -0.0037253452 -0.078337051 4282609046
-0.36661416 -0.0029900018 -0.077683769 4282874853
-0.36626455 -0.0023987978 -0.076745115 4283196098
-0.36591619 -0.0018095907 -0.07580974 4283585940
-0.36580512 -0.0010789618 -0.07516142 4284109464
-0.36569425 -0.00034951046 -0.074514225 4284440480
-0.36558363 0.000378722 -0.073868148 4285048248
-0.36547315 0.0011057477 -0.073223121 4286163942
-0.3655982 0.0019773082 -0.072860323 4288514751
-0.36572325 0.0028489179 -0.072497517 4286466395
-0.36608428 0.0038681317 -0.072415657 4281214546
-0.3664459 0.0048891883 -0.072333582 4281344823
-0.36728337 0.006211922 -0.072815448 4281870397
-0.36788613 0.0073901187 -0.07301639 4282726997
-0.36825126 0.008419795 -0.072934344 4287383894
-0.36909792 0.009759062 -0.073420279 4287320161
-0.3699491 0.011105477 -0.073908731 4286530401
-0.37056139 0.012301932 -0.074113093 4286468180
-0.37191036 0.013979085 -0.075181827 4285091922
-0.37302375 0.015509956 -0.075969376 4285097323
-0.37489489 0.017542491 -0.077641241 4285031019
-0.37628281 0.019267578 -0.078741163 4285027948
-0.37819499 0.021346156 -0.080448769 4283913070
-0.37806895 0.022083582 -0.079772264 4283710025
-0.37948522 0.023846768 -0.080892764 4285938499
-0.38065377 0.025451785 -0.081720382 4286470227
-0.38235673 0.027421903 -0.083164498 4286410840
-0.38434529 0.029593829 -0.084933668 4286352743
-0.38744599 0.032530166 -0.087982751 4285961069
-0.39200956 0.036479145 -0.092710681 4285765228
-0.39555848 0.03976037 -0.096251838 4286092651
-0.39801636 0.042312596 -0.098523937 4286287233
-0.39991972 0.0444961 -0.10014985 4287994004
-0.36939913 -0.060873132 -0.12143312 4281872994
-0.36877605 -0.060248867 -0.12003183 4281671719
-0.3681564 -0.059627984 -0.11863822 4280032295
-0.36729217 -0.059107345 -0.1169176 4280164387
-0.36643419 -0.058590464 -0.11520945 4281083942
-0.36582708 -0.057980046 -0.11384272 4281558343
-0.36497986 -0.057470337 -0.11215636 4285956944
-0.36413875 -0.056964215 -0.11048215 4286092202
-0.36306384 -0.056559172 -0.10849882 4287466666
-0.36223626 -0.056060243 -0.10685096 4287467688
-0.36141464 -0.055564795 -0.10521483 4286612645
-0.36059883 -0.055072766 -0.10359026 4286473598
-0.35978875 -0.054584168 -0.10197709 4283903355
-0.35921636 -0.054000996 -0.10068352 4283839303
-0.3579556 -0.053714909 -0.098479323 4283124555
-0.357164 -0.053236391 -0.096902214 4283131339
-0.35660493 -0.052663106 -0.095636435 4281756107
-0.35604879 -0.052092757 -0.094377212 4281755847
-0.35572088 -0.051426645 -0.093421668 4282084551
-0.3553941 -0.050762776 -0.092469417 4282087120
-0.35551763 -0.049901716 -0.092111006 4283924688
-0.35519186 -0.049241487 -0.091162644 4283923271
-0.35509092 -0.048482724 -0.090510875 4284580423
-0.35499024 -0.047725212 -0.089860231 4284578110
-0.35466644 -0.047070794 -0.08891888 4285564478
-0.35456643 -0.046316311 -0.088271238 4285626688
-0.35446656 -0.04556305 -0.087624662 4284319808
-0.35458928 -0.044707451 -0.087268554 4284313252
-0.35471204 -0.043851785 -0.086912401 4281753255
-0.35505781 -0.04289085 -0.086845458 4281685926
-0.35540417 -0.041928187 -0.086778365 4281360038
-0.35642549 -0.040641505 -0.08758311 4281360568
-0.35700059 -0.039563917 -0.087808125 4281230265
-0.35757774 -0.038482495 -0.088033952 4281228466
-0.35815686 -0.037397273 -0.088260524 4281360818
-0.35873801 -0.036308214 -0.088487819 4281426352
-0.35909158 -0.035328556 -0.0884213 4281492400
-0.359216 -0.03446117 -0.088060267 4281491637
-0.35957029 -0.033478938 -0.087993205 4281491894
-0.35969484 -0.032610636 -0.087631799 4281491890
-0.35935965 -0.031974662 -0.086684063 4281491377
-0.35925466 -0.031224394 -0.086031191 4281490862
-0.3593789 -0.030358197 -0.085670657 4281622957
-0.35950318 -0.029491894 -0.085310079 4281622426
-0.35985714 -0.028506681 -0.085240602 4281554071
-0.36044237 -0.027399594 -0.085462824 4281555603
-0.36102965 -0.026288599 -0.08568579 4281687442
-0.36161897 -0.025173657 -0.085909471 4281688737
-0.36221036 -0.024054747 -0.086133935 4284056229
-0.36280388 -0.022931837 -0.086359158 4284646002
-0.36339942 -0.021804944 -0.086585119 4285891684
-0.36376095 -0.020801216 -0.086515799 4286216519
-0.36388683 -0.019923722 -0.086150572 4284378687
-0.36424911 -0.018917352 -0.086080708 4283852936
-0.36461201 -0.017909147 -0.086010717 4282738592
-0.3649756 -0.016899098 -0.085940614 4282344872
-0.36533985 -0.015887236 -0.085870311 4282015659
-0.36570469 -0.014873474 -0.085799858 4281880191
-0.36607024 -0.013857872 -0.085729316 4282595435
-0.36619687 -0.012975249 -0.085361928 4282927207
-0.36632347 -0.012092564 -0.08499454 4284510053
-0.36645013 -0.011209807 -0.084627099 4285303723
-0.36657676 -0.010326986 -0.084259659 4286289877
-0.36622462 -0.0097192815 -0.083303034 4286807746
-0.36635104 -0.0088378824 -0.08293619 4284566709
-0.36623853 -0.0080951909 -0.082276165 4282855532
-0.36636487 -0.0072144326 -0.081909582 4281675572
-0.36625242 -0.0064737326 -0.081250966 4280760652
-0.36614025 -0.0057342323 -0.080593526 4280892002
-0.36626637 -0.0048548398 -0.080227509 4281087574
-0.36615428 -0.0041172812 -0.079571478 4281482570
-0.36628035 -0.0032385364 -0.079205707 4282015133
-0.36616829 -0.0025029415 -0.078551099 4282414330
-0.36581916 -0.00191202 -0.077610128 4282936538
-0.36547121 -0.0013231062 -0.076672368 4284187307
-0.36536047 -0.00059220422 -0.076022774 4286025128
-0.36501426 -6.9894963e-06 -0.075090222 4286280868
-0.36490417 0.00072097854 -0.074443646 4286683324
-0.36479428 0.0014477684 -0.07379812 4287345898
-0.3649193 0.0023193667 -0.073435329 4288781007
-0.36504436 0.0031910401 -0.073072515 4286861706
-0.36564052 0.0043586702 -0.0732731 4281215094
-0.36647582 0.0056800391 -0.073757455 4281608493
-0.36731556 0.0070084198 -0.074244365 4283447362
-0.36815974 0.0083438884 -0.074733816 4284111260
-0.3687672 0.0095321536 -0.074939162 4287590291
-0.36961895 0.010880347 -0.075432554 4287450451
-0.37047526 0.012235758 -0.075928539 4286269525
-0.37109116 0.013439559 -0.076137401 4286272627
-0.37244844 0.015129296 -0.077219859 4284965491
-0.37332001 0.016508397 -0.077724986 4284965481
-0.37570417 0.018886184 -0.080007784 4284764265
-0.37710327 0.020626798 -0.081124336 4284763974
-0.37877285 0.022554189 -0.082553469 4284168002
-0.37890363 0.023465669 -0.082174085 4283971145
-0.38007107 0.025070753 -0.083007202 4285873995
-0.3809852 0.026511686 -0.083540551 4286405724
-0.38269627 0.028494947 -0.085000038 4286349921
-0.38442636 0.030500334 -0.086475708 4286354540
-0.38726339 0.0332684 -0.089231759 4285895025
-0.39239669 0.03762152 -0.094641849 4285698914
-0.39538649 0.040532429 -0.097550288 4285947479
-0.39784774 0.043095604 -0.099836834 4286274906
-0.39945793 0.045083221 -0.10113189 4287993692
-0.4004876 0.046675924 -0.10175232 4289966720
-0.36793244 -0.06080512 -0.1210161 4280296510
-0.36731505 -0.060182706 -0.11961981 4280294180
-0.36670107 -0.059563611 -0.11823112 4280033062
-0.36609048 -0.058947865 -0.11685 4280232247
-0.36548316 -0.058335356 -0.11547635 4281754175
-0.36487919 -0.057726141 -0.11411015 4282353288
-0.36403611 -0.057217747 -0.1124244 4288190092
-0.36295879 -0.056810472 -0.11042704 4288126135
-0.36212933 -0.05630935 -0.1087679 4287600312
-0.36106914 -0.055909228 -0.10680278 4287534274
-0.36025304 -0.055415165 -0.10516969 4286875327
-0.35967636 -0.054826766 -0.10386085 4286672018
-0.35887024 -0.05433939 -0.10224818 4283971725
-0.35830078 -0.053757302 -0.10095504 4283969090
-0.35727495 -0.053374719 -0.099056587 4283512901
-0.35671362 -0.052799091 -0.097780786 4283458202
-0.35638252 -0.052127782 -0.096813545 4281887387
