# .PCD v0.7 - Point Cloud Data file format
VERSION 0.7
FIELDS x y z rgba
SIZE 4 4 4 4
TYPE F F F U
COUNT 1 1 1 1
WIDTH 1011
HEIGHT 1
VIEWPOINT 0 0 0 1 0 0 0
POINTS 1011
DATA ascii
-0.36372951 0.046723045 -0.16068974 4280761140
-0.36404756 0.047588069 -0.16191225 4281681739
-0.36411437 0.048512165 -0.16271354 4283452237
-0.36443406 0.049383376 -0.16394365 4283452242
-0.36450142 0.050312098 -0.16474934 4283453013
-0.36482278 0.051189527 -0.16598706 4283651162
-0.36514542 0.052070487 -0.16722971 4284111967
-0.36521375 0.05300666 -0.16804267 4284640109
-0.3699927 -0.027755508 -0.1199068 4284639638
-0.37006417 -0.026936283 -0.12064196 4282802584
-0.3698855 -0.025990915 -0.12100496 4282671770
-0.36970681 -0.02504546 -0.12136799 4282674088
-0.36927867 -0.023977466 -0.12135746 4282281652
-0.36835513 -0.022669412 -0.12060269 4281888188
-0.36768308 -0.021488009 -0.12022223 4281757380
-0.36676836 -0.020192953 -0.11947425 4281690822
-0.3658587 -0.018905079 -0.11873049 4281689289
-0.36519632 -0.017739313 -0.11835641 4281688504
-0.3652623 -0.016920021 -0.11908145 4281687969
-0.36460161 -0.015758922 -0.11870715 4281687713
-0.36490905 -0.015050977 -0.11979911 4281688224
-0.36546093 -0.014452588 -0.12126485 4281754272
-0.36601591 -0.013850801 -0.12273883 4281885343
-0.36981103 -0.014718274 -0.12915489 4282214813
-0.37089622 -0.014335479 -0.13145344 4283397016
-0.37096941 -0.013490432 -0.13221072 4286083721
-0.36926979 -0.011854666 -0.13025445 4284901991
-0.36883822 -0.010789057 -0.13023573 4282017407
-0.3684074 -0.009725376 -0.13021712 4282545084
-0.36747912 -0.0084468871 -0.12943178 4284052155
-0.36532646 -0.0066446643 -0.12675576 4283591097
-0.36441642 -0.0053879046 -0.12598836 4281623222
-0.36327004 -0.0040355334 -0.12485195 4281623977
-0.36189312 -0.0025923431 -0.12335388 4281687975
-0.36076567 -0.0012615077 -0.12223677 4281621662
-0.35894349 0.00035130678 -0.12003582 4281423512
-0.35783827 0.0016580179 -0.11894233 4281422453
-0.35674107 0.002955212 -0.11785683 4281479532
-0.35542399 0.0043352908 -0.11642349 4281418541
-0.35479718 0.0054305238 -0.11606373 4281147693
-0.35394707 0.0066116727 -0.11535217 4281147181
-0.35355031 0.0076093096 -0.11534824 4281346094
-0.35293028 0.0086928885 -0.11499248 4281409592
-0.35275894 0.0095993653 -0.11534055 4282592824
-0.3523643 0.010591812 -0.11533675 4282590780
-0.35219312 0.01149762 -0.11568455 4283510332
-0.3520219 0.012403482 -0.11603237 4283509822
-0.35162824 0.013392675 -0.11602806 4283313982
-0.3512353 0.014380179 -0.11602373 4283312958
-0.35062215 0.015447116 -0.11566854 4284558398
-0.35023111 0.016430248 -0.11566459 4284626500
-0.34962139 0.017490758 -0.11531105 4286460740
-0.34923229 0.018469514 -0.11530749 4286592585
-0.3490622 0.019369323 -0.11565302 4287182921
-0.34911069 0.02019266 -0.11634853 4287184197
-0.34915927 0.02101754 -0.11704528 4286591557
-0.34920791 0.021843983 -0.11774334 4286528588
-0.34925663 0.022671968 -0.11844268 4287449165
-0.34952536 0.023427514 -0.11949767 4287519823
-0.34957448 0.02425931 -0.12020056 4287904591
-0.3491832 0.02523778 -0.12019277 4287971140
-0.34901211 0.026143022 -0.12054036 4287247938
-0.34884101 0.027048318 -0.12088797 4287056703
-0.34866992 0.027953709 -0.1212356 4285937982
-0.3487182 0.028789926 -0.12194017 4285610050
-0.34987074 0.029283226 -0.1244451 4286658371
-0.34969851 0.030194556 -0.12479503 4287052102
-0.35063896 0.030766632 -0.12696365 4286723655
-0.35113794 0.031479664 -0.12841538 4286593603
-0.35163966 0.032196723 -0.12987511 4286986050
-0.35191756 0.032984499 -0.13097087 4287119182
-0.35242373 0.033709116 -0.13244446 4287774036
-0.35270429 0.034503471 -0.13355003 4288101706
-0.35344446 0.035170715 -0.13541628 4287183685
-0.35511842 0.035582904 -0.13883074 4286725190
-0.35634586 0.036131863 -0.14151578 4286658887
-0.35734951 0.036752012 -0.14383718 4286593349
-0.35836264 0.037378088 -0.14618059 4286724164
-0.35914394 0.038074415 -0.14814478 4286790212
-0.35993123 0.038776133 -0.15012398 4286593348
-0.36023629 0.039609585 -0.15130384 4286462020
-0.36054251 0.040446345 -0.15248819 4284231236
-0.36109528 0.041224662 -0.15408795 4281999672
-0.36140463 0.042068671 -0.15528345 4281278251
-0.36171511 0.042916052 -0.15648362 4280557095
-0.36202681 0.043766752 -0.15768841 4280426018
-0.36233971 0.044620819 -0.15889797 4280361252
-0.36265376 0.04547831 -0.16011219 4281085479
-0.362719 0.046396669 -0.16090861 4282269749
-0.3630347 0.047260229 -0.16213039 4282600015
-0.36310044 0.048183162 -0.16293114 4283321425
-0.3634178 0.049052902 -0.16416048 4283452756
-0.36348405 0.049980395 -0.16496566 4283780950
-0.3640562 0.050802808 -0.16663373 4284045404
-0.36437726 0.051683053 -0.16787769 4284834145
-0.36943507 -0.029075252 -0.12016432 4286803359
-0.36925659 -0.028130904 -0.12052695 4283786649
-0.36932731 -0.027311986 -0.12126274 4281950891
-0.36939815 -0.026491426 -0.12199995 4282479287
-0.36971945 -0.025793698 -0.12311456 4282874555
-0.36954021 -0.024845477 -0.12347867 4282347454
-0.36886144 -0.023652123 -0.12309024 4281888196
-0.3679373 -0.022342416 -0.1223292 4281757129
-0.36751154 -0.021278789 -0.12231794 4281624767
-0.36733326 -0.020335652 -0.12268011 4281623219
-0.36617175 -0.018922992 -0.12155148 4281688233
-0.36550561 -0.017751615 -0.12117049 4281688220
-0.36508489 -0.016698962 -0.12116046 4281687966
-0.36539465 -0.0159894 -0.12226216 4281687458
-0.36619583 -0.015504762 -0.1241162 4281752993
-0.36675602 -0.0149025 -0.12560669 4281951649
-0.37058431 -0.015791101 -0.13210376 4282281863
-0.37167951 -0.015411217 -0.13442986 4283594070
-0.37175381 -0.014562308 -0.13519444 4286411116
-0.37029389 -0.013024669 -0.13360047 4285164958
-0.369605 -0.011838147 -0.13318816 4282019722
-0.36891881 -0.01065608 -0.1327775 4282611287
-0.36823514 -0.009478475 -0.1323684 4284314987
-0.36631155 -0.0077654873 -0.13003746 4283722920
-0.36514711 -0.0063913651 -0.128875 4281624990
-0.36374843 -0.0049235695 -0.12734388 4281624704
-0.36140481 -0.0030629009 -0.12433708 4281690761
-0.36004162 -0.0016295064 -0.12284699 4281622704
-0.35822409 -1.4285814e-05 -0.12064212 4281361071
-0.35689053 0.0013894483 -0.1191855 4281359526
-0.35556909 0.0027804438 -0.1177422 4281424292
-0.35448617 0.0040665381 -0.11666706 4281354899
-0.35386157 0.0051613278 -0.11630724 4281093009
-0.35301477 0.0063421456 -0.11559564 4281082231
-0.3526192 0.0073391455 -0.11559159 4281286774
-0.35200137 0.0084222555 -0.11523571 4281344104
-0.35183012 0.0093279565 -0.11558351 4282530917
-0.35165894 0.010233724 -0.11593132 4282524733
-0.3514877 0.011139564 -0.11627918 4283506748
-0.35131645 0.01204547 -0.11662704 4283509540
-0.35092339 0.013035029 -0.11662222 4283244068
-0.35053104 0.01402285 -0.11661739 4283247157
-0.34991911 0.015090488 -0.11626118 4284558389
-0.34952867 0.016073927 -0.11625673 4284626763
-0.34913898 0.017055677 -0.11625234 4286461772
-0.34874994 0.01803573 -0.11624801 4286592586
-0.34857967 0.018936403 -0.11659387 4287117386
-0.34862775 0.019760113 -0.11729085 4287184218
-0.34867588 0.020585386 -0.11798914 4286593116
-0.3487241 0.021412188 -0.11868873 4286528844
-0.34877238 0.022240551 -0.11938955 4287446857
-0.34904048 0.02299604 -0.12044728 4287585373
-0.3488692 0.023902006 -0.12079517 4288038752
-0.34847856 0.024880813 -0.12078688 4288103006
-0.34830743 0.02578607 -0.1211345 4287314526
-0.34791759 0.026762452 -0.12112597 4287122771
-0.34818408 0.027526438 -0.12218697 4285874768
-0.34801278 0.028432706 -0.12253498 4285545032
-0.34938282 0.02885451 -0.12540549 4286658374
-0.34921038 0.029766712 -0.12575579 4287052100
-0.35014945 0.030337369 -0.12793082 4286723908
-0.35064751 0.031049918 -0.12938657 4286593604
-0.35137397 0.031698722 -0.13122204 4286988100
-0.35233337 0.032284856 -0.13344647 4287186060
-0.35284302 0.033010934 -0.1349338 4287842989
-0.35358569 0.033674464 -0.13681044 4288168809
-0.35433391 0.034343004 -0.13870108 4287249222
-0.35508773 0.035016622 -0.1406059 4286725190
-0.35584718 0.035695378 -0.14252509 4286659141
-0.35661238 0.036379334 -0.14445883 4286593349
-0.357622 0.037003666 -0.14680521 4286724420
-0.35840043 0.037698612 -0.14877182 4286790211
-0.35918483 0.038398895 -0.15075347 4286593602
-0.35948846 0.039231688 -0.15193456 4286396475
-0.35979316 0.040067758 -0.15312019 4283903028
-0.36009908 0.040907089 -0.15431044 4281409580
-0.36040619 0.041749727 -0.15550525 4280819236
-0.36071438 0.042595692 -0.15670469 4280032548
-0.36102381 0.04344498 -0.15790886 4280164132
-0.36133444 0.044297632 -0.15911765 4280361771
-0.36139813 0.045212124 -0.15991081 4281283128
-0.36171031 0.046070859 -0.16112709 4282860607
-0.36202374 0.046933003 -0.16234812 4282993486
-0.36208841 0.047854718 -0.16314837 4283256145
-0.36240345 0.048723016 -0.16437697 4283453527
-0.36271968 0.049594756 -0.16561045 4283913561
-0.36328954 0.050416049 -0.16728045 4284243042
-0.36887747 -0.030395012 -0.12042182 4285034663
-0.36845049 -0.029323269 -0.12041215 4283393439
-0.36827213 -0.028379768 -0.12077448 4282672283
-0.36859035 -0.027687727 -0.12188359 4282285236
-0.36866048 -0.026867501 -0.1226214 4282354883
-0.36973208 -0.026546231 -0.12487113 4282415810
-0.37081391 -0.026221836 -0.12714238 4282149569
-0.37038013 -0.025141379 -0.12712634 4281887942
-0.36969519 -0.023939431 -0.12672843 4282150091
-0.36951503 -0.022986444 -0.1270944 4282410428
-0.36983857 -0.022276964 -0.12822637 4282015917
-0.36991045 -0.021443266 -0.12897751 4281622693
-0.37099829 -0.021092361 -0.13127957 4281688475
-0.37107167 -0.020252563 -0.13203803 4281819294
-0.37165728 -0.019651938 -0.13358159 4281818530
-0.37224627 -0.019047748 -0.13513418 4281818018
-0.37335804 -0.018680885 -0.1374931 4282279073
-0.37369531 -0.017948685 -0.13866754 4283134339
-0.37377226 -0.017094016 -0.1394437 4283398218
-0.37332699 -0.016000545 -0.13941568 4283920487
-0.3723636 -0.014675339 -0.13858601 4284246950
-0.37063619 -0.013013675 -0.13657026 4285035660
-0.37019816 -0.011934447 -0.13654537 4284710984
-0.36976102 -0.010857279 -0.13652059 4283856223
-0.36957875 -0.009893137 -0.13689086 4283919269
-0.36838385 -0.0084896991 -0.13568428 4283920540
-0.36694828 -0.0069894139 -0.13409729 4283924092
-0.36429688 -0.004978322 -0.13060473 4284050566
-0.36073878 -0.002599692 -0.12568115 4283589298
-0.35750464 -0.00037992556 -0.12124848 4281492657
-0.35571501 0.0012170194 -0.11906815 4281426859
-0.35462853 0.0025123307 -0.11798523 4281360553
-0.35332456 0.0038907081 -0.11655531 4281359518
-0.35247919 0.0050749704 -0.11584305 4281357723
-0.35186103 0.0061630481 -0.11548642 4281357436
-0.35146719 0.0071584284 -0.11548249 4281747322
-0.35107404 0.00815209 -0.11547861 4281751147
-0.35090297 0.0090570012 -0.11582611 4281548904
-0.35051063 0.010048196 -0.11582195 4281551421
-0.35056072 0.01086702 -0.11652122 4282064700
-0.35061091 0.011687427 -0.11722176 4282064674
-0.35021847 0.012677326 -0.11721644 4281802018
-0.34982675 0.013665511 -0.1172111 4281803828
-0.34921604 0.014733809 -0.11685386 4284034100
-0.34904531 0.015636729 -0.11720062 4284102731
-0.34865564 0.016619803 -0.11719539 4286854988
-0.34892303 0.01736342 -0.11824711 4287052618
-0.34875214 0.018267358 -0.11859424 4286986314
-0.34880051 0.019093465 -0.11929563 4286989659
-0.34884897 0.019921131 -0.11999829 4287183197
-0.34889746 0.020750383 -0.12070222 4287247948
-0.34894603 0.021581175 -0.12140749 4287053129
-0.34899473 0.022413537 -0.12211405 4286987614
-0.34860286 0.023396328 -0.12210458 4287251042
-0.34821171 0.024377402 -0.12209513 4287316065
-0.3478213 0.025356786 -0.12208576 4287642209
-0.34764996 0.02626295 -0.12243377 4287709269
-0.34769729 0.027098374 -0.12314007 4287184722
-0.34752578 0.028005507 -0.12348844 4287052105
-0.34889397 0.028425016 -0.12636769 4286854982
-0.34983242 0.02899001 -0.12854755 4286790212
-0.35033005 0.029699497 -0.13000634 4286789443
-0.351282 0.030274678 -0.13221903 4286790212
-0.3517873 0.03099308 -0.13369881 4288889156
-0.35229537 0.031715553 -0.13518685 4289825432
-0.35257697 0.032509834 -0.13630269 4289032126
-0.35332 0.033172779 -0.13818796 4288628079
-0.35406858 0.033840708 -0.14008734 4287445830
-0.35458925 0.034580249 -0.14161159 4286725189
-0.35511279 0.035324052 -0.14314443 4286790469
-0.35587519 0.036006626 -0.14508054 4286856004
-0.35688126 0.036629234 -0.14742991 4286855748
-0.35765684 0.037322771 -0.14939892 4286921283
-0.35843837 0.038021669 -0.15138301 4286528066
-0.35874051 0.038853746 -0.15256536 4286132024
-0.35904378 0.039689109 -0.15375222 4283376174
-0.35934824 0.040527754 -0.15494373 4280294696
-0.3596538 0.041369695 -0.15613982 4280228641
-0.35971552 0.042275894 -0.15692548 4280098083
-0.36002269 0.043123808 -0.15812889 4280361253
-0.36033103 0.043975051 -0.159337 4280756783
-0.36064056 0.044829648 -0.16054983 4281548095
-0.36070359 0.045745652 -0.1613452 4283057732
-0.36101469 0.046606332 -0.16256553 4283190350
-0.36132702 0.047470465 -0.16379061 4283584337
-0.36164051 0.048338015 -0.16502053 4283782232
-0.36195526 0.049209047 -0.1662553 4284374108
-0.36807176 -0.031585269 -0.12030711 4287460513
-0.3678934 -0.030641863 -0.12066942 4283393950
-0.36746773 -0.029570863 -0.1206596 4281557926
-0.36753654 -0.028754877 -0.12139416 4282155180
-0.36760554 -0.027937261 -0.12213015 4282489538
-0.36792272 -0.027243588 -0.12324293 4282354127
-0.36799228 -0.026422072 -0.12398284 4282216140
-0.36956438 -0.026349416 -0.12700412 4282018506
-0.36938405 -0.025395617 -0.12737043 4281888204
-0.36895239 -0.024317911 -0.12735426 4282280654
-0.36927488 -0.023611031 -0.12848671 4282672063
-0.37035856 -0.023271006 -0.1307842 4282213041
-0.37119663 -0.022803918 -0.13271211 4281623728
-0.37178373 -0.022209628 -0.13426061 4281689774
-0.37237421 -0.02161184 -0.13581815 4281820592
-0.37401146 -0.021504095 -0.13898826 4281820595
-0.37435129 -0.020774689 -0.1401702 4281821615
-0.37469244 -0.020042371 -0.1413568 4282409639
-0.37477079 -0.019184737 -0.14214015 4283330443
-0.37405899 -0.017961934 -0.1417027 4283331926
-0.37361169 -0.016863322 -0.1416724 4283328869
-0.37290418 -0.015648482 -0.14123718 4284051590
-0.37194011 -0.014321652 -0.14040065 4285629049
-0.3704679 -0.01277306 -0.13876927 4285103703
-0.37002873 -0.011690857 -0.13874224 4283787621
-0.36984572 -0.010722939 -0.13911399 4283920525
-0.36864516 -0.0093109021 -0.13789429 4284383620
-0.36720276 -0.0078009027 -0.13629062 4284383332
-0.36478499 -0.0058801854 -0.13315021 4284375921
-0.36001056 -0.0029698194 -0.12629491 4283851437
-0.35724938 -0.00094193575 -0.12258575 4281492398
-0.35522884 0.00075775268 -0.12003141 4281492659
-0.35391617 0.0021503917 -0.11858563 4281360817
-0.35239106 0.0036230532 -0.11679821 4281360553
-0.35154897 0.0048069744 -0.11608598 4281360296
-0.35093302 0.0058945748 -0.11572925 4281425567
-0.35054034 0.0068893386 -0.11572515 4281818270
-0.35014832 0.0078823939 -0.11572108 4281819288
-0.34997734 0.0087865209 -0.11606832 4281425304
-0.3498064 0.0096907141 -0.11641557 4281421974
-0.34963539 0.010594951 -0.11676285 4281944468
-0.34946439 0.011499298 -0.11711018 4281933380
-0.34929338 0.012403672 -0.11745752 4281672772
-0.34890276 0.013391249 -0.11745203 4281672497
-0.34851289 0.0143771 -0.11744659 4283968305
-0.34834215 0.015280064 -0.11779339 4284037188
-0.34795305 0.016263464 -0.11778767 4286921796
-0.34821916 0.017006453 -0.11884049 4287118409
-0.34826705 0.017831394 -0.11954209 4286922313
-0.34853441 0.018579399 -0.12060101 4286924378
-0.34858266 0.019408105 -0.12130616 4287247195
-0.34885129 0.020161122 -0.12237118 4287312973
-0.34889996 0.020993685 -0.12307993 4286985035
-0.34872785 0.021903727 -0.12342945 4286920265
-0.34855577 0.022813836 -0.12377898 4287116361
-0.34816355 0.023798147 -0.12376804 4287184201
-0.34777206 0.024780732 -0.12375715 4287706697
-0.3478196 0.025617063 -0.12446661 4287839304
-0.34742841 0.026598139 -0.12445515 4287445319
-0.34879842 0.027009353 -0.12734582 4287313988
-0.34884721 0.027853262 -0.12806317 4286854211
-0.34956437 0.028487809 -0.12988706 4286724420
-0.35051188 0.029056875 -0.13209717 4286789956
-0.35146818 0.029631251 -0.13432775 4286856014
-0.35197583 0.030350562 -0.13581894 4289296466
-0.35248628 0.031073954 -0.13731846 4290425530
-0.35276926 0.031870048 -0.13844246 4289359343
-0.3532843 0.032601196 -0.1399564 4288757638
-0.35380223 0.033336524 -0.14147885 4287511367
-0.35432306 0.034076054 -0.14300989 4286725190
-0.35461235 0.034886312 -0.14415637 4286856005
-0.35537353 0.035567928 -0.14609814 4286921542
-0.35614046 0.036254767 -0.14805467 4286921288
-0.35691321 0.036946896 -0.1500261 4286921029
-0.35769185 0.037644405 -0.15201262 4286526531
-0.35799253 0.038475793 -0.15319622 4286063924
-0.35829431 0.039310448 -0.15438433 4283112486
-0.35835451 0.040211089 -0.15516528 4279834915
-0.35865784 0.04105163 -0.15636067 4279966240
-0.35896239 0.041895494 -0.15756074 4280098338
-0.35926804 0.042742681 -0.15876542 4280428326
-0.35957485 0.043593232 -0.1599748 4280956978
-0.35963672 0.044506222 -0.16076809 4281680966
-0.35969871 0.045421042 -0.16156295 4283123785
-0.36025476 0.046222769 -0.16320655 4283321682
-0.36056554 0.047086187 -0.16443294 4283781719
-0.36112681 0.047896829 -0.16609301 4284045667
-0.36751464 -0.032903835 -0.12056439 4285953187
-0.36708936 -0.031830829 -0.12055464 4284639386
-0.36691111 -0.030888267 -0.12091666 4282737815
-0.36673284 -0.02994566 -0.1212787 4281888940
-0.36655456 -0.029002998 -0.12164078 4283603126
-0.36662245 -0.028186372 -0.12237633 4284584650
-0.36693749 -0.027493818 -0.12348857 4282873558
-0.36725375 -0.026798531 -0.12460504 4281887697
-0.36782014 -0.026225636 -0.12610526 4282019022
-0.36864048 -0.025774539 -0.12799688 4282150607
-0.36795947 -0.024572462 -0.12759775 4282149583
-0.3682797 -0.023866713 -0.12872964 4282083009
-0.37062797 -0.02414963 -0.13297477 4282083251
-0.37172762 -0.023809124 -0.13531402 4282084788
-0.37257823 -0.023339946 -0.13727649 4282937782
-0.37317449 -0.022741936 -0.13885197 4284057527
-0.37509125 -0.022767173 -0.14246987 4284781497
-0.37543556 -0.022035183 -0.14366685 4285823155
-0.37551495 -0.021175332 -0.14445634 4284708009
-0.37506315 -0.020066099 -0.14442316 4282673803
-0.37487692 -0.019081477 -0.14480136 4282739801
-0.37416208 -0.017853955 -0.14435698 4282936164
-0.37344995 -0.016631175 -0.14391442 4283989117
-0.37274069 -0.015413111 -0.14347361 4286218611
-0.37073964 -0.013618196 -0.14101052 4285231451
-0.37004173 -0.012416499 -0.14057922 4282607974
-0.36883697 -0.010993851 -0.13935031 4283332744
-0.36764142 -0.009582066 -0.13813089 4285431679
-0.36620519 -0.0080721872 -0.13652772 4284705886
-0.36185148 -0.0053092302 -0.13032024 4282146925
-0.35904562 -0.0032384573 -0.12653516 4282081196
-0.35699308 -0.0015060772 -0.12392797 4281623214
-0.35451317 0.00039407372 -0.12063458 4281623220
-0.35297784 0.0018830315 -0.11882778 4281491891
-0.35145921 0.0033558281 -0.11704069 4281426859
-0.35062036 0.0045394502 -0.11632849 4281360810
-0.35000661 0.0056265737 -0.11597172 4281425317
-0.34939504 0.0067098835 -0.11561621 4281885093
-0.34900478 0.0077013201 -0.11561231 4281887136
-0.34883407 0.0086038345 -0.11595895 4281820576
-0.34866339 0.0095064305 -0.11630563 4281822631
-0.34871164 0.010323357 -0.11700412 4281684388
-0.34876001 0.011141807 -0.11770392 4281679434
-0.34836987 0.012130479 -0.11769821 4281673034
-0.34798044 0.013117447 -0.11769259 4281672497
-0.34780967 0.014020344 -0.11803938 4284558129
-0.34763891 0.014923352 -0.11838622 4284626242
-0.34746811 0.015826387 -0.11873308 4286790979
-0.34773353 0.016569301 -0.11978859 4286921545
-0.34821925 0.017235193 -0.12120484 4286463817
-0.34826726 0.018063394 -0.1219112 4286396505
-0.34853557 0.018814642 -0.1229783 4286853467
-0.34858394 0.019646671 -0.12368824 4286919757
-0.3486324 0.020480301 -0.12439948 4286722379
-0.34845996 0.021392044 -0.12474967 4286657861
-0.3478471 0.022454798 -0.12437648 4286656836
-0.34767497 0.023365008 -0.12472606 4286592835
-0.34728351 0.024348916 -0.12471432 4286722883
-0.34755018 0.02511269 -0.12578771 4286789701
-0.34715846 0.026096025 -0.12577502 4286986053
-0.34852925 0.026504826 -0.12867947 4287052099
-0.3485778 0.027349846 -0.1293994 4286788674
-0.34929529 0.027983744 -0.13123153 4286658627
-0.35046893 0.028480602 -0.1338274 4286921028
-0.35142764 0.029053908 -0.13607225 4287053904
-0.35193655 0.029773643 -0.13757248 4291201622
-0.35221848 0.030567292 -0.13869698 4292975045
-0.35273197 0.031294767 -0.14021163 4289353983
-0.35301667 0.032095086 -0.1413464 4287446156
-0.35353482 0.032830387 -0.14287564 4286986823
-0.35382229 0.033637531 -0.14402078 4286724934
-0.3541109 0.034447752 -0.14517024 4286790213
-0.35487086 0.035128359 -0.14711773 4286856007
-0.3556366 0.0358142 -0.14908002 4286789961
-0.35616949 0.036570989 -0.1506533 4286789446
-0.35670546 0.037332159 -0.15223566 4284886851
-0.3570039 0.038162213 -0.15341854 4283179060
-0.3573035 0.038995493 -0.15460604 4281538594
-0.35760424 0.039832044 -0.15579808 4279769121
-0.3579061 0.040671907 -0.15699473 4279966495
-0.35820913 0.041515056 -0.15819605 4280230178
-0.3585133 0.042361543 -0.15940201 4280954663
-0.35881862 0.043211374 -0.16061266 4282072883
-0.35887975 0.044124041 -0.16140662 4282468170
-0.35918665 0.044979915 -0.16262472 4283255629
-0.35949472 0.045839153 -0.16384764 4283519317
-0.36005175 0.046644554 -0.16550279 4284241499
-0.36677912 -0.033279087 -0.12118401 4283787937
-0.36660066 -0.032335717 -0.12154638 4282148000
-0.36642218 -0.031392273 -0.1219088 4282083744
-0.36599788 -0.030320492 -0.12189786 4282089160
-0.36581954 -0.029377813 -0.12225997 4284648669
-0.36613274 -0.028688194 -0.12337092 4286020565
-0.36620036 -0.027869605 -0.1241096 4283264464
-0.36602148 -0.026924018 -0.12447282 4281625550
-0.36683109 -0.026477745 -0.12634923 4282085580
-0.36714825 -0.025777739 -0.1274755 4282347972
-0.36771646 -0.025199573 -0.12898977 4282084030
-0.36803681 -0.02449365 -0.13012651 4281821370
-0.37115616 -0.02516146 -0.13557795 4282084278
-0.37200457 -0.024697544 -0.13754144 4282282940
-0.37312055 -0.02435665 -0.13992362 4283599812
-0.37372124 -0.023758667 -0.14151466 4285051348
-0.3759186 -0.023919754 -0.14558521 4286170087
-0.37626654 -0.023185682 -0.14679551 4287605215
-0.3760792 -0.022195308 -0.14717594 4285627860
-0.3761597 -0.021330394 -0.14797369 4282411708
-0.3757045 -0.020214312 -0.14793688 4282542993
-0.3747178 -0.018854378 -0.14706814 4282806912
-0.37373695 -0.017502451 -0.14620459 4283923039
-0.37328717 -0.01639756 -0.14616981 4286411888
-0.37257606 -0.015176304 -0.14572334 4285230487
-0.37057024 -0.013377622 -0.14323778 4282215055
-0.37012789 -0.012287344 -0.14320634 4283069818
-0.36866292 -0.010746833 -0.14155994 4285688960
-0.36645743 -0.0088902488 -0.13873681 4284770197
-0.3635473 -0.0067406637 -0.13478804 4281557661
-0.35926437 -0.00401692 -0.12864904 4281556660
-0.3567358 -0.002072338 -0.12527521 4281688498
-0.35379744 3.0389358e-05 -0.12123781 4281688743
-0.35226598 0.0015213552 -0.11942774 4281492137
-0.35075119 0.0029961546 -0.11763745 4281492656
-0.34969336 0.0042723608 -0.11657064 4281360559
-0.34908181 0.0053590434 -0.11621376 4281425578
-0.34847245 0.0064418535 -0.11585823 4281887915
-0.34808329 0.0074326661 -0.11585408 4281887926
-0.34791273 0.0083344113 -0.11620046 4281887416
-0.34774214 0.0092362119 -0.11654685 4281890011
-0.34778953 0.010052184 -0.11724503 4281623512
-0.34761876 0.010954933 -0.11759179 4281615748
-0.34744799 0.011857765 -0.11793859 4281676420
-0.3470597 0.012844086 -0.11793272 4281672494
-0.34688905 0.013746242 -0.11827926 4284688686
-0.34671837 0.014648413 -0.11862582 4284757314
-0.34676477 0.015469656 -0.119326 4286723907
-0.34702888 0.016211972 -0.12038262 4286855750
-0.34817117 0.016635694 -0.12287668 4286330695
-0.34843978 0.017385639 -0.12394749 4286264389
-0.34870934 0.01813839 -0.12502226 4286787397
-0.34853658 0.019051671 -0.12537307 4286854212
-0.34858507 0.019887084 -0.12608783 4286657860
-0.34819105 0.020878457 -0.12607478 4286592321
-0.34779766 0.021868085 -0.12606174 4286460225
-0.34740502 0.022855995 -0.12604877 4286461504
-0.34723252 0.023767948 -0.12639907 4286461248
-0.34727967 0.024606459 -0.12711361 4286462020
-0.34688747 0.025592072 -0.12709977 4286854982
-0.348259 0.025998404 -0.13001806 4286986820
-0.34808534 0.026916487 -0.13037069 4286723651
-0.34880164 0.027549405 -0.13220815 4286658629
-0.35042569 0.027901059 -0.13556728 4286986566
-0.35138682 0.028473321 -0.13782652 4287119952
-0.35166767 0.02926451 -0.1389515 4291586132
-0.35217962 0.029988294 -0.14046687 4293950584
-0.35246328 0.030786131 -0.14160211 4289549195
-0.35297981 0.031517722 -0.14313212 4286921571
-0.35326624 0.032322332 -0.14427774 4286790216
-0.3535538 0.033130061 -0.1454277 4286724934
-0.35360843 0.03400832 -0.14618613 4286790469
-0.35413206 0.034754839 -0.14774078 4286790469
-0.35465869 0.035505701 -0.14930433 4286724421
-0.35518825 0.036260895 -0.15087681 4286723644
-0.3559595 0.036955182 -0.15286477 4284099124
-0.35625648 0.037784524 -0.1540489 4281408042
-0.35655463 0.038617138 -0.15523763 4280686366
-0.35685387 0.039453004 -0.15643094 4279703839
-0.35715428 0.040292148 -0.15762883 4279966495
-0.35745582 0.0411346 -0.15883143 4280296231
-0.35775849 0.041980386 -0.16003865 4281284149
-0.35806233 0.042829514 -0.16125058 4282926654
-0.35812268 0.04374183 -0.1620452 4283059022
-0.35842806 0.044596963 -0.16326459 4283387731
-0.35898086 0.045397129 -0.16491482 4283783006
-0.36628962 -0.033785902 -0.12217735 4282934174
-0.36611098 -0.032841593 -0.1225401 4282082470
-0.36593229 -0.031897239 -0.1229029 4282871977
-0.36526281 -0.030695371 -0.12251709 4283338471
-0.36508447 -0.029752644 -0.12287924 4283925503
-0.36515093 -0.028936638 -0.12361605 4284051422
-0.36497238 -0.027992876 -0.12397859 4282542540
-0.36479384 -0.027049061 -0.12434115 4281625803
-0.3651053 -0.026354143 -0.12545724 4281889995
-0.36615884 -0.026030503 -0.12771849 4282085822
-0.36697277 -0.02557851 -0.12961636 4281952435
-0.36829615 -0.025373686 -0.13230623 4281886901
-0.37117279 -0.02592748 -0.13740708 4282150327
-0.37228358 -0.025592938 -0.13978632 4282414786
-0.37340531 -0.025255043 -0.14218888 4283996877
-0.37427336 -0.024785407 -0.14420365 4285842659
-0.37594959 -0.024697892 -0.14748231 4287290367
-0.37629861 -0.023963174 -0.14870004 4289248503
-0.37637952 -0.023097478 -0.14950168 4286740715
-0.37592271 -0.02197637 -0.14946328 4283133907
-0.37546679 -0.020857388 -0.14942496 4283003562
-0.37474501 -0.01961658 -0.14896803 4282740875
-0.37349665 -0.0181363 -0.14768049 4283068753
-0.37278304 -0.016908024 -0.14722976 4283789166
-0.37207219 -0.015684508 -0.14678079 4283329199
-0.37110379 -0.014348227 -0.14592242 4282214302
-0.36988303 -0.012904102 -0.14466074 4282411892
-0.36816147 -0.01124426 -0.14260012 4283065730
-0.36595771 -0.0093820207 -0.13976635 4282738858
-0.36304995 -0.0072252247 -0.13580304 4281492653
-0.35924634 -0.0046976777 -0.13039924 4281557687
-0.35601205 -0.0024401485 -0.12588517 4281623219
-0.35330889 -0.00043050243 -0.12220415 4281623715
-0.35132989 0.00125477 -0.11966903 4281623205
-0.34960034 0.0028227721 -0.11752456 4281623218
-0.348768 0.0040057539 -0.11681241 4281426097
-0.34815857 0.0050919512 -0.11645544 4281492395
-0.34733385 0.0062636021 -0.11574943 4282216109
-0.34716341 0.0071644871 -0.11609551 4282211516
-0.3467761 0.0081529608 -0.11609126 4281953471
-0.3468225 0.008966459 -0.11678775 4282023913
-0.34665203 0.0098675461 -0.11713389 4283263206
-0.34669831 0.010683453 -0.11783201 4283191956
-0.34631103 0.011669929 -0.11782628 4281480596
-0.34635699 0.012487567 -0.11852507 4281475629
-0.34618634 0.013389739 -0.11887163 4284623149
-0.34623224 0.014209811 -0.11957204 4284691522
-0.34671295 0.014868017 -0.12098518 4286854467
-0.34719631 0.015529865 -0.12240601 4286986822
-0.34768227 0.016195379 -0.1238346 4286657606
-0.34795019 0.01694525 -0.12490816 4286592575
-0.34821904 0.017697895 -0.12598568 4286459710
-0.34826729 0.018532788 -0.12670168 4286460225
-0.34831563 0.019369263 -0.12741901 4286264641
-0.34814233 0.02028523 -0.12777089 4286264640
-0.34774792 0.021278152 -0.12775631 4286329408
-0.34757474 0.022193382 -0.12810792 4286330431
-0.34740159 0.023108704 -0.12845954 4286592319
-0.34744903 0.023949694 -0.1291786 4286658628
-0.34705523 0.024939522 -0.12916283 4286723910
-0.34821007 0.025416724 -0.13173302 4286724677
-0.3482585 0.026264684 -0.13245913 4286723908
-0.34875396 0.026969939 -0.13393559 4286724166
-0.35015529 0.027390728 -0.13693619 4286855239
-0.35088852 0.028033815 -0.13882206 4286922319
-0.35139778 0.028753428 -0.14033569 4289156947
-0.35190988 0.029477164 -0.14185785 4290271573
-0.3521935 0.030275585 -0.14299786 4288169302
-0.35247821 0.031077065 -0.14414217 4286790477
-0.35276395 0.031881638 -0.14529082 4286659144
-0.35305077 0.032689307 -0.14644384 4286659398
-0.35310498 0.033567991 -0.14720397 4286724677
-0.35362762 0.034314025 -0.148763 4286724932
-0.35415325 0.035064381 -0.15033099 4286396483
-0.35468185 0.035819083 -0.15190794 4286066230
-0.35521346 0.03657816 -0.15349396 4283440937
-0.35550901 0.037406798 -0.15467933 4280424227
-0.3558057 0.038238738 -0.15586931 4280162076
-0.35610345 0.039073888 -0.15706386 4279835165
-0.35664374 0.039849229 -0.15867861 4280163871
-0.35670245 0.040754095 -0.15946686 4280690988
-0.35700363 0.041599173 -0.16067536 4281614401
-0.35730594 0.042447582 -0.16188855 4283387462
-0.35736555 0.043359578 -0.16268381 4283519314
-0.35791412 0.044154532 -0.16432917 4283913560
-0.36640352 -0.036318135 -0.12282136 4283857059
-0.365978 -0.035238881 -0.12280951 4282803361
-0.36579913 -0.034293737 -0.12317263 4282147233
-0.36562029 -0.03334849 -0.12353576 4281952172
-0.36519584 -0.032272868 -0.12352331 4284057007
-0.36452773 -0.031070273 -0.12313637 4284720595
-0.36410546 -0.029999683 -0.12312436 4282942175
-0.36392722 -0.029057756 -0.12348624 4282082764
-0.363749 -0.028115759 -0.12384813 4281755330
-0.36308542 -0.026924085 -0.12346176 4281560512
-0.36339244 -0.026231544 -0.12457202 4281757887
-0.36418897 -0.025784198 -0.12644182 4281887674
-0.36499152 -0.025333392 -0.12832583 4281952440
-0.3670463 -0.02550341 -0.13215789 4281952954
-0.37067327 -0.026441108 -0.13844472 4282216379
-0.37178269 -0.026108723 -0.14083137 4282481093
-0.37290299 -0.025772996 -0.14324149 4284323024
-0.37403432 -0.025433889 -0.14567536 4286366182
-0.37571225 -0.025350709 -0.14897087 4288076287
-0.37606138 -0.024615765 -0.15019399 4290228207
-0.37587306 -0.023620399 -0.15057638 4287527897
-0.37568471 -0.022624943 -0.15095882 4283529938
-0.37522805 -0.021503069 -0.15091895 4283267015
-0.37450531 -0.020258477 -0.15045822 4282741430
-0.3732554 -0.018772703 -0.14916232 4282609306
-0.37254077 -0.017540729 -0.14870778 4282412965
-0.37156722 -0.016193749 -0.14784037 4282346172
-0.37059936 -0.014854643 -0.14697808 4282214837
-0.369122 -0.013291092 -0.14530209 4282149029
-0.36715114 -0.011515487 -0.14283398 4281886888
-0.36445946 -0.0094319386 -0.13920745 4281821875
-0.36109042 -0.0070669567 -0.13448644 4281493429
-0.35756746 -0.0046563675 -0.12950303 4281492668
-0.35528827 -0.0028079953 -0.1264952 4281624250
-0.35259238 -0.000794616 -0.12280804 4281623987
-0.35061857 0.00089335634 -0.12026855 4281689011
-0.34867331 0.0025569233 -0.11776589 4281688497
-0.34784418 0.0037395658 -0.11705378 4281427121
-0.34658575 0.005096586 -0.11564499 4281492652
-0.3461993 0.0060859406 -0.11564111 4282343596
-0.3460291 0.0069852513 -0.11598662 4282341289
-0.34607479 0.007796926 -0.11668241 4282019500
-0.34590447 0.0086971652 -0.11702825 4282156514
-0.34595001 0.009511251 -0.11772565 4283927520
-0.34577951 0.010412425 -0.11807187 4283848877
-0.34539336 0.011398271 -0.11806597 4281419949
-0.34543842 0.012214976 -0.11876437 4281410112
-0.34526786 0.013116354 -0.11911065 4284558400
-0.34552878 0.013852999 -0.12016504 4284691530
-0.34579062 0.014592372 -0.12122321 4286925386
-0.34648898 0.015171177 -0.1230023 4287052614
-0.346973 0.015835753 -0.12443256 4286723142
-0.34745961 0.016504006 -0.12587067 4286723902
-0.34794891 0.017176017 -0.12731667 4286328893
-0.34799695 0.018011967 -0.12803525 4286263359
-0.34804511 0.018849544 -0.12875514 4286132544
-0.34809327 0.019688698 -0.12947638 4286133311
-0.34791949 0.020607252 -0.12982927 4286263871
-0.34774566 0.021525891 -0.13018218 4286264897
-0.34757182 0.02244457 -0.13053514 4286592577
-0.34784159 0.023212673 -0.13163011 4286723907
-0.34744558 0.024207752 -0.13161211 4286658372
-0.34816074 0.024831783 -0.13345751 4286593605
-0.34820926 0.025681563 -0.13418727 4286723909
-0.34870592 0.026387202 -0.13567263 4286789700
-0.34988382 0.026878444 -0.13831018 4286789699
-0.35061741 0.027520886 -0.1402048 4286790732
-0.35112676 0.028240414 -0.14172515 4287842127
-0.35140866 0.02903573 -0.14286385 4288365648
-0.35192266 0.029763058 -0.14439888 4287314768
-0.35220733 0.030565122 -0.14554805 4286659146
-0.35249308 0.031370297 -0.14670156 4286593606
-0.35254675 0.032247692 -0.14746194 4286593605
-0.35283393 0.033058453 -0.14862236 4286658884
-0.35312214 0.033872366 -0.14978722 4286724676
-0.35364679 0.034622196 -0.15135965 4286198339
-0.35417444 0.035376363 -0.15294108 4285604147
-0.35446739 0.036201112 -0.15412317 4282783779
-0.35476148 0.03702908 -0.1553098 4279637536
-0.35505667 0.037860271 -0.15650102 4279769371
-0.35559288 0.038630582 -0.15811107 4279901470
-0.35613215 0.039405435 -0.15973043 4280296738
-0.35594898 0.040373564 -0.16010237 4281022256
-0.35624868 0.041217931 -0.16131213 4282010182
-0.3565495 0.04206565 -0.16252659 4283848012
-0.35685155 0.042916719 -0.16374581 4284045658
-0.36566573 -0.036694624 -0.12344284 4283393438
-0.36548671 -0.035748616 -0.12380631 4282540453
-0.365062 -0.034669805 -0.12379359 4282016934
-0.36439347 -0.033461645 -0.12340575 4281887668
-0.36372745 -0.032257989 -0.1230194 4283802808
-0.3635492 -0.03131615 -0.12338126 4284390327
-0.36288598 -0.030118654 -0.12299573 4282478006
-0.36246645 -0.029051874 -0.12298395 4281688246
-0.36204767 -0.027987055 -0.12297226 4281623990
-0.36138973 -0.026800077 -0.12258902 4281559219
-0.36193305 -0.026233535 -0.12406681 4281690289
-0.36272183 -0.025787452 -0.12592946 4281755832
-0.36351648 -0.025337897 -0.12780623 4281887421
-0.36629957 -0.025883861 -0.13278703 4281953470
-0.36991563 -0.026827086 -0.13908307 4282216895
-0.37128076 -0.026625557 -0.14187855 4282481353
-0.37239966 -0.026292015 -0.14429618 4283928274
-0.37352955 -0.025955105 -0.14673775 4285379815
-0.37467071 -0.025614785 -0.14920358 4287351807
-0.3747499 -0.024751626 -0.150005 4289969897
-0.37482917 -0.023886664 -0.15080802 4287864012
-0.374641 -0.022892179 -0.15119012 4284777682
-0.37445277 -0.021897605 -0.15157223 4284121562
-0.37373155 -0.02065221 -0.15111025 4282873811
-0.37274864 -0.019288117 -0.15023054 4282675910
-0.37203425 -0.018053904 -0.14977349 4282282437
-0.37106121 -0.016704049 -0.14890213 4282215875
-0.36983454 -0.015243627 -0.1476226 4282084803
-0.36836088 -0.013678162 -0.14594351 4282018754
-0.36315107 -0.010439618 -0.13828377 4281887168
-0.36004812 -0.0081764292 -0.13397263 4281821624
-0.35725018 -0.0060683438 -0.13013589 4281625017
-0.3549715 -0.0042064716 -0.12712002 4281624254
-0.35227633 -0.002177143 -0.12342317 4281625021
-0.35030299 -0.00047761659 -0.12087689 4281624251
-0.34813857 0.0012917327 -0.11801291 4281558201
-0.34709293 0.0025706443 -0.11694773 4281557937
-0.34648764 0.0036574658 -0.11659124 4281624241
-0.34566882 0.0048308722 -0.11588619 4281756077
-0.34528348 0.0058196019 -0.11588218 4282866604
-0.34489882 0.0068066316 -0.11587813 4282801312
-0.34494337 0.0076166997 -0.11657265 4282019748
-0.34498799 0.0084283166 -0.11726838 4282221535
-0.34481773 0.0093278335 -0.11761399 4285504478
-0.34486225 0.010141848 -0.11831136 4285358776
-0.34447724 0.0111271 -0.11830527 4281487800
-0.34452143 0.01194284 -0.1190033 4281479753
-0.34435099 0.012843439 -0.11934933 4284231241
-0.34460998 0.013578952 -0.1204032 4284299853
-0.34508583 0.014234927 -0.12181737 4286796877
-0.34578159 0.014812448 -0.12359864 4286986566
-0.3464824 0.015394234 -0.12539287 4286395206
-0.34696811 0.016061949 -0.12683493 4286330686
-0.34767774 0.016652163 -0.12865257 4286394685
-0.34772557 0.017489212 -0.12937371 4286394943
-0.34799567 0.018247899 -0.13046646 4286066495
-0.34804392 0.019088853 -0.13119133 4286002238
-0.34809229 0.019931423 -0.13191752 4286132798
-0.34814066 0.020775592 -0.13264506 4286133825
-0.34796599 0.021698548 -0.13299967 4286527042
-0.34801432 0.022545263 -0.13372897 4286593347
-0.34761658 0.023544658 -0.13370897 4286658371
-0.34811115 0.024243608 -0.13519162 4286658885
-0.34838387 0.025020922 -0.13630344 4286723909
-0.34843272 0.025874905 -0.13703923 4286724162
-0.34961125 0.026364246 -0.13968937 4286658625
-0.35034513 0.027005972 -0.14159273 4286659657
-0.35085469 0.027725458 -0.14311984 4287511629
-0.3511366 0.028521312 -0.14426336 4287970892
-0.35141948 0.029320244 -0.14541116 4287183436
-0.35170346 0.030122276 -0.14656335 4286724679
-0.35198852 0.030927358 -0.1477199 4286593604
-0.35204166 0.031805206 -0.14848198 4286462532
-0.35232812 0.032615937 -0.14964551 4286658628
-0.35285002 0.033361435 -0.15121605 4286789187
-0.35313934 0.034179095 -0.15239033 4284885571
-0.35342973 0.034999941 -0.15356913 4283112242
-0.35395819 0.03575749 -0.1551615 4281472542
-0.35425156 0.036585413 -0.15635131 4279637532
-0.35454601 0.0374166 -0.15754567 4279835162
-0.35508123 0.038186423 -0.15916032 4280099103
-0.35537869 0.039024837 -0.16036594 4280758310
-0.35543612 0.039929837 -0.16115662 4281746227
-0.35573509 0.0407742 -0.16236967 4282536012
-0.3560352 0.041621901 -0.16358741 4284243028
-0.36553213 -0.039099943 -0.12371365 4285699500
-0.36535293 -0.038153172 -0.12407744 4285360801
-0.36492789 -0.037071142 -0.12406438 4282409632
-0.36450368 -0.035991162 -0.12405143 4281950885
-0.36383617 -0.034780521 -0.12366311 4281819814
-0.36317119 -0.033574421 -0.12327629 4281758132
-0.36226726 -0.032243203 -0.12251839 4283339448
-0.36160833 -0.03104737 -0.12213559 4283788722
-0.36095181 -0.029855927 -0.12175422 4281884336
-0.36053598 -0.028794387 -0.12174373 4281163696
-0.36012092 -0.027734738 -0.12173327 4281492143
-0.36042038 -0.027048266 -0.12283304 4281622704
-0.36120042 -0.026606938 -0.12468406 4281558192
-0.36295742 -0.026660904 -0.12806444 4281559225
-0.36598343 -0.027349316 -0.13343799 4281821888
-0.36934188 -0.028184861 -0.13934807 4281953473
-0.37070361 -0.02799134 -0.14214511 4282216899
-0.37208137 -0.027795479 -0.14497517 4282481098
-0.37294665 -0.027334465 -0.14700699 4283468241
-0.37381881 -0.026869718 -0.14905491 4284393703
-0.37389705 -0.026008694 -0.14985546 4286892799
-0.37397546 -0.025145877 -0.15065756 4289780211
-0.3737874 -0.024152437 -0.1510393 4288203750
-0.37386569 -0.023286756 -0.15184341 4285901028
-0.37314561 -0.022038661 -0.15138091 4284844515
-0.37216443 -0.020670526 -0.1505004 4283006172
-0.3714512 -0.019433582 -0.15004282 4282742224
-0.37074071 -0.018201437 -0.14958709 4282217166
-0.36925539 -0.016613934 -0.14789011 4282150858
-0.36778453 -0.01504181 -0.14620975 4281953993
-0.3650685 -0.012910188 -0.14252612 4281953732
-0.36166936 -0.010486339 -0.1377324 4281887427
-0.35979086 -0.0087679317 -0.13536842 4281821632
-0.35699031 -0.0066497559 -0.13151015 4281690815
-0.35494143 -0.0048821964 -0.12885144 4281689789
-0.35223907 -0.0028403634 -0.12512687 4281625278
-0.35026056 -0.001131274 -0.12256117 4281624510
-0.34743226 0.00093285582 -0.11860822 4281492925
-0.34638911 0.0022131065 -0.11754093 4281492408
-0.34556907 0.0033925038 -0.11683208 4281690041
-0.34475344 0.0045655817 -0.11612705 4281888711
-0.34436923 0.0055536963 -0.11612279 4283196869
-0.34398571 0.0065401099 -0.11611863 4283064494
-0.34402937 0.0073492704 -0.11681272 4282020017
-0.3438594 0.008247138 -0.11715771 4282286813
-0.34390301 0.0090586757 -0.11785347 4286492380
-0.34373286 0.0099574849 -0.11819883 4286343359
-0.34334949 0.010941152 -0.11819286 4281489855
-0.343606 0.011671164 -0.11924184 4281482096
-0.34343567 0.012570971 -0.11958759 4284034416
-0.34369278 0.013305372 -0.12064099 4284104014
-0.34416565 0.013960024 -0.12205455 4286726220
-0.34507415 0.01445369 -0.12419505 4286920515
-0.34555423 0.015116365 -0.12562864 4286198338
-0.34625605 0.015700947 -0.12743522 4286134079
-0.34696305 0.016289888 -0.1292551 4286394687
-0.34745312 0.016964499 -0.13071716 4286460735
-0.34750089 0.017804246 -0.13144225 4286001472
-0.34777123 0.018565703 -0.13254188 4285936447
-0.34781939 0.019409342 -0.13327071 4286067775
-0.34809104 0.020176008 -0.13437681 4286068288
-0.34791589 0.021101546 -0.13473243 4286395712
-0.34796423 0.021950088 -0.13546538 4286527810
-0.34778887 0.022876609 -0.13582139 4286658883
-0.34783712 0.023727719 -0.1365561 4286724420
-0.34810978 0.024505567 -0.1376725 4286658372
-0.34815848 0.025360668 -0.138411 4286658627
-0.34933764 0.025848089 -0.14107379 4286593090
-0.35007185 0.026489107 -0.1429859 4286594125
-0.35035196 0.027281879 -0.14412808 4287316307
-0.35086337 0.028004954 -0.14566816 4287709262
-0.35114628 0.028804429 -0.14682084 4287117899
-0.35143027 0.029607013 -0.1479779 4286724423
-0.35148287 0.030483576 -0.14874023 4286528068
-0.35153559 0.031361889 -0.14950405 4286396995
-0.3518213 0.032172553 -0.15067063 4286593091
-0.35210815 0.032986358 -0.1518417 4286788411
-0.35239601 0.033803351 -0.15301719 4283573557
-0.35292047 0.034555979 -0.15460497 4280293417
-0.35321128 0.035379983 -0.15579143 4280030493
-0.35350317 0.036207248 -0.15698251 4279637789
-0.3540343 0.036972038 -0.15859242 4279901212
-0.35456854 0.037741337 -0.16021167 4280362532
-0.35486522 0.038579743 -0.16142049 4281218610
-0.35492221 0.039485227 -0.16221307 4282861629
-0.35522044 0.040329568 -0.16342932 4283455315
-0.3647936 -0.039476942 -0.12433573 4285165485
-0.36461434 -0.038530108 -0.12469959 4284770216
-0.36418998 -0.037447743 -0.12468598 4282280103
-0.3632789 -0.03609943 -0.12392049 4281885349
-0.36261493 -0.034890886 -0.1235332 4281753253
-0.36171255 -0.033555999 -0.12277457 4281757108
-0.36081523 -0.032228537 -0.12202027 4282867895
-0.35992292 -0.030908482 -0.12127019 4283129002
-0.35927194 -0.029721707 -0.12089192 4281818277
-0.35885924 -0.028664231 -0.12088231 4281359780
-0.3586829 -0.027732663 -0.12124027 4281490596
-0.35921553 -0.027171904 -0.12270603 4281556651
-0.36022842 -0.026855998 -0.12492691 4281623726
-0.36270604 -0.027288595 -0.12944967 4281624764
-0.3657347 -0.027986189 -0.13485089 4281821892
-0.36858413 -0.028570933 -0.13998652 4281953478
-0.36994138 -0.028379623 -0.14278732 4282216648
-0.37105364 -0.028054705 -0.14520951 4282415052
-0.37165159 -0.027464032 -0.14682573 4283270096
-0.37198991 -0.026739156 -0.14803505 4284063464
-0.37206602 -0.025881363 -0.1488314 4286696447
-0.37214226 -0.025021806 -0.14962941 4289718783
-0.37221861 -0.02416048 -0.15042901 4289260543
-0.37229508 -0.023297379 -0.15123017 4288663543
-0.37184352 -0.022179179 -0.15119036 4286617580
-0.37139282 -0.021063136 -0.15115063 4283466213
-0.37068108 -0.019825399 -0.15069178 4283070424
-0.36997208 -0.018592462 -0.15023482 4282282966
-0.36874846 -0.017123211 -0.14894891 4282216657
-0.36727861 -0.015547032 -0.14726172 4282085069
-0.36431462 -0.013293558 -0.14316146 4282019269
-0.36043847 -0.010643319 -0.13757537 4281887685
-0.35785574 -0.0086032916 -0.1340602 4281821638
-0.35672933 -0.0072333403 -0.13288957 4281756612
-0.35467854 -0.0054581286 -0.13021569 4281755581
-0.35197383 -0.0034066525 -0.12647039 4281756350
-0.35021782 -0.00178856 -0.12425477 4281690048
-0.3469443 0.00047895371 -0.1195593 4281624255
-0.34590197 0.0017620142 -0.11848765 4281624252
-0.34508243 0.0029437121 -0.11777561 4281952960
-0.34426731 0.0041190875 -0.11706746 4282024665
-0.34366968 0.0051984703 -0.11671243 4282674390
-0.34328678 0.0061852182 -0.11670777 4282607543
-0.34332976 0.0069940658 -0.11740243 4282151353
-0.34315977 0.0078919763 -0.11774747 4282417883
-0.34298977 0.0087899407 -0.11809252 4286495706
-0.34260741 0.0097737452 -0.11808673 4286343363
-0.34243754 0.010671035 -0.11843155 4281622211
-0.34247971 0.011484237 -0.11912787 4281616266
-0.34230965 0.012382476 -0.11947303 4283706762
-0.34256425 0.01311523 -0.12052439 4283775822
-0.3426066 0.013933034 -0.12122457 4286395212
-0.34329021 0.014506933 -0.12299571 4286592576
-0.34397876 0.015085034 -0.12477972 4286132543
-0.34488964 0.015585771 -0.12694044 4286068288
-0.34558964 0.016172728 -0.12875356 4286394944
-0.34629476 0.016763994 -0.13057999 4286395968
-0.34656215 0.017521404 -0.13167503 4286198336
-0.34683055 0.018281674 -0.13277417 4286133568
-0.3470999 0.019044818 -0.13387732 4286133568
-0.34737021 0.019810831 -0.13498457 4286134078
-0.34741807 0.020658145 -0.13571776 4286526782
-0.34746599 0.021507083 -0.13645235 4286658882
-0.34751394 0.022357682 -0.13718827 4286659139
-0.34778625 0.023133652 -0.13830695 4286659140
-0.34783465 0.023988239 -0.1390467 4286592836
-0.34810826 0.02476955 -0.14017199 4286593091
-0.3492904 0.02525503 -0.14285216 4286592835
-0.34956881 0.026044723 -0.14399302 4286595665
-0.34984821 0.026837418 -0.14513823 4287646041
-0.35035864 0.027559949 -0.14668268 4288233807
-0.35064083 0.028359385 -0.14783838 4287248713
-0.35092407 0.02916191 -0.14899847 4286658886
-0.35097623 0.030038923 -0.14976254 4286462276
-0.3510285 0.030917648 -0.1505281 4286331203
-0.35131353 0.031728297 -0.15169778 4285871938
-0.35159957 0.032542069 -0.15287191 4285476146
-0.35188672 0.033358995 -0.15405057 4282916386
-0.35217497 0.03417914 -0.15523373 4280030495
-0.35246426 0.035002463 -0.15642144 4279899419
-0.35299143 0.035762314 -0.1580267 4279703581
-0.35328367 0.03659277 -0.15922552 4280098592
-0.35381567 0.037361015 -0.16084665 4280691502
-0.35435075 0.038133759 -0.16247718 4281548357
-0.35440725 0.039039705 -0.16327155 4283256654
-0.36405501 -0.039853953 -0.1249579 4282280877
-0.36387569 -0.0389071 -0.12532179 4282084009
-0.36320809 -0.037688766 -0.12493034 4281755817
-0.36205867 -0.036207352 -0.12379009 4281687717
-0.36115783 -0.034868792 -0.12303075 4281688484
-0.36026204 -0.033537693 -0.12227576 4281688750
-0.35913432 -0.032085441 -0.12115613 4281426096
-0.35848546 -0.030897619 -0.12077845 4281358503
-0.35783896 -0.029714182 -0.12040214 4281686692
-0.35742867 -0.028659591 -0.12039307 4281817761
-0.35725278 -0.027730612 -0.12075007 4281556127
-0.35777992 -0.027171405 -0.12221042 4281426091
-0.35878319 -0.026856363 -0.12442275 4281623985
-0.36148074 -0.027413411 -0.12930854 4281755836
-0.36523503 -0.028496547 -0.13587521 4281821891
-0.36757174 -0.02882647 -0.14022291 4281887941
-0.3689217 -0.028636839 -0.14302242 4282151367
-0.37002781 -0.02831349 -0.14544342 4282349259
-0.37062216 -0.027724124 -0.14705883 4283007183
-0.37069663 -0.026869886 -0.14785187 4283601893
-0.37051004 -0.025884356 -0.1482306 4286430715
-0.37058446 -0.025027322 -0.14902566 4289588989
-0.37065902 -0.02416851 -0.14982235 4290706175
-0.37073371 -0.023307962 -0.15062061 4292140538
-0.37080857 -0.022445628 -0.1514205 4288850164
-0.37035927 -0.021330371 -0.1513806 4283992043
-0.36991087 -0.020217253 -0.15134081 4283398620
-0.36920339 -0.018983526 -0.1508826 4282348760
-0.36798275 -0.017512692 -0.14959419 4282282191
-0.36651656 -0.015934603 -0.1479039 4282150605
-0.36356065 -0.013676953 -0.14379685 4282084552
-0.35969526 -0.011021202 -0.13820173 4281887945
-0.35688245 -0.0088697104 -0.13429596 4281887435
-0.35482475 -0.0070772744 -0.13160405 4281756873
-0.35348803 -0.0056208945 -0.13007633 4281755844
-0.35102651 -0.0036721174 -0.12670827 4281822403
-0.34905502 -0.0019553178 -0.12412873 4281821375
-0.34601945 0.00021504935 -0.11979897 4281690814
-0.34519741 0.0014040971 -0.11908147 4281756345
-0.34416503 0.0026792982 -0.11801548 4282152381
-0.34356648 0.0037631481 -0.11765816 4282160096
-0.34297007 0.0048431838 -0.11730211 4282216669
-0.34258774 0.0058302819 -0.11729698 4282216126
-0.34263009 0.0066388384 -0.11799218 4282216895
-0.34246007 0.0075367922 -0.11833725 4282482903
-0.34207815 0.0085216416 -0.11833126 4286488278
-0.34169695 0.00950485 -0.11832531 4286343363
-0.34152716 0.01040135 -0.11866985 4281688771
-0.34135741 0.011297942 -0.1190144 4281684631
-0.34139854 0.012111079 -0.11971067 4283446935
-0.3416512 0.012842719 -0.12076158 4283513418
-0.34169266 0.013659569 -0.12146135 4286066760
-0.3425858 0.014149725 -0.12358953 4286264639
-0.34327176 0.014726566 -0.12537575 4286001471
-0.34396273 0.015307665 -0.12717496 4286002496
